# .PCD v0.7 - Point Cloud Data file format
VERSION 0.7
FIELDS x y z intensity t reflectivity ring noise range
SIZE 4 4 4 4 4 2 1 2 4
TYPE F F F F U U U U U
COUNT 1 1 1 1 1 1 1 1 1
WIDTH 765
HEIGHT 1
VIEWPOINT 0 0 0 1 0 0 0
POINTS 765
DATA ascii
2.0512455 0.050156668 0.6161232 240 49969664 1095 4 1528 1095
2.0536301 0.025004014 0.61667079 383 50163712 1751 4 1382 1751
2.0566676 -0.00019988669 0.6174922 376 50360064 1725 4 1297 1725
2.0651658 -0.025547026 0.61995631 472 50555392 2182 4 1372 2182
2.0656583 -0.050911739 0.62023008 401 50749952 1856 4 1322 1856
2.0600722 -0.07607834 0.61886114 346 50945792 1595 4 1327 1595
2.0733929 -0.10206485 0.62296802 89 51141120 419 4 1294 419
2.0460653 -0.12590113 0.61557561 46 51336704 213 4 1344 213
2.0424478 -0.15085797 0.61502802 52 51533568 236 4 1260 236
2.0596073 -0.17756639 0.6205039 383 51729408 1775 4 1368 1775
2.0572731 -0.20282757 0.6205039 391 51924224 1811 4 1392 1811
2.0555851 -0.22816449 0.62077767 376 52121600 1743 4 1383 1743
2.0535848 -0.25349051 0.62105143 390 52318208 1811 4 1366 1811
2.0636616 -0.28048798 0.62488455 45 52514816 211 4 1214 211
2.0600641 -0.30579117 0.62488455 50 52708608 234 4 1274 234
2.057106 -0.33120134 0.62515831 48 52904704 225 4 1273 225
2.0898426 -0.36284348 0.63583618 159 53099008 774 4 1268 774
2.0663226 -0.38493547 0.63036036 387 53295872 1854 4 1346 1854
2.0614433 -0.41026345 0.63036036 382 53489152 1831 4 1300 1831
2.0647213 -0.43732482 0.63282448 418 53686016 2019 4 1285 2019
2.0629528 -0.46347317 0.63391966 368 53877504 1780 4 1274 1780
2.0369184 0.22569098 0.56501347 442 48602880 1986 5 1494 1986
2.0366452 0.20039408 0.56425875 486 48799744 2178 5 1501 2178
2.0360579 0.17513794 0.5635041 483 48993024 2158 5 1539 2158
2.0332277 0.14978455 0.56224626 457 49189376 2032 5 1498 2032
2.0407088 0.12517689 0.56375563 496 49382912 2217 5 1552 2217
2.0304911 0.099558242 0.56073689 108 49579776 479 5 1518 479
2.0267239 0.074456751 0.55947906 56 49771776 248 5 1444 248
2.0284526 0.0496036 0.55973065 50 49969664 222 5 1426 222
2.0289085 0.024707634 0.55973065 69 50163712 307 5 1386 307
2.0319626 -0.00019287993 0.5604853 483 50360064 2132 5 1546 2132
2.0356781 -0.025176777 0.56149161 510 50555392 2260 5 1611 2260
2.0400536 -0.050275914 0.56274939 473 50749952 2107 5 1543 2107
2.0421846 -0.075414419 0.5635041 518 50945792 2314 5 1542 2314
2.0208056 -0.099466451 0.55822128 63 51141120 278 5 1406 278
2.0223308 -0.12443622 0.55897593 59 51336704 262 5 1352 262
2.0235469 -0.14945838 0.55973065 53 51533568 236 5 1379 236
2.0292745 -0.17494565 0.56174314 82 51729408 365 5 1471 365
2.0366066 -0.20078617 0.56425875 486 51924224 2177 5 1574 2177
2.0503416 -0.22758152 0.56853533 330 52121600 1503 5 1442 1503
2.0349076 -0.25118151 0.565265 48 52318208 219 5 1382 219
2.051811 -0.27887508 0.57054782 168 52514816 772 5 1429 772
2.050149 -0.3043175 0.57105094 439 52708608 2018 5 1476 2018
2.0462601 -0.32945308 0.57105094 470 52904704 2159 5 1606 2159
2.0449238 -0.35503623 0.57180566 439 53099008 2021 5 1566 2021
2.0337529 -0.3788619 0.5700447 232 53295872 1063 5 1480 1063
2.0602739 -0.41003048 0.57834625 37 53489152 178 5 1389 178
2.0550871 -0.43528232 0.57834625 56 53686016 267 5 1439 267
2.0495906 -0.46046862 0.57834625 38 53877504 182 5 1406 182
2.036253 -0.48379442 0.57633376 419 54074624 1962 5 1544 1962
2.0985379 0.44403395 0.53734314 335 47045632 1630 6 1518 1630
2.0073972 0.39909521 0.51421106 476 47239936 2108 6 1493 2108
2.0169287 0.37532082 0.51535624 454 47435776 2022 6 1418 2022
2.0127504 0.34904644 0.51329494 501 47630336 2212 6 1394 2212
2.0139987 0.32385752 0.51260787 530 47823616 2333 6 1421 2333
2.0168586 0.29897571 0.51237887 541 48019456 2378 6 1358 2378
2.0097649 0.27276522 0.5098595 65 48214272 286 6 1303 286
2.0129609 0.24808177 0.5098595 71 48411392 312 6 1352 312
2.0177886 0.223575 0.51031756 58 48602880 252 6 1269 252
2.0165052 0.19841625 0.50940144 86 48799744 373 6 1262 373
2.0187883 0.17365569 0.50940144 528 48993024 2293 6 1375 2293
2.0168841 0.14858364 0.50848532 499 49189376 2159 6 1407 2159
2.0156407 0.12364393 0.50779825 519 49382912 2238 6 1351 2238
2.0267289 0.099374488 0.51008856 406 49579776 1768 6 1459 1768
2.0297413 0.074567027 0.51054662 65 49771776 287 6 1295 287
2.0305035 0.049653366 0.51054662 51 49969664 222 6 1280 222
2.0299866 0.024720557 0.51031756 49 50163712 216 6 1383 216
2.0301371 -0.0001923622 0.51031756 156 50360064 683 6 1299 683
2.0280352 -0.025080809 0.5098595 149 50555392 647 6 1263 647
2.0227091 -0.049845207 0.50871438 60 50749952 263 6 1304 263
2.021945 -0.074663207 0.50871438 56 50945792 246 6 1306 246
2.0169878 -0.099277802 0.50779825 158 51141120 683 6 1361 683
2.0214469 -0.12438167 0.50917244 451 51336704 1958 6 1355 1958
2.0197685 -0.14917856 0.50917244 480 51533568 2083 6 1369 2083
2.0177855 -0.173953 0.50917244 494 51729408 2144 6 1404 2144
2.0135617 -0.19850986 0.50871438 328 51924224 1422 6 1303 1422
2.0100064 -0.22309685 0.50848532 55 52121600 241 6 1355 241
2.0148461 -0.24870136 0.51031756 63 52318208 278 6 1311 278
2.0135713 -0.27367046 0.51077563 62 52514816 274 6 1334 274
2.0177641 -0.29950428 0.51260787 334 52708608 1471 6 1398 1471
2.031235 -0.32703117 0.51673043 506 52904704 2264 6 1383 2264
2.0289869 -0.35226628 0.51718849 506 53099008 2269 6 1428 2269
2.0254683 -0.37731701 0.51741749 440 53295872 1975 6 1344 1975
2.0235496 -0.40271473 0.51810461 356 53489152 1604 6 1405 1604
2.0184553 -0.42751646 0.51810461 455 53686016 2049 6 1385 2049
2.0187552 -0.45353511 0.5194788 453 53877504 2051 6 1472 2051
2.0187197 -0.47962531 0.52085298 472 54074624 2148 6 1434 2148
2.0202353 -0.50625628 0.52268523 384 54266368 1762 6 1348 1762
2.0691006 0.62781185 0.48825726 259 45680384 1269 7 1800 1269
1.9911222 0.57758141 0.4695082 548 45877504 2464 7 1827 2464
1.9933445 0.5517993 0.46847805 564 46071040 2525 7 1865 2525
1.9990196 0.5270471 0.468272 560 46266112 2504 7 1836 2504
2.0043876 0.50223869 0.46806598 559 46462208 2499 7 1750 2499
2.000879 0.47534397 0.46600565 420 46655744 1861 7 1772 1861
1.9836465 0.44561121 0.46106085 64 46852096 280 7 1722 280
1.9832213 0.42001987 0.45982465 61 47045632 262 7 1638 262
1.9901458 0.39603266 0.4602367 58 47239936 249 7 1698 249
1.9929318 0.37122267 0.45982465 319 47435776 1373 7 1736 1373
1.9973372 0.3467384 0.45982465 681 47630336 2930 7 1745 2930
2.0062726 0.32297862 0.4608548 642 47823616 2774 7 1750 2774
2.005245 0.29761687 0.45982465 555 48019456 2386 7 1839 2386
1.9912925 0.27061844 0.45611605 369 48214272 1557 7 1699 1557
2.0002906 0.24687991 0.45735225 78 48411392 331 7 1698 331
1.9914985 0.22102165 0.45487985 62 48602880 260 7 1642 260
1.9891915 0.19608723 0.45384967 91 48799744 380 7 1677 380
2.0031474 0.17266822 0.45632207 205 48993024 870 7 1731 870
1.9875493 0.14677967 0.45261347 57 49189376 236 7 1709 236
1.9794338 0.12177935 0.45055315 84 49382912 345 7 1695 345
1.9749149 0.097192034 0.44931695 43 49579776 175 7 1695 175
2.000406 0.073847249 0.45446777 360 49771776 1511 7 1740 1511
1.9962703 0.049174085 0.4534376 608 49969664 2537 7 1737 2537
1.9918311 0.024613569 0.45240745 610 50163712 2534 7 1722 2534
1.9939402 0.00016866987 0.4528195 638 50360064 2654 7 1739 2654
1.9859644 -0.024203137 0.45117125 284 50555392 1171 7 1693 1171
1.9894309 -0.048668638 0.45199537 70 50749952 290 7 1666 290
1.9896617 -0.073114477 0.4522014 56 50945792 232 7 1614 232
1.9895921 -0.097573303 0.45240745 61 51141120 253 7 1636 253
1.984338 -0.12174086 0.4515833 360 51336704 1487 7 1673 1487
2.0100195 -0.14810117 0.45735225 573 51533568 2432 7 1698 2432
1.990502 -0.17124292 0.45364365 180 51729408 755 7 1734 755
1.9892246 -0.19575256 0.45384967 80 51924224 334 7 1704 334
2.0090418 -0.22263183 0.45858845 424 52121600 1814 7 1798 1814
2.004216 -0.24702932 0.45817637 579 52318208 2468 7 1662 2468
2.0010338 -0.27160552 0.45817637 591 52514816 2523 7 1737 2523
1.9956142 -0.29585347 0.4577643 636 52708608 2708 7 1797 2708
1.9841045 -0.319076 0.45611605 161 52904704 680 7 1687 680
1.991609 -0.34540877 0.45858845 71 53099008 303 7 1654 303
1.9901062 -0.37036052 0.45920655 74 53295872 317 7 1703 317
1.9854115 -0.39475432 0.45920655 56 53489152 240 7 1696 240
2.0081797 -0.42496902 0.4651815 613 53686016 2703 7 1749 2703
2.0047228 -0.4500095 0.46559358 553 53877504 2443 7 1776 2443
2.0038099 -0.47570768 0.46662375 571 54074624 2534 7 1778 2534
1.9987705 -0.50049955 0.46682978 594 54266368 2640 7 1758 2640
2.0000477 -0.52698588 0.46847805 391 54461952 1752 7 1808 1752
2.0022388 0.68897951 0.42693567 179 45098752 830 8 1711 830
1.9713329 0.65140861 0.41926014 365 45291264 1630 8 1473 1630
1.9679308 0.62360644 0.41706714 68 45489920 303 8 1407 303
1.9735535 0.5988394 0.41670164 48 45680384 214 8 1396 214
1.9798093 0.57430202 0.4165189 64 45877504 284 8 1446 284
1.9867078 0.54996347 0.4165189 445 46071040 1959 8 1446 1959
1.9723914 0.52003175 0.41249838 593 46266112 2555 8 1563 2555
1.9748095 0.4948332 0.41176739 586 46462208 2518 8 1407 2518
1.9759502 0.46942666 0.41085362 543 46655744 2320 8 1522 2320
1.9834807 0.44557399 0.41121912 112 46852096 481 8 1457 481
1.9657145 0.41631564 0.40683311 61 47045632 257 8 1419 257
1.9697109 0.39197025 0.40665036 82 47239936 346 8 1328 346
1.9685733 0.36669025 0.40555388 103 47435776 430 8 1381 430
1.9545196 0.33931363 0.40208161 121 47630336 496 8 1360 496
1.9663018 0.31655174 0.40354362 82 47823616 339 8 1437 339
1.9700384 0.29239836 0.40354362 57 48019456 237 8 1359 237
1.9754267 0.26846534 0.40390912 70 48214272 291 8 1364 291
1.9785724 0.24420361 0.40390912 627 48411392 2581 8 1464 2581
1.9784886 0.21958032 0.40336087 608 48602880 2497 8 1511 2497
1.9751636 0.19470713 0.40226436 559 48799744 2280 8 1599 2280
1.9764247 0.17036992 0.40208161 574 48993024 2340 8 1533 2340
1.96562 0.14516449 0.39970586 72 49189376 292 8 1391 292
1.9672534 0.12103237 0.39970586 66 49382912 268 8 1436 268
1.9646627 0.0966895 0.39897487 86 49579776 347 8 1403 347
1.9686487 0.072681025 0.39952311 71 49771776 288 8 1428 288
1.9752896 0.048661329 0.40061963 486 49969664 1965 8 1490 1965
1.9698395 0.024346076 0.39952311 194 50163712 782 8 1436 782
1.9660573 0.00017171144 0.39879212 87 50360064 351 8 1338 351
1.9796745 -0.024125258 0.40135062 50 50555392 206 8 1363 206
1.9861094 -0.048586741 0.40262988 573 50749952 2344 8 1438 2344
1.9824162 -0.072846815 0.40208161 527 50945792 2149 8 1469 2149
1.9764631 -0.096926883 0.40116787 500 51141120 2029 8 1508 2029
1.97905 -0.12141541 0.40189886 535 51336704 2179 8 1547 2179
1.9881965 -0.14648901 0.40390912 89 51533568 368 8 1430 368
1.98429 -0.1707073 0.40354362 60 51729408 249 8 1436 249
1.9810674 -0.19494826 0.40336087 54 51924224 225 8 1314 225
1.9785259 -0.21924432 0.40336087 68 52121600 281 8 1400 281
1.9844682 -0.24459147 0.40500563 517 52318208 2142 8 1405 2142
1.9871625 -0.26972005 0.40610212 595 52514816 2480 8 1540 2480
1.9885654 -0.29480711 0.40701589 580 52708608 2428 8 1511 2428
1.9712088 -0.31699961 0.40445736 416 52904704 1718 8 1518 1718
1.982669 -0.34385654 0.40738139 639 53099008 2681 8 1542 2681
1.9802331 -0.36852118 0.40774688 640 53295872 2689 8 1486 2689
1.9784544 -0.39336964 0.40829512 665 53489152 2802 8 1569 2802
1.9821346 -0.41945228 0.40993989 617 53686016 2625 8 1443 2625
1.9825934 -0.44503763 0.41103637 70 53877504 301 8 1496 301
1.980809 -0.47024268 0.41176739 62 54074624 268 8 1449 268
1.975843 -0.49475384 0.41195014 60 54266368 260 8 1409 260
1.9743761 -0.52021658 0.41286388 244 54461952 1056 8 1437 1056
1.9792137 -0.54755396 0.41505688 333 54657024 1456 8 1523 1456
1.9582011 0.64669007 0.36585867 555 45291264 2425 9 1559 2425
1.9650482 0.62231332 0.36569965 66 45489920 288 9 1601 288
1.9621437 0.59500277 0.36395043 70 45680384 303 9 1537 303
1.9636078 0.56923121 0.36299631 76 45877504 328 9 1508 328
1.9533167 0.54035693 0.36013395 196 46071040 828 9 1521 828
1.9531174 0.51458663 0.35902083 100 46266112 420 9 1525 420
1.9468343 0.48746508 0.35695356 63 46462208 262 9 1539 262
1.9507484 0.46308205 0.35663551 73 46655744 303 9 1496 303
1.9572476 0.43932453 0.35679454 256 46852096 1058 9 1622 1058
1.9528321 0.41323099 0.35520434 619 47045632 2532 9 1586 2532
1.9558194 0.38885096 0.35488629 727 47239936 2970 9 1599 2970
1.9575319 0.36427945 0.35440925 651 47435776 2650 9 1572 2650
1.9540725 0.338882 0.35313708 386 47630336 1559 9 1628 1559
1.9493109 0.31346798 0.35170591 73 47823616 294 9 1468 294
1.9520342 0.28937873 0.35154688 92 48019456 369 9 1525 369
1.95446 0.26526991 0.35138786 75 48214272 301 9 1543 301
1.9467894 0.23993936 0.34963864 341 48411392 1348 9 1583 1348
1.9495872 0.21603119 0.34963864 349 48602880 1380 9 1517 1380
1.9619169 0.19305541 0.35122886 71 48799744 284 9 1583 284
1.9661057 0.16913398 0.35154688 63 48993024 253 9 1511 253
1.95031 0.14369182 0.34868455 276 49189376 1084 9 1536 1084
1.9529119 0.11980796 0.34884354 587 49382912 2311 9 1720 2311
1.9512768 0.095689215 0.3483665 552 49579776 2164 9 1585 2164
1.9483576 0.071592607 0.34773043 576 49771776 2249 9 1596 2249
1.9559983 0.047845513 0.34884354 414 49969664 1627 9 1685 1627
1.9445918 0.023696775 0.34693533 89 50163712 347 9 1517 347
1.9496725 -0.00016954116 0.34773043 69 50360064 270 9 1582 270
1.9524852 -0.024132196 0.34820747 71 50555392 280 9 1488 280
1.9490812 -0.04801685 0.34773043 150 50749952 586 9 1513 586
1.9483452 -0.071931459 0.34773043 529 50945792 2065 9 1674 2065
1.9483018 -0.095883958 0.34788945 501 51141120 1959 9 1543 1959
1.9519055 -0.12008949 0.34868455 242 51336704 951 9 1637 951
1.9433928 -0.14352298 0.3475714 121 51533568 473 9 1501 473
1.9611573 -0.16906029 0.35075179 582 51729408 2317 9 1555 2317
1.958935 -0.19311397 0.35075179 549 51924224 2184 9 1636 2184
1.957399 -0.21724768 0.35091081 594 52121600 2366 9 1585 2366
1.9565452 -0.24149388 0.35122886 565 52318208 2255 9 1584 2255
1.9544127 -0.26561865 0.35138786 100 52514816 401 9 1493 401
1.9558887 -0.290308 0.35218298 69 52708608 278 9 1514 278
1.9570524 -0.31507349 0.35297808 73 52904704 296 9 1458 296
1.9306667 -0.33517736 0.34932062 185 53099008 731 9 1521 731
1.9632888 -0.36572185 0.35536337 712 53295872 2916 9 1708 2916
1.9615577 -0.39036551 0.35584041 732 53489152 3005 9 1655 3005
1.9575855 -0.4146122 0.35599944 740 53686016 3043 9 1603 3043
1.9590927 -0.44011968 0.35711259 486 53877504 2012 9 1603 2012
1.9573863 -0.46504119 0.35774866 74 54074624 309 9 1545 309
1.9582355 -0.49070743 0.3588618 447 54266368 1871 9 1656 1871
1.9625669 -0.51747185 0.36061102 619 54461952 2620 9 1737 2620
1.9570204 -0.54178023 0.36077005 676 54657024 2863 9 1618 2863
1.9578096 -0.56795704 0.36204219 193 54850048 827 9 1793 827
1.9247322 0.63564396 0.31135789 424 45291264 1776 10 1686 1776
1.9323876 0.61197668 0.31135789 688 45489920 2883 10 1669 2883
1.9369074 0.58735526 0.31095126 697 45680384 2913 10 1721 2913
1.9401627 0.56243944 0.31040907 727 45877504 3024 10 1657 3024
1.9450086 0.53806037 0.31013799 655 46071040 2720 10 1694 2720
1.9332607 0.509359 0.30756268 144 46266112 587 10 1636 587
1.9432104 0.48655841 0.30810484 81 46462208 332 10 1578 332
1.9461428 0.46198964 0.30769822 70 46655744 286 10 1577 286
1.945865 0.43677187 0.30688497 72 46852096 293 10 1532 293
1.9355688 0.40958142 0.30471629 631 47045632 2517 10 1690 2517
1.9443364 0.38657022 0.30525845 194 47239936 778 10 1589 778
1.9314003 0.35942179 0.30281869 88 47435776 347 10 1624 347
1.9278556 0.3343406 0.30173436 64 47630336 250 10 1602 250
1.9357263 0.31128612 0.30227652 608 47823616 2385 10 1744 2385
1.9403806 0.28765345 0.30241206 709 48019456 2780 10 1695 2780
1.940819 0.26342115 0.30200544 716 48214272 2798 10 1710 2798
1.939972 0.23910049 0.30146328 678 48411392 2643 10 1758 2643
1.9240496 0.21320646 0.29888797 104 48602880 397 10 1643 397
1.924549 0.18938568 0.29861686 83 48799744 317 10 1569 317
1.9277153 0.16583897 0.29875243 77 48993024 294 10 1630 294
1.9296052 0.14217044 0.29875243 72 49189376 275 10 1620 275
1.9410938 0.11908527 0.30010784 549 49382912 2120 10 1719 2120
1.937461 0.095014416 0.29943013 527 49579776 2021 10 1712 2021
1.9394712 0.071267821 0.29956567 326 49771776 1254 10 1727 1254
1.9392093 0.047438126 0.29943013 78 49969664 300 10 1581 300
1.9317198 0.023542456 0.29834577 507 50163712 1933 10 1721 1933
1.9397894 -0.00016673817 0.29943013 656 50360064 2519 10 1767 2519
1.9396414 -0.023970926 0.29943013 647 50555392 2485 10 1743 2485
1.9401916 -0.0477961 0.29956567 612 50749952 2350 10 1704 2350
1.9364887 -0.07149139 0.29915905 267 50945792 1022 10 1688 1022
1.9414029 -0.095543079 0.2999723 68 51141120 262 10 1677 262
1.9381065 -0.11923781 0.29970121 51 51336704 197 10 1569 197
1.9364973 -0.14301237 0.29970121 72 51533568 277 10 1633 277
1.9217644 -0.1656567 0.29793915 309 51729408 1172 10 1649 1172
1.9363483 -0.19088291 0.30024338 629 51924224 2430 10 1758 2430
1.9348447 -0.21473999 0.30037892 659 52121600 2545 10 1696 2545
1.9310806 -0.23834577 0.30024338 620 52318208 2395 10 1769 2395
1.9319372 -0.26255962 0.30078554 460 52514816 1782 10 1691 1782
1.9305297 -0.28653902 0.30105662 620 52708608 2407 10 1653 2407
1.9288244 -0.31052333 0.30132774 725 52904704 2821 10 1683 2821
1.927797 -0.33467859 0.30173436 641 53099008 2505 10 1745 2505
1.9196489 -0.35758391 0.30119219 411 53295872 1599 10 1609 1599
1.9442666 -0.38692099 0.30525845 88 53489152 352 10 1666 352
1.9374336 -0.41034004 0.30498737 86 53686016 345 10 1546 345
1.9312856 -0.4338671 0.30485183 72 53877504 288 10 1675 288
1.9315994 -0.45890945 0.30566508 400 54074624 1608 10 1628 1608
1.9536917 -0.48956791 0.30959582 638 54266368 2638 10 1675 2638
1.9504107 -0.51426423 0.31000245 732 54461952 3036 10 1644 3036
1.9458628 -0.53868908 0.31027353 686 54657024 2854 10 1744 2854
1.947669 -0.56501323 0.31149343 797 54850048 3342 10 1641 3342
1.920314 0.60815555 0.2600168 662 45489920 2722 11 1427 2722
1.9143173 0.5805096 0.25845867 568 45680384 2306 11 1328 2306
1.9203423 0.55669773 0.25834739 108 45877504 438 11 1218 438
1.9241557 0.53229594 0.25801349 78 46071040 315 11 1253 315
1.9074779 0.50257123 0.25534239 289 46266112 1142 11 1297 1142
1.9106094 0.47840214 0.25500852 632 46462208 2486 11 1379 2486
1.9134353 0.45423195 0.25467464 646 46655744 2535 11 1369 2535
1.9188654 0.43071693 0.25467464 652 46852096 2559 11 1338 2559
1.9035882 0.40282056 0.25233743 375 47045632 1442 11 1326 1442
1.9142365 0.38059187 0.25300521 74 47239936 285 11 1276 285
1.9138776 0.35616446 0.25244871 76 47435776 292 11 1257 292
1.9141874 0.33197293 0.25200355 64 47630336 244 11 1270 244
1.9083049 0.30688199 0.25089058 320 47823616 1214 11 1333 1214
1.9148765 0.28387767 0.25122446 664 48019456 2523 11 1436 2523
1.9162463 0.26009089 0.25100186 625 48214272 2370 11 1372 2370
1.9114029 0.23558503 0.25011152 156 48411392 586 11 1228 586
1.9072356 0.21134664 0.24933244 222 48602880 831 11 1333 831
1.9126526 0.1882174 0.24966633 613 48799744 2297 11 1407 2297
1.9128381 0.16456208 0.24944374 585 48993024 2188 11 1336 2188
1.9127312 0.14093056 0.24922115 561 49189376 2093 11 1411 2093
1.9143167 0.11744779 0.24922115 439 49382912 1638 11 1369 1638
1.9166063 0.093995824 0.24933244 90 49579776 335 11 1282 335
1.9156293 0.070396446 0.24910985 64 49771776 238 11 1256 238
1.914362 0.04683521 0.24888727 66 49969664 245 11 1229 245
1.9128051 0.02331569 0.24866468 82 50163712 304 11 1266 304
1.9179161 -0.00016053453 0.24922115 550 50360064 2052 11 1414 2052
1.9187634 -0.023708779 0.24933244 603 50555392 2251 11 1408 2251
1.918328 -0.047253173 0.24933244 552 50749952 2062 11 1438 2062
1.9156175 -0.070716731 0.24910985 476 50945792 1775 11 1294 1775
1.9126203 -0.09412089 0.24888727 404 51141120 1503 11 1368 1503
1.9212402 -0.11819681 0.25000021 492 51336704 1849 11 1341 1849
1.9226184 -0.14198464 0.25033411 511 51533568 1927 11 1423 1927
1.9227114 -0.16573852 0.25055671 520 51729408 1964 11 1378 1964
1.9215218 -0.18941836 0.25066799 159 51924224 600 11 1227 600
1.9279419 -0.21397249 0.25166965 62 52121600 236 11 1226 236
1.9281298 -0.23798098 0.25200355 86 52318208 329 11 1251 329
1.9211254 -0.26108807 0.25155836 68 52514816 259 11 1216 259
1.9217087 -0.28522798 0.25200355 485 52708608 1857 11 1328 1857
1.9219884 -0.30942142 0.25244871 656 52904704 2521 11 1448 2521
1.922942 -0.33383477 0.25300521 732 53099008 2826 11 1401 2826
1.9206545 -0.35777146 0.2532278 739 53295872 2860 11 1413 2860
1.9170941 -0.38150805 0.25333908 292 53489152 1133 11 1325 1133
1.9132403 -0.40521112 0.25345036 76 53686016 298 11 1289 298
1.9236369 -0.43214723 0.25523111 135 53877504 532 11 1216 532
1.9201226 -0.45618048 0.25545371 554 54074624 2189 11 1372 2189
1.9307669 -0.48381862 0.25734571 209 54266368 839 11 1168 839
1.9218016 -0.506715 0.25701183 74 54461952 299 11 1324 299
1.9183118 -0.53105628 0.25734571 74 54657024 298 11 1190 298
1.9211944 -0.55732757 0.25845867 89 54850048 361 11 1249 361
1.9446397 -0.59010166 0.26202014 750 55046656 3140 11 1359 3140
1.8974593 0.60092235 0.2089396 556 45489920 2221 12 2061 2221
1.9008771 0.57643676 0.20859097 116 45680384 462 12 2082 462
1.8829296 0.54585975 0.20632492 66 45877504 256 12 2035 256
1.8866057 0.52191591 0.20606345 63 46071040 244 12 1980 244
1.8967218 0.49973956 0.20641208 81 46266112 314 12 2050 314
1.898846 0.4754591 0.20606345 657 46462208 2541 12 2187 2541
1.8977525 0.45051223 0.20545337 618 46655744 2374 12 2187 2374
1.883697 0.4228301 0.20371024 387 46852096 1454 12 2070 1454
1.8994652 0.40194893 0.20466895 101 47045632 385 12 2009 385
1.8944837 0.3766686 0.2037974 613 47239936 2305 12 2133 2305
1.8960251 0.35284582 0.20353593 669 47435776 2508 12 2121 2508
1.9002122 0.32955208 0.20353593 598 47630336 2246 12 2185 2246
1.9031297 0.30605078 0.20344877 609 47823616 2284 12 2148 2284
1.9018148 0.28194395 0.203013 122 48019456 455 12 2035 455
1.8972341 0.25751421 0.20231575 67 48214272 248 12 2026 248
1.8992627 0.23409118 0.20222859 76 48411392 281 12 2092 281
1.9029825 0.2108762 0.20231575 71 48602880 263 12 2007 263
1.896504 0.18663153 0.20153135 484 48799744 1776 12 2142 1776
1.8946813 0.1630037 0.20118272 533 48993024 1944 12 2087 1944
1.8975325 0.13981377 0.20126988 533 49189376 1948 12 2208 1948
1.8991053 0.1165176 0.20126988 553 49382912 2022 12 2186 2022
1.9033773 0.09334968 0.20153135 362 49579776 1326 12 2079 1326
1.9003973 0.069839746 0.20118272 531 49771776 1939 12 2141 1939
1.9001154 0.046489522 0.20109557 598 49969664 2178 12 2139 2178
1.8995467 0.02315674 0.20100842 609 50163712 2219 12 2153 2219
1.900684 -0.00015564724 0.20109557 402 50360064 1464 12 2105 1464
1.8985468 -0.023454938 0.20092127 77 50555392 280 12 2014 280
1.898116 -0.046751261 0.20092127 72 50749952 262 12 2087 262
1.8954083 -0.069966644 0.20074695 65 50945792 236 12 2087 236
1.896397 -0.093319274 0.20092127 138 51141120 501 12 2078 501
1.9020691 -0.11701354 0.20153135 475 51336704 1740 12 2086 1740
1.9054574 -0.14071389 0.20196714 520 51533568 1916 12 2185 1916
1.9035871 -0.16408618 0.20196714 511 51729408 1885 12 2147 1885
1.9024215 -0.18753169 0.20205429 522 51924224 1926 12 2209 1926
1.9019572 -0.21108337 0.20222859 79 52121600 292 12 2111 292
1.9021896 -0.2347741 0.20249006 103 52318208 382 12 2017 382
1.9021267 -0.25850224 0.20275153 533 52514816 1981 12 2079 1981
1.903738 -0.28255707 0.20318732 554 52708608 2072 12 2171 2072
1.9050448 -0.30669025 0.20362309 114 52904704 428 12 2101 428
1.9060452 -0.33089793 0.20405887 81 53099008 306 12 2063 306
1.8989031 -0.35371527 0.2037974 69 53295872 260 12 2002 260
1.8983275 -0.37776959 0.20414603 85 53489152 321 12 2047 321
1.9081668 -0.40413553 0.20545337 618 53686016 2374 12 2158 2374
1.9079233 -0.42861396 0.20588914 660 53877504 2544 12 2105 2544
1.9044583 -0.45245576 0.20606345 640 54074624 2476 12 2148 2476
1.8997288 -0.47603464 0.20615061 685 54266368 2648 12 2068 2648
1.897597 -0.50032806 0.20649923 92 54461952 358 12 2043 358
1.8903543 -0.52331084 0.20641208 83 54657024 323 12 1982 323
1.8837901 -0.54646903 0.20641208 93 54850048 361 12 2091 361
1.9026791 -0.57736003 0.20876528 147 55046656 587 12 1969 587
1.8945011 -0.60036421 0.20867813 647 55240448 2576 12 2075 2576
1.8752859 0.59390479 0.15894765 368 45489920 1432 13 1437 1432
1.8681058 0.56650579 0.15800579 692 45680384 2650 13 1411 2650
1.8720412 0.54270554 0.15781742 658 45877504 2514 13 1297 2514
1.8756742 0.51889408 0.15762904 660 46071040 2513 13 1354 2513
1.8799703 0.49532944 0.15750347 612 46266112 2325 13 1363 2325
1.8810663 0.47101089 0.15718952 291 46462208 1099 13 1278 1099
1.8789361 0.44604921 0.15668719 71 46655744 266 13 1187 266
1.8842683 0.4229582 0.15668719 70 46852096 262 13 1212 262
1.8893167 0.39980349 0.15668719 85 47045632 318 13 1246 318
1.8784182 0.37347773 0.15568253 415 47239936 1531 13 1413 1531
1.8799162 0.34985131 0.15549417 616 47435776 2265 13 1393 2265
1.8821012 0.32641482 0.15536858 605 47630336 2219 13 1447 2219
1.8839942 0.30297744 0.15524301 610 47823616 2233 13 1460 2233
1.8885577 0.27998126 0.1553058 450 48019456 1650 13 1388 1650
1.8829503 0.25557837 0.15474068 597 48214272 2168 13 1400 2168
1.8780204 0.23147732 0.15423836 658 48411392 2370 13 1451 2370
1.8807197 0.20841369 0.15423836 636 48602880 2290 13 1515 2290
1.8831356 0.18531868 0.15423836 485 48799744 1748 13 1361 1748
1.8693579 0.16083021 0.15323371 80 48993024 283 13 1207 283
1.8692002 0.13773192 0.15310813 81 49189376 286 13 1148 286
1.8687572 0.11466176 0.15298255 72 49382912 254 13 1221 254
1.86803 0.091623224 0.15285696 82 49579776 288 13 1243 288
1.8899583 0.069458216 0.15417556 525 49771776 1889 13 1375 1889
1.8896706 0.046236079 0.15411277 597 49969664 2145 13 1403 2145
1.8900957 0.023043433 0.15411277 599 50163712 2151 13 1399 2151
1.8872421 -0.00015183489 0.15392441 605 50360064 2167 13 1479 2167
1.9150406 -0.023662036 0.15568253 167 50555392 618 13 1342 618
1.8986425 -0.046764337 0.1546779 72 50749952 261 13 1257 261
1.9019151 -0.070208147 0.15492906 296 50945792 1079 13 1381 1079
1.87599 -0.09231095 0.15335929 571 51141120 2026 13 1405 2026
1.8996192 -0.11686233 0.15492906 244 51336704 891 13 1334 891
1.8990375 -0.14023849 0.15499185 86 51533568 314 13 1170 314
1.8941905 -0.1632743 0.15480347 72 51729408 262 13 1228 262
1.8930374 -0.18660475 0.15486626 74 51924224 272 13 1287 272
1.8925889 -0.21004176 0.15499185 263 52121600 960 13 1327 960
1.8898687 -0.23325092 0.15499185 619 52318208 2257 13 1465 2257
1.8868642 -0.25642496 0.15499185 595 52514816 2168 13 1451 2168
1.8865368 -0.28000054 0.15518022 663 52708608 2424 13 1459 2424
1.8878853 -0.30392426 0.15549417 560 52904704 2059 13 1380 2059
1.902696 -0.3303158 0.15668719 98 53099008 367 13 1211 367
1.8984993 -0.35363996 0.15668719 83 53295872 311 13 1252 311
1.8940165 -0.37691084 0.15668719 104 53489152 390 13 1235 390
1.8921777 -0.40074587 0.15687557 149 53686016 560 13 1203 560
1.8929597 -0.42524931 0.1572523 168 53877504 635 13 1217 635
1.8837149 -0.4475233 0.15700114 87 54074624 327 13 1253 327
1.8790493 -0.47084847 0.15706393 86 54266368 324 13 1264 324
1.8914647 -0.49870992 0.15825695 173 54461952 665 13 1249 665
1.8900113 -0.52321583 0.1585709 696 54657024 2691 13 1364 2691
1.8853652 -0.54692626 0.15869649 793 54850048 3069 13 1282 3069
1.8823315 -0.57118136 0.15894765 810 55046656 3152 13 1409 3152
1.8780346 -0.59514248 0.15913601 789 55240448 3080 13 1346 3080
1.8866985 -0.62347066 0.16020346 556 55434240 2208 13 1351 2208
1.8502821 0.56146008 0.10918422 660 45680384 2475 14 1936 2475
1.8551133 0.53815556 0.10910814 593 45877504 2218 14 1914 2218
1.8596513 0.51481712 0.10903206 572 46071040 2135 14 1944 2135
1.8609974 0.49068472 0.10884187 562 46266112 2087 14 1851 2087
1.8610626 0.46635425 0.10861363 529 46462208 1952 14 1911 1952
1.8520614 0.44001928 0.10804304 357 46655744 1297 14 1864 1297
1.8602468 0.41791502 0.10815717 606 46852096 2209 14 1950 2209
1.8613245 0.39422804 0.10800501 592 47045632 2148 14 1963 2148
1.8621018 0.37057766 0.10785285 626 47239936 2262 14 1978 2262
1.8645444 0.34733331 0.10777678 93 47435776 337 14 1876 337
1.8696508 0.32459706 0.10781481 70 47630336 255 14 1791 255
1.8675737 0.3006773 0.10758658 73 47823616 265 14 1727 265
1.871123 0.27773666 0.10758658 75 48019456 272 14 1739 272
1.8644882 0.25341043 0.10720619 681 48214272 2416 14 2036 2416
1.8654741 0.23026679 0.10713011 689 48411392 2441 14 1982 2441
1.8681593 0.20735721 0.10713011 596 48602880 2112 14 1872 2112
1.8705633 0.18441641 0.10713011 623 48799744 2206 14 1923 2206
1.8677075 0.16101971 0.10693992 226 48993024 798 14 1833 798
1.8725325 0.13830815 0.10705403 58 49189376 208 14 1743 208
1.8730913 0.11525771 0.107016 124 49382912 440 14 1815 440
1.8623878 0.091676243 0.10655953 504 49579776 1758 14 1865 1758
1.8753558 0.069255032 0.107016 379 49771776 1339 14 1829 1339
1.8730675 0.046163075 0.10690188 93 49969664 329 14 1840 329
1.8674978 0.023101257 0.10667364 62 50163712 220 14 1720 220
1.8716377 0.000182011 0.1068258 68 50360064 242 14 1718 242
1.866503 -0.022724019 0.10663561 130 50555392 454 14 1681 454
1.8670826 -0.045651805 0.10667364 604 50749952 2113 14 1937 2113
1.8693776 -0.06867101 0.10678776 594 50945792 2083 14 1875 2083
1.8683941 -0.091605976 0.10678776 630 51141120 2211 14 1921 2211
1.8711189 -0.11477269 0.10693992 536 51336704 1889 14 1870 1889
1.8635901 -0.13728383 0.10671169 105 51533568 370 14 1773 370
1.8707254 -0.16091521 0.10705403 74 51729408 264 14 1785 264
1.875571 -0.18454616 0.10732031 51 51924224 184 14 1834 184
1.8741583 -0.20765865 0.10735834 62 52121600 223 14 1761 223
1.8754359 -0.23113154 0.1075105 337 52318208 1208 14 1829 1208
1.8655272 -0.25318649 0.10724423 78 52514816 277 14 1692 277
1.8632681 -0.27620703 0.10728227 90 52708608 322 14 1837 322
1.8636847 -0.29968682 0.10743442 80 52904704 289 14 1725 289
1.8667585 -0.32373112 0.1077007 372 53099008 1339 14 1906 1339
1.8724689 -0.34844491 0.10808109 707 53295872 2571 14 1924 2571
1.8700122 -0.37178686 0.10815717 675 53489152 2460 14 2013 2460
1.8682417 -0.39532799 0.10827128 632 53686016 2311 14 1983 2311
1.8612998 -0.41778633 0.1081952 422 53877504 1541 14 1840 1541
1.8813102 -0.44660181 0.10918422 64 54074624 243 14 1740 243
1.8756881 -0.46965474 0.10918422 68 54266368 258 14 1757 258
1.8707497 -0.49289173 0.10922226 76 54461952 285 14 1703 285
1.8664864 -0.51634485 0.10929833 320 54657024 1204 14 1805 1204
1.8830425 -0.54589278 0.11021127 782 54850048 3012 14 1867 3012
1.8781141 -0.56953984 0.11028735 743 55046656 2868 14 1982 2868
1.8747939 -0.59375191 0.1104395 193 55240448 751 14 1742 751
1.8673666 -0.61671376 0.1104395 432 55434240 1677 14 1765 1677
1.8606027 -0.63990802 0.11047754 373 55630080 1448 14 1970 1448
1.8428439 0.55920458 0.062517114 513 45680384 1907 15 1720 1907
1.8457259 0.53543442 0.062461961 138 45877504 511 15 1477 511
1.8348107 0.50794572 0.062213786 65 46071040 237 15 1489 237
1.8409058 0.48539153 0.062213786 64 46266112 234 15 1466 234
1.8447838 0.46227852 0.062186211 76 46462208 277 15 1409 277
1.8512906 0.43983632 0.062199999 481 46655744 1743 15 1615 1743
1.8477679 0.41511425 0.062075909 603 46852096 2164 15 1587 2164
1.8458753 0.39095914 0.061979394 664 47045632 2366 15 1598 2366
1.8495532 0.368083 0.061965607 678 47239936 2412 15 1693 2412
1.8421345 0.34316343 0.061800156 288 47435776 1014 15 1493 1014
1.8442365 0.3201901 0.061772581 83 47630336 292 15 1484 292
1.8500013 0.29785183 0.061800156 84 47823616 297 15 1449 297
1.8535172 0.27512705 0.061800156 370 48019456 1302 15 1535 1302
1.8508089 0.25155407 0.061717428 469 48214272 1639 15 1484 1639
1.8597108 0.22955661 0.061800156 78 48411392 276 15 1444 276
1.8613939 0.2066077 0.061786368 75 48602880 265 15 1472 265
1.861799 0.18355417 0.06175879 71 48799744 250 15 1484 250
1.8290434 0.1576944 0.061276224 132 48993024 447 15 1474 447
1.8507849 0.13670632 0.061551977 604 49189376 2083 15 1611 2083
1.8533211 0.11404526 0.061565764 649 49382912 2240 15 1553 2240
1.8565785 0.091391481 0.061593339 585 49579776 2023 15 1564 2023
1.8575603 0.068601526 0.061593339 606 49771776 2095 15 1583 2095
1.856263 0.04575238 0.061565764 131 49969664 453 15 1526 453
1.8496858 0.022884604 0.061469249 82 50163712 283 15 1439 283
1.8468276 0.00018471736 0.061427888 71 50360064 244 15 1379 244
1.8446913 -0.022453954 0.061400313 85 50555392 291 15 1484 291
1.8492748 -0.045212701 0.061469249 411 50749952 1409 15 1572 1409
1.8445839 -0.067755096 0.0614141 316 50945792 1078 15 1519 1078
1.8346252 -0.089943327 0.061290011 76 51141120 258 15 1446 258
1.8293912 -0.11220453 0.061234862 80 51336704 271 15 1379 271
1.8597866 -0.13700286 0.061676066 182 51533568 635 15 1456 635
1.8529843 -0.15938549 0.061607126 641 51729408 2220 15 1539 2220
1.8518839 -0.18221056 0.061620913 661 51924224 2291 15 1519 2291
1.8415581 -0.20403975 0.061510615 707 52121600 2428 15 1600 2428
1.8418926 -0.22699066 0.061551977 672 52318208 2317 15 1626 2317
1.855812 -0.25186592 0.061786368 123 52514816 433 15 1451 433
1.8664284 -0.27667615 0.061979394 93 52708608 333 15 1400 333
1.8628925 -0.29955927 0.061979394 78 52904704 279 15 1475 279
1.8610466 -0.32273939 0.062006969 86 53099008 310 15 1370 310
1.8657929 -0.34720114 0.062131058 689 53295872 2483 15 1580 2483
1.8613917 -0.37007114 0.062131058 727 53489152 2621 15 1659 2621
1.8586665 -0.39329982 0.062158633 628 53686016 2269 15 1581 2269
1.863456 -0.41827077 0.06229651 156 53877504 570 15 1497 570
1.8474818 -0.43856418 0.062144846 428 54074624 1545 15 1595 1545
1.8623291 -0.46630692 0.062434386 641 54266368 2365 15 1587 2365
1.8584002 -0.48963535 0.062461961 633 54461952 2341 15 1622 2341
1.8464698 -0.51080316 0.062379237 718 54657024 2639 15 1603 2639
1.844864 -0.53481674 0.062448174 336 54850048 1241 15 1557 1241
1.8649529 -0.56554586 0.062834233 99 55046656 378 15 1488 378
1.8616852 -0.58959746 0.062889382 93 55240448 356 15 1499 356
1.8571578 -0.61334008 0.06293074 91 55434240 350 15 1473 350
1.8513824 -0.63673484 0.062958315 529 55630080 2030 15 1482 2030
1.8255827 0.55432141 0.015044429 252 45680384 920 16 1435 920
1.8082389 0.52491283 0.015323676 368 45877504 1305 16 1272 1305
1.811653 0.50188315 0.015357186 72 46071040 255 16 1175 255
1.8176755 0.47961357 0.015357186 65 46266112 230 16 1150 230
1.8418534 0.46188933 0.015144958 179 46462208 646 16 1242 646
1.8366812 0.43671 0.015267828 384 46655744 1369 16 1219 1369
1.8282433 0.41107008 0.015424205 87 46852096 307 16 1132 307
1.8331501 0.38860378 0.015424205 96 47045632 338 16 1103 338
1.8377808 0.36607894 0.015424205 82 47239936 288 16 1194 288
1.84705 0.34441444 0.015368356 133 47435776 470 16 1178 470
1.8284776 0.31778899 0.015625263 624 47630336 2150 16 1274 2150
1.8282908 0.29469118 0.015669942 628 47823616 2155 16 1235 2155
1.8238566 0.27105877 0.015759302 693 48019456 2359 16 1157 2359
1.8181281 0.24744509 0.015859831 774 48214272 2607 16 1256 2607
1.8230126 0.22536017 0.015837491 115 48411392 389 16 1158 389
1.8266346 0.20308231 0.01582632 105 48602880 355 16 1175 355
1.8289893 0.18065141 0.01582632 72 48799744 244 16 1121 244
1.8310684 0.15819329 0.01582632 76 48993024 257 16 1137 257
1.8448385 0.13659486 0.015692282 434 49189376 1488 16 1120 1488
1.8264148 0.11271792 0.015915681 571 49382912 1914 16 1211 1914
1.8186719 0.089854345 0.016016209 193 49579776 641 16 1170 641
1.8226354 0.06764029 0.015982699 82 49771776 273 16 1231 273
1.8333246 0.045514707 0.015871 219 49969664 738 16 1140 738
1.8287457 0.022951884 0.015926849 665 50163712 2225 16 1170 2225
1.8258898 0.00050843705 0.01596036 721 50360064 2404 16 1238 2404
1.8257586 -0.021898078 0.01596036 706 50555392 2355 16 1203 2355
1.8283514 -0.044374719 0.015926849 678 50749952 2271 16 1210 2271
1.8486537 -0.06757959 0.015692282 132 50945792 452 16 1144 452
1.8416927 -0.089966327 0.015759302 76 51141120 260 16 1099 260
1.84045 -0.11255996 0.015759302 91 51336704 311 16 1065 311
1.8369356 -0.13498965 0.015781641 70 51533568 239 16 1093 239
1.8421146 -0.1581216 0.015703453 458 51729408 1566 16 1235 1566
1.828094 -0.17953992 0.015837491 724 51924224 2447 16 1314 2447
1.8257531 -0.20195992 0.015837491 708 52121600 2390 16 1216 2390
1.832069 -0.22545056 0.015736962 651 52318208 2220 16 1174 2220
1.8390729 -0.24926096 0.015625263 333 52514816 1148 16 1149 1148
1.8348866 -0.27166378 0.015636433 682 52708608 2348 16 1245 2348
1.8294401 -0.29384264 0.015658773 750 52904704 2575 16 1268 2575
1.827667 -0.31661233 0.015636433 749 53099008 2578 16 1265 2578
1.824627 -0.33919975 0.015625263 748 53295872 2582 16 1332 2582
1.8497493 -0.36741561 0.015290167 120 53489152 427 16 1159 427
1.8539057 -0.39195052 0.015189638 95 53686016 342 16 1175 342
1.8538345 -0.41576642 0.015133789 79 53877504 286 16 1143 286
1.8495657 -0.43871549 0.015122619 64 54074624 232 16 1112 232
1.8430728 -0.46113655 0.015133789 592 54266368 2141 16 1298 2141
1.839209 -0.48422876 0.015111449 684 54461952 2479 16 1337 2479
1.8360195 -0.5075621 0.015077939 669 54657024 2432 16 1396 2432
1.8334942 -0.53116846 0.01503326 677 54850048 2471 16 1376 2471
1.8306655 -0.55478907 0.014988581 172 55046656 630 16 1235 630
1.8313457 -0.57962775 0.014899221 651 55240448 2406 16 1327 2406
1.8307413 -0.60425276 0.014821032 725 55434240 2700 16 1344 2700
1.8288617 -0.62862462 0.014754013 678 55630080 2539 16 1347 2539
1.8257173 -0.65270424 0.014698164 681 55823872 2562 16 1233 2562
1.8053579 0.52373272 -0.030541005 567 45877504 2007 17 1265 2007
1.8058699 0.49994013 -0.030326374 641 46071040 2254 17 1277 2254
1.8080034 0.47672328 -0.030183287 590 46266112 2070 17 1291 2070
1.8098397 0.45352954 -0.030040201 629 46462208 2193 17 1206 2193
1.8133242 0.43082425 -0.029968658 638 46655744 2219 17 1242 2219
1.8106737 0.40678871 -0.029682485 117 46852096 405 17 1113 405
1.8125962 0.38391769 -0.029575171 93 47045632 320 17 1140 320
1.8191314 0.36203516 -0.029646713 71 47239936 246 17 1062 246
1.8195071 0.33895311 -0.029503627 70 47435776 241 17 1178 241
1.8166369 0.31540421 -0.029253226 528 47630336 1798 17 1197 1798
1.8183973 0.29277024 -0.029181683 693 47823616 2355 17 1208 2355
1.8050475 0.26794267 -0.028573565 406 48019456 1356 17 1297 1356
1.802258 0.24496546 -0.028358936 109 48214272 362 17 1149 362
1.8090959 0.22331944 -0.028502023 372 48411392 1239 17 1139 1239
1.8097135 0.20088215 -0.028430479 654 48602880 2172 17 1238 2172
1.8100532 0.17846337 -0.028358936 621 48799744 2059 17 1235 2059
1.812107 0.1562378 -0.028358936 657 48993024 2177 17 1180 2177
1.8118945 0.13384187 -0.028287392 646 49189376 2136 17 1239 2136
1.8173904 0.11184175 -0.028430479 137 49382912 455 17 1175 455
1.8136352 0.089286514 -0.02825162 77 49579776 255 17 1138 255
1.8165917 0.067097045 -0.028323164 86 49771776 285 17 1185 285
1.8152802 0.044750784 -0.02825162 77 49969664 255 17 1141 255
1.8156927 0.022471134 -0.02825162 572 50163712 1890 17 1197 1890
1.8118343 0.00018853454 -0.028108533 776 50360064 2552 17 1202 2552
1.814698 -0.022082591 -0.02821585 766 50555392 2529 17 1237 2529
1.8182867 -0.044448603 -0.028358936 685 50749952 2272 17 1296 2272
1.8176043 -0.066758431 -0.028358936 555 50945792 1839 17 1185 1839
1.8216389 -0.089303933 -0.028537793 584 51141120 1946 17 1188 1946
1.8174134 -0.11146735 -0.028430479 623 51336704 2069 17 1198 2069
1.8099289 -0.13331966 -0.02821585 690 51533568 2278 17 1274 2278
1.8061652 -0.15534852 -0.028144306 726 51729408 2389 17 1240 2389
1.8279917 -0.17985477 -0.029002825 128 51924224 433 17 1226 433
1.8375661 -0.20359661 -0.029432084 81 52121600 278 17 1138 278
1.8339374 -0.22600861 -0.029396312 78 52318208 267 17 1165 267
1.8300357 -0.24836221 -0.02936054 98 52514816 335 17 1153 335
1.8189418 -0.26962692 -0.029074367 526 52708608 1782 17 1179 1782
1.8174695 -0.29224554 -0.029145911 787 52904704 2674 17 1335 2674
1.8186694 -0.3153815 -0.02932477 696 53099008 2377 17 1296 2377
1.80975 -0.33676046 -0.029145911 824 53295872 2800 17 1307 2800
1.8231236 -0.36245483 -0.0297898 564 53489152 1955 17 1289 1955
1.8283151 -0.38687092 -0.030147517 94 53686016 330 17 1165 330
1.8263551 -0.40993524 -0.030254832 414 53877504 1454 17 1124 1454
1.814381 -0.43069944 -0.030004431 672 54074624 2341 17 1241 2341
1.8205917 -0.45584741 -0.03043369 644 54266368 2275 17 1348 2275
1.8216249 -0.47993821 -0.030684091 646 54461952 2296 17 1261 2296
1.8194507 -0.50332278 -0.030827178 668 54657024 2388 17 1301 2388
1.8160166 -0.52644771 -0.030934492 691 54850048 2478 17 1336 2478
1.827589 -0.55420721 -0.031614151 252 55046656 923 17 1372 923
1.8089938 0.52478665 -0.076097742 402 45877504 1433 18 1568 1433
1.79317 0.49642706 -0.074717671 540 46071040 1878 18 1495 1878
1.796231 0.47362182 -0.074537657 517 46266112 1793 18 1572 1793
1.796098 0.45008901 -0.074177638 409 46462208 1410 18 1484 1410
1.8043997 0.42870584 -0.074357651 92 46655744 320 18 1338 320
1.802707 0.4050006 -0.073937625 349 46852096 1198 18 1432 1198
1.793869 0.37995526 -0.073097579 677 47045632 2288 18 1499 2288
1.7895852 0.35616145 -0.072557554 694 47239936 2320 18 1528 2320
1.7928398 0.33399105 -0.072497547 638 47435776 2131 18 1524 2131
1.7918859 0.31111228 -0.072197534 494 47630336 1641 18 1487 1641
1.7926121 0.28862426 -0.072017521 113 47823616 376 18 1406 376
1.78417 0.26484811 -0.071297482 63 48019456 207 18 1459 207
1.7902532 0.24333635 -0.071477495 69 48214272 228 18 1384 228
1.7931045 0.22134887 -0.071477495 85 48411392 280 18 1394 280
1.7897331 0.19866855 -0.071117476 584 48602880 1904 18 1479 1904
1.7910428 0.1765931 -0.071057469 631 48799744 2054 18 1433 2054
1.791086 0.15442988 -0.070937462 563 48993024 1827 18 1528 1827
1.7918507 0.13236554 -0.070877463 586 49189376 1901 18 1456 1901
1.7883584 0.1100613 -0.070577443 287 49382912 926 18 1495 926
1.7895744 0.088107109 -0.070577443 219 49579776 707 18 1479 707
1.796506 0.066359438 -0.070937462 604 49771776 1960 18 1535 1960
1.7961872 0.044284161 -0.070877463 635 49969664 2059 18 1505 2059
1.7955972 0.022226704 -0.070817456 605 50163712 1960 18 1550 1960
1.7997276 0.00018985519 -0.071057469 97 50360064 317 18 1381 317
1.8005925 -0.021907944 -0.071117476 96 50555392 315 18 1350 315
1.7981923 -0.043953121 -0.070997469 82 50749952 268 18 1387 268
1.7995126 -0.0660901 -0.071117476 67 50945792 220 18 1406 220
1.7985661 -0.088167906 -0.071117476 428 51141120 1395 18 1510 1395
1.8003376 -0.1104164 -0.071297482 587 51336704 1918 18 1468 1918
1.7988471 -0.13250099 -0.071297482 624 51533568 2041 18 1474 2041
1.7970856 -0.15456565 -0.071297482 636 51729408 2080 18 1459 2080
1.7950536 -0.17660701 -0.071297482 569 51924224 1859 18 1514 1859
1.8026721 -0.19972309 -0.071897514 128 52121600 425 18 1393 425
1.8228711 -0.22464247 -0.073277593 79 52318208 269 18 1454 269
1.7952496 -0.24363384 -0.071777508 269 52514816 888 18 1476 888
1.7960742 -0.26623225 -0.072017521 653 52708608 2164 18 1499 2164
1.7975993 -0.2890462 -0.072317541 706 52904704 2351 18 1488 2351
1.7988344 -0.31193757 -0.072617553 702 53099008 2351 18 1511 2351
1.7997775 -0.33490261 -0.072917573 728 53295872 2451 18 1592 2451
1.8014063 -0.35813251 -0.073277593 666 53489152 2256 18 1502 2256
1.7939461 -0.37959105 -0.073097579 524 53686016 1769 18 1582 1769
1.9703802 0.57156873 -0.13621144 210 45877504 893 19 1403 893
1.7909343 0.49580866 -0.11984298 305 46071040 1061 19 1237 1061
1.7766491 0.46846291 -0.11807114 64 46266112 218 19 1231 218
1.785164 0.44735146 -0.11832426 45 46462208 154 19 1204 154
1.7837328 0.42380014 -0.11773364 64 46655744 217 19 1178 217
1.7819934 0.40035158 -0.11714303 97 46852096 326 19 1257 326
1.7711746 0.37515339 -0.11579305 600 47045632 1986 19 1289 1986
1.7736902 0.35300153 -0.11562431 605 47239936 1997 19 1311 1997
1.7729905 0.33029765 -0.11520244 527 47435776 1730 19 1314 1730
1.777892 0.30868569 -0.11528681 613 47630336 2012 19 1261 2012
1.7844976 0.28731954 -0.11553993 157 47823616 517 19 1218 517
1.7997171 0.26715255 -0.11655241 91 48019456 304 19 1182 304
1.764352 0.23982142 -0.11326185 461 48214272 1476 19 1304 1476
1.768151 0.21827391 -0.11334622 582 48411392 1862 19 1260 1862
1.7756482 0.19710815 -0.11376809 373 48602880 1199 19 1273 1199
1.7759501 0.17510825 -0.11359935 103 48799744 331 19 1193 331
1.7739942 0.1529599 -0.11326185 80 48993024 256 19 1176 256
1.7727565 0.13095917 -0.11300873 80 49189376 255 19 1185 255
1.7732354 0.10913386 -0.11292435 74 49382912 236 19 1145 236
1.7784221 0.087560453 -0.11326185 530 49579776 1697 19 1314 1697
1.7793627 0.065729886 -0.11326185 523 49771776 1671 19 1189 1671
1.7810315 0.043913763 -0.11334622 576 49969664 1842 19 1276 1842
1.7824326 0.022066578 -0.1134306 594 50163712 1905 19 1291 1905
1.7775871 0.00019227035 -0.11300873 316 50360064 1006 19 1241 1006
1.7804446 -0.02165848 -0.11326185 86 50555392 275 19 1182 275
1.7800448 -0.043505643 -0.11326185 75 50749952 240 19 1186 240
1.7783811 -0.065309472 -0.11317747 82 50945792 262 19 1235 262
1.7774457 -0.087128021 -0.11317747 168 51141120 537 19 1146 537
1.7802209 -0.1091783 -0.11351497 544 51336704 1745 19 1238 1745
1.7847095 -0.13145658 -0.11402121 602 51533568 1942 19 1265 1942
1.7849474 -0.15351902 -0.11418996 616 51729408 1995 19 1300 1995
1.7868955 -0.17580262 -0.11452745 617 51924224 2006 19 1310 2006
1.7875746 -0.19804715 -0.11478057 611 52121600 1991 19 1241 1991
1.7879765 -0.22033477 -0.11503369 576 52318208 1887 19 1304 1887
2.1737087 0.63092303 -0.20959681 191 45877504 993 20 1435 993
1.7472913 0.48406732 -0.16035871 405 46071040 1350 20 1509 1350
1.7588674 0.46410942 -0.16101088 73 46266112 247 20 1416 247
1.7663589 0.44297367 -0.16122825 58 46462208 197 20 1331 197
1.7513515 0.41643959 -0.15894569 326 46655744 1071 20 1409 1071
1.7534202 0.39426285 -0.15861961 519 46852096 1699 20 1390 1699
1.7542363 0.37189221 -0.15818484 231 47045632 754 20 1404 754
1.7654927 0.351695 -0.15894569 75 47239936 248 20 1379 248
1.7667438 0.32945716 -0.15861961 51 47435776 169 20 1372 169
1.7667359 0.30707163 -0.15818484 71 47630336 233 20 1372 233
1.781167 0.28710574 -0.15938047 192 47823616 635 20 1368 635
1.7668567 0.2625998 -0.15742399 482 48019456 1559 20 1436 1559
1.765021 0.24022874 -0.15688053 581 48214272 1869 20 1368 1869
1.7658628 0.21830763 -0.15666313 567 48411392 1818 20 1500 1818
1.7644569 0.1961828 -0.15622836 559 48602880 1785 20 1506 1785
1.7568386 0.17354041 -0.15514143 97 48799744 308 20 1398 308
1.7568551 0.15179753 -0.15492405 64 48993024 203 20 1422 203
1.7585856 0.13022679 -0.15492405 69 49189376 219 20 1430 219
1.7620357 0.10875847 -0.15514143 80 49382912 255 20 1367 255
1.7781308 0.087860025 -0.15677184 255 49579776 820 20 1425 820
1.7651675 0.065519854 -0.15525012 512 49771776 1619 20 1468 1619
1.7648448 0.043829136 -0.15514143 527 49969664 1664 20 1395 1664
1.7652497 0.022168476 -0.15514143 514 50163712 1623 20 1486 1623
1.7653888 0.0005044773 -0.15514143 511 50360064 1615 20 1456 1615
1.7672502 -0.021183865 -0.15535882 516 50555392 1633 20 1462 1633
1.7698385 -0.04294214 -0.1556849 515 50749952 1636 20 1413 1636
1.7751386 -0.064876691 -0.15633705 494 50945792 1579 20 1472 1579
1.7821519 -0.087045185 -0.15720661 489 51141120 1578 20 1450 1578
1.7978171 -0.10994355 -0.1590544 664 51336704 2183 20 1467 2183
1.8022808 -0.13243563 -0.15970655 664 51533568 2198 20 1473 2198
1.8034912 -0.15479809 -0.16003263 705 51729408 2341 20 1474 2341
1.8064022 -0.17740491 -0.16057611 514 51924224 1716 20 1470 1716
2.1816483 0.63281035 -0.2660425 77 45877504 406 21 1540 406
1.8090514 0.50082022 -0.2131979 82 46071040 295 21 1507 295
1.7546792 0.46267486 -0.20483306 170 46266112 571 21 1521 571
1.7371495 0.43533003 -0.20164645 271 46462208 886 21 1444 886
1.7423609 0.41397974 -0.20164645 312 46655744 1020 21 1522 1020
1.7521453 0.39365241 -0.20231032 347 46852096 1141 21 1539 1141
1.7519957 0.37109539 -0.20164645 292 47045632 955 21 1491 955
1.7547871 0.26049283 -0.19938926 391 48019456 1254 21 1559 1254
1.7450838 0.23720662 -0.19766319 193 48214272 611 21 1560 611
1.7968128 0.00019017314 -0.20244311 418 50360064 1377 21 1834 1377
1.7649593 -0.086513244 -0.19845983 42 51141120 134 21 1519 134
1.8082821 -0.11090536 -0.20443474 288 51336704 963 21 1538 963
1.7939352 -0.13213813 -0.20270865 485 51533568 1599 21 1528 1599
1.815878 -0.15618601 -0.20589526 619 51729408 2096 21 1464 2096
1.801002 -0.17719354 -0.20416918 462 51924224 1542 21 1598 1542
1.8269709 -0.13457863 -0.25185037 13 51533568 46 22 1113 46
