# .PCD v0.7 - Point Cloud Data file format
VERSION 0.7
FIELDS x y z intensity t reflectivity ring noise range
SIZE 4 4 4 4 4 2 1 2 4
TYPE F F F F U U U U U
COUNT 1 1 1 1 1 1 1 1 1
WIDTH 833
HEIGHT 1
VIEWPOINT 0 0 0 1 0 0 0
POINTS 833
DATA ascii
-0 -0 0 10 93131008 0 12 1985 0
-0 -0 0 10 93326080 0 12 2042 0
-1.535165 -0.70305222 0.1825314 34 93523200 98 12 1991 98
-0 -0 0 37 93715968 0 12 2003 0
-0 -0 0 11 93914112 0 12 2029 0
-0 -0 0 10 94108416 0 12 2135 0
-0 -0 0 11 94306048 0 12 1983 0
-0 -0 0 9 94501120 0 12 2010 0
-0.43126267 -0.16057464 0.07506837 21 94699520 4 12 2030 4
-0.46040434 -0.16499521 0.07759589 20 94891520 4 12 2052 4
-0 -0 0 12 95089408 0 12 1985 0
-0 -0 0 9 95284224 0 12 1993 0
-0.86316663 -0.27358273 0.11402699 20 95480320 16 12 1966 16
-0 -0 0 7 95675648 0 12 2037 0
-0 -0 0 13 95869696 0 12 2090 0
-0 -0 0 9 96065536 0 12 1947 0
-0 -0 0 9 96258816 0 12 2047 0
-0 -0 0 11 96452864 0 12 2072 0
-0 -0 0 9 96649728 0 12 2106 0
-0 -0 0 10 96843008 0 12 2029 0
-0 -0 0 10 97035520 0 12 2067 0
-0 -0 0 8 97230336 0 12 2042 0
-0 -0 0 12 97423872 0 12 2122 0
-0 -0 0 10 97619200 0 12 2040 0
-0 -0 0 10 97810432 0 12 1969 0
-0 -0 0 9 98006272 0 12 2077 0
-0 -0 0 8 98196992 0 12 2099 0
-0 -0 0 12 98391808 0 12 2050 0
-0 -0 0 10 98586368 0 12 2130 0
-0 -0 0 7 98783744 0 12 2155 0
-0 -0 0 10 98977024 0 12 2270 0
-0 -0 0 9 99174656 0 12 2464 0
-0 -0 0 8 99369472 0 12 2539 0
-0 -0 0 10 99565312 0 12 2781 0
-0 -0 0 10 99762176 0 12 2547 0
-0 -0 0 8 0 0 13 1934 0
-0 -0 0 3 195072 0 13 2696 0
-0 0 0 8 394240 0 13 2667 0
-0 0 0 6 584448 0 13 2264 0
-0 0 0 7 782080 0 13 2036 0
-0 0 0 6 977408 0 13 1977 0
-0 0 0 7 1174016 0 13 1918 0
-0 0 0 7 1368320 0 13 1830 0
-0 0 0 10 1563648 0 13 1868 0
-0 0 0 7 1761280 0 13 1704 0
-0 0 0 7 1956096 0 13 1810 0
-0 0 0 8 2150912 0 13 1809 0
-0 0 0 6 2348800 0 13 1763 0
-6.8808556 0.93613285 0.47208396 27 2543104 1345 13 1806 1345
-6.8629265 1.0196207 0.47170722 26 2737152 1292 13 1821 1292
-6.8755155 1.107892 0.47333977 59 2933504 2918 13 1750 2918
-6.8850012 1.1962835 0.47484675 60 3127808 2960 13 1978 2960
-6.89433 1.2852569 0.47641653 69 3324416 3442 13 1838 3442
-6.8956571 1.3732737 0.47754675 71 3517696 3562 13 1816 3562
-6.8646173 1.454893 0.47666767 89 3715328 4431 13 1873 4431
-0.80629402 0.18090661 0.087178081 545 3909376 374 13 1315 374
-0.80789715 0.19171096 0.087429248 440 4105984 305 13 1374 305
-0.81322813 0.20355287 0.087931566 471 4301312 333 13 1361 333
-0.87339371 0.23006848 0.092012957 144 4497152 118 13 1345 118
-0.74547082 0.20612934 0.083850183 19 4690432 11 13 1268 11
-0.75055283 0.21748783 0.084352508 12 4888064 7 13 1175 7
-0.84141445 0.25510019 0.09050598 171 5081088 133 13 1402 133
-0.8134858 0.25756276 0.088873424 23 5275904 16 13 1269 16
-2.0174625 0.66671044 0.16886854 11 5471744 50 13 1191 50
-1.9940306 0.68621862 0.16786391 32 5664768 143 13 1253 143
-0.77526665 0.27723563 0.086989708 15 5861632 10 13 1275 10
-0.80548024 0.29925635 0.08925017 59 6056704 43 13 1264 43
-0.79988515 0.30839941 0.08912459 85 6250240 62 13 1281 62
-0.77472931 0.30966252 0.087680407 159 6447104 111 13 1266 111
-0 0 0 9 6640896 0 13 1247 0
-1.8482618 0.79248875 0.16171043 514 6834432 2091 13 1290 2091
-1.8466083 0.81875241 0.16227554 861 7030528 3528 13 1282 3528
-1.8445872 0.84509426 0.16284066 914 7223808 3782 13 1356 3782
-1.8863986 0.89243066 0.16648251 54 7420928 238 13 1479 238
-3.885879 1.8975198 0.30725884 46 7610368 882 13 1715 882
-3.8792362 1.9535933 0.30845186 54 7805184 1025 13 1655 1025
-0.67952925 0.35237634 0.083347864 339 7998464 200 13 1290 200
-0.65755296 0.35127437 0.082092054 561 8191488 314 13 1373 314
-0.64969593 0.35739118 0.081840888 532 8383488 294 13 1367 294
-0.64178836 0.36336833 0.081589729 527 8579072 288 13 1377 288
-0.6355567 0.37021112 0.081464149 550 8770048 299 13 1405 299
-0.63610113 0.38106251 0.081840888 368 8968960 203 13 1539 203
-0.57021105 0.35112646 0.077319972 26 9163520 11 13 1633 11
-2.4449842 1.548787 0.21728005 14 9360384 118 13 1675 118
-2.4107387 1.5688733 0.21614981 37 9556480 311 13 1494 311
-2.3937936 1.6000028 0.21633819 39 9753088 328 13 1520 328
-2.378093 1.6320821 0.21665214 48 9950976 405 13 1492 405
-2.3742018 1.6726401 0.21790795 33 10147328 283 13 1522 283
-2.3680537 1.7121769 0.21903817 28 10343168 244 13 1507 244
-2.3773196 1.7637082 0.22142421 35 10541312 314 13 1400 314
-2.3697908 1.8036305 0.22255445 24 10736640 221 13 1364 221
-2.3679311 1.8485459 0.224187 36 10932480 334 13 1327 334
-1.8535069 1.4838172 0.18456618 364 11130624 2064 13 1401 2064
-1.8305308 1.5026506 0.18418944 474 11325696 2673 13 1450 2673
-1.8325669 1.542356 0.18588477 342 11521280 1975 13 1342 1975
-1.8361677 1.5842912 0.18776849 357 11713792 2113 13 1407 2113
-1.8539613 1.6397705 0.19090801 312 11910656 1924 13 1361 1924
-1.865489 1.6912271 0.19360802 478 12104192 3048 13 1396 3048
-1.8475187 1.71671 0.19385917 440 12299008 2817 13 1320 2817
-1.8877358 1.7977654 0.19919637 320 12492032 2189 13 1370 2189
-1.8962395 1.850775 0.20189637 314 12687616 2219 13 1375 2219
-1.8966668 1.8972006 0.20396845 344 12877824 2485 13 1283 2485
-1.8990238 1.9467698 0.20629171 346 13075456 2576 13 1358 2576
-1.8915024 1.9872794 0.20779867 392 13270016 2964 13 1256 2964
-1.8853073 2.0300894 0.20949401 368 13465600 2844 13 1322 2844
-1.9212252 2.1203828 0.21520795 533 13659904 4388 13 1424 4388
-1.883164 2.1303384 0.21407773 470 13852928 3822 13 1358 3822
-1.8392847 2.1328781 0.21238238 499 14050304 3981 13 1360 3981
-1.7917751 2.1300817 0.2103103 593 14246400 4619 13 1429 4619
-1.7484119 2.131074 0.20861495 568 14441216 4341 13 1335 4341
-1.7077904 2.1344438 0.20717077 550 14640640 4136 13 1313 4136
-1.6673516 2.13714 0.20572658 571 14836992 4220 13 1336 4220
-1.6240855 2.1351957 0.20396845 598 15032064 4328 13 1328 4328
-1.5846865 2.1373255 0.20258705 610 15228416 4342 13 1397 4342
-1.5524949 2.1485209 0.20195915 580 15423488 4098 13 1400 4098
-1.5145235 2.151088 0.20070334 654 15620096 4549 13 1518 4549
-1.4750315 2.1505797 0.19925916 641 15811584 4382 13 1396 4382
-1.4319023 2.1436191 0.19737545 712 16009472 4759 13 1348 4759
-1.3962408 2.146805 0.196308 774 16201984 5105 13 1299 5105
-1.3628529 2.1528141 0.19549173 796 16396288 5194 13 1351 5194
-1.3342388 2.165977 0.19524057 752 16587776 4894 13 1311 4894
-1.1137028 1.8585504 0.17150575 581 16785408 2743 13 1387 2743
-1.1239635 1.9289963 0.17564993 347 16976128 1737 13 1279 1737
-1.1134825 1.9660937 0.17734528 373 17173248 1916 13 1397 1916
-1.1282313 2.0504425 0.1824313 416 17367296 2292 13 1406 2292
-1.1166205 2.0896623 0.18425223 380 17562368 2147 13 1364 2147
-1.1078901 2.1359904 0.18657547 1053 17758208 6126 13 1497 6126
-1.0860796 2.1583409 0.18720338 614 17952768 3604 13 1350 3604
-1.0542617 2.1607418 0.1864499 166 18149376 968 13 1344 968
-0.71635413 1.5148183 0.14061281 107 18344704 302 13 1228 302
-0.69189614 1.5107901 0.13973375 134 18540288 372 13 1192 372
-0.67007083 1.5118668 0.13923143 121 18736896 332 13 1259 332
-0.64596611 1.5071321 0.13835235 127 18932992 345 13 1353 345
-0.6186443 1.4937358 0.13690817 163 19130368 428 13 1249 428
-0.59434211 1.4863865 0.13590352 155 19326976 399 13 1184 399
-0.57354468 1.4870493 0.135464 131 19522048 334 13 1223 334
-0.57262641 1.540755 0.13860352 88 19719680 241 13 1325 241
-0.68738735 1.921699 0.16359414 565 19912704 2367 13 1404 2367
-0.6309889 1.8346624 0.1572523 822 20111616 3112 13 1358 3112
-0.60905284 1.8441631 0.15737788 771 20306176 2923 13 1433 2923
-0.5833649 1.8419831 0.15674998 811 20502784 3044 13 1420 3044
-0.56042755 1.848048 0.15668719 782 20698880 2930 13 1463 2930
-0.53604078 1.8490344 0.15631044 773 20896256 2879 13 1384 2879
-0.51224625 1.8516254 0.15605928 729 21088256 2705 13 1425 2705
-0.48821494 1.8529464 0.15574533 705 21286912 2602 13 1394 2602
-0.46495524 1.8568617 0.15561976 607 21480192 2237 13 1436 2237
-0.44558856 1.8769939 0.15656161 554 21673984 2073 13 1343 2073
-0.42557892 1.8959544 0.15744068 493 21868800 1871 13 1469 1871
-0.42705169 2.0182076 0.16497554 313 22060800 1340 13 1378 1340
-0.3804771 1.9136587 0.157943 202 22256640 775 13 1358 775
-0.35751212 1.9211273 0.15813138 509 22449920 1954 13 1479 1954
-0.37308952 2.1515477 0.17257319 381 22642944 1829 13 1313 1829
-0.34982392 2.1756721 0.173829 2148 22840064 10476 13 1553 10476
-0.3277759 2.2113936 0.17583829 1236 23034112 6208 13 1379 6208
-0.29686105 2.1875579 0.17408016 815 23227904 3992 13 1332 3992
-0.2450069 1.9879721 0.16120811 233 23421952 939 13 1252 939
-0.212254 1.9154388 0.15643603 25 23617024 93 13 1206 93
-0.18980561 1.928825 0.15712672 109 23813888 412 13 1213 412
-0.16586563 1.9280258 0.15693834 149 24005376 560 13 1262 560
-0.14204702 1.9279255 0.15681277 129 24201472 484 13 1260 484
-0.11837772 1.9295233 0.15681277 131 24395264 492 13 1250 492
-0.094690576 1.9308308 0.15681277 142 24592640 533 13 1253 533
-0.07091628 1.9298527 0.15668719 133 24784384 499 13 1220 499
-0.047180261 1.9285822 0.15656161 150 24983040 561 13 1252 561
-0.023462182 1.925024 0.15631044 171 25177088 639 13 1309 639
0.00016259102 1.9251671 0.15631044 136 25374976 506 13 1253 506
0.0238124 1.927016 0.15643603 148 25570304 553 13 1182 553
0.047458056 1.9265786 0.15643603 147 25768192 551 13 1313 551
0.071133584 1.9268485 0.15649882 131 25963520 489 13 1280 489
0.094921388 1.928821 0.15668719 119 26158848 445 13 1280 445
0.11950608 1.9424529 0.15762904 117 26355456 445 13 1277 445
0.15873761 2.1488581 0.17075227 172 26550016 806 13 1304 806
0.17908175 2.0771458 0.16635692 112 26745344 489 13 1209 489
0.1911176 1.9387244 0.15775463 123 26942208 469 13 1200 469
0.21445319 1.9322654 0.15750347 109 27137024 414 13 1251 414
0.23802647 1.9284978 0.15744068 110 27331584 417 13 1256 417
0.26167417 1.9254316 0.15744068 130 27526400 493 13 1244 493
0.28586936 1.9260242 0.15769184 102 27722496 389 13 1219 389
0.31011841 1.9263123 0.157943 104 27918336 398 13 1204 398
0.33527201 1.9312112 0.15850811 81 28112384 312 13 1253 312
0.35967752 1.930876 0.15875928 81 28309504 314 13 1277 314
0.38451517 1.9321896 0.15913601 99 28503808 386 13 1202 386
0.409646 1.9341598 0.15957555 115 28700416 451 13 1262 451
0.43488288 1.9358032 0.16001509 96 28895232 380 13 1211 380
0.45929804 1.9332335 0.16020346 79 29092864 313 13 1274 313
0.48347276 1.9293878 0.16032904 97 29284608 385 13 1244 385
0.50711292 1.9233096 0.16032904 62 29482240 246 13 1227 246
0.53147608 1.9198271 0.16051741 68 29675776 271 13 1223 271
0.65738833 2.2658725 0.18362433 572 29871360 3202 13 1319 3202
0.69123423 2.277689 0.18494292 806 30066688 4591 13 1505 4591
0.72154635 2.2766457 0.18544525 794 30260480 4552 13 1440 4552
0.75193661 2.2752004 0.18594757 785 30456576 4531 13 1480 4531
0.78369945 2.2771254 0.18670106 847 30649856 4938 13 1450 4938
0.81528568 2.2776723 0.18739176 766 30844160 4508 13 1396 4508
0.84735078 2.2787206 0.18814524 740 31040256 4398 13 1418 4398
0.87992322 2.2802544 0.18896152 780 31234304 4682 13 1376 4682
0.91228938 2.2804036 0.189715 775 31427840 4702 13 1320 4702
0.94326222 2.2764122 0.19021733 840 31624704 5129 13 1354 5129
0.96246982 2.2444873 0.18883593 116 31819520 694 13 1277 694
0.89524078 2.0190313 0.17414296 37 32015872 185 13 1304 185
0.92535627 2.0196877 0.17495923 37 32207104 183 13 1249 183
0.95818365 2.0253196 0.17615224 23 32404736 116 13 1235 116
0.99172539 2.0313442 0.17740805 30 32597248 154 13 1250 154
1.02466 2.0350652 0.17853829 30 32792320 156 13 1271 156
1.0679514 2.0577681 0.18104991 18 32984832 97 13 1227 97
1.1039495 2.064749 0.18249409 19 33182464 105 13 1222 105
1.1470188 2.0833919 0.18481734 15 33373952 86 13 1217 86
1.1828345 2.0873921 0.18613595 26 33571328 150 13 1252 150
1.2274669 2.1054807 0.18852198 31 33766400 185 13 1250 185
1.2747718 2.1262064 0.19115919 26 33961472 166 13 1289 166
1.3012915 2.1112525 0.19122197 21 34156288 130 13 1208 130
1.3367171 2.1102993 0.19235221 16 34351104 101 13 1221 101
1.3723137 2.1087923 0.19348243 15 34547456 96 13 1193 96
1.4679819 2.1963317 0.20139404 57 34744576 400 13 1250 400
1.4999074 2.1855571 0.20195915 63 34939392 444 13 1272 444
1.5329386 2.1759603 0.20264985 82 35136768 585 13 1205 585
1.5653743 2.165072 0.20327775 72 35333376 517 13 1219 517
1.5989622 2.1553168 0.20403124 62 35529472 449 13 1253 449
1.6319407 2.1442678 0.20472194 76 35728384 555 13 1216 555
1.6667308 2.1350925 0.20560101 65 35924480 480 13 1193 480
1.70154 2.1253848 0.20648007 82 36123904 611 13 1254 611
1.7433276 2.1236269 0.20804983 84 36319232 638 13 1215 638
1.7801837 2.1150527 0.20911728 74 36517120 569 13 1192 569
1.8053524 2.0922923 0.20905448 61 36712448 468 13 1264 468
1.1867659 1.341944 0.14789651 40 36909312 130 13 1138 130
1.2031442 1.3272794 0.14789651 42 37104384 135 13 1226 135
1.2200209 1.3131461 0.14795931 38 37301248 122 13 1255 122
1.2387968 1.3009661 0.14821047 44 37494528 143 13 1206 143
1.2616404 1.2928075 0.14883837 628 37691392 2062 13 1312 2062
1.2802339 1.2800499 0.14908953 673 37883136 2218 13 1311 2218
1.3001328 1.2684239 0.14946628 624 38078464 2071 13 1309 2071
1.3206614 1.2571895 0.14990582 571 38272000 1909 13 1319 1909
1.3433036 1.2476789 0.15053372 514 38463744 1739 13 1297 1739
1.3644308 1.2364607 0.15103604 555 38659840 1894 13 1370 1894
1.3847363 1.2242502 0.15147558 573 38853120 1969 13 1382 1969
1.4079703 1.2143335 0.15216628 514 39047168 1787 13 1375 1787
1.4273491 1.2008182 0.15254301 451 39242240 1579 13 1376 1579
1.4450642 1.1857437 0.15279418 504 39436544 1772 13 1401 1772
1.4579475 1.1666745 0.1526686 347 39630592 1218 13 1310 1218
1.4910418 1.1634264 0.15417556 40 39826176 144 13 1222 144
1.506001 1.1456455 0.15423836 33 40020224 118 13 1258 118
1.5215501 1.1282669 0.15436395 32 40215296 116 13 1158 116
2.6234179 1.895545 0.23881719 298 40406528 3144 13 1324 3144
2.6375041 1.8568901 0.23812649 376 40604160 3939 13 1286 3939
2.6337526 1.8063238 0.2361172 354 40796928 3634 13 1347 3634
2.6358008 1.7605658 0.23461023 353 40992000 3561 13 1281 3561
2.6404729 1.7172077 0.23335442 371 41185536 3704 13 1322 3704
2.6377332 1.6697321 0.23159628 353 41383168 3455 13 1277 3455
2.6452775 1.6293876 0.23065442 334 41575424 3246 13 1321 3246
2.6479497 1.5865463 0.22939861 338 41773312 3244 13 1322 3244
2.6551461 1.5469003 0.22851954 337 41968384 3204 13 1355 3204
2.6617699 1.5073175 0.22764048 334 42164992 3147 13 1312 3147
2.6477108 1.4567436 0.22531722 464 42360832 4263 13 1292 4263
2.6469014 1.4142679 0.22399862 398 42556160 3607 13 1290 3607
2.6587412 1.3789235 0.22362188 431 42753024 3891 13 1349 3891
2.6727877 1.3448474 0.22343351 385 42948608 3462 13 1274 3462
2.6478267 1.2918222 0.22054514 1494 43144704 13027 13 1394 13027
2.63641 1.2464383 0.21866143 294 43341056 2519 13 1311 2519
2.6542299 1.2152377 0.21884981 348 43536384 2986 13 1344 2986
2.6671176 1.1817664 0.21872422 361 43731456 3092 13 1375 3092
2.6649055 1.1418746 0.217594 300 43927296 2540 13 1313 2540
2.6575077 1.1003077 0.21614981 246 44122112 2051 13 1346 2051
2.6550548 1.0613177 0.21508238 338 44318976 2783 13 1312 2783
2.6678789 1.0286562 0.21508238 398 44511488 3267 13 1280 3267
2.6765587 0.99444991 0.2148312 367 44707584 3012 13 1301 3012
2.6613071 0.95178676 0.21301028 321 44901888 2577 13 1240 2577
2.6425838 0.90867591 0.21100099 330 45098752 2588 13 1281 2588
2.6251035 0.86679512 0.20911728 332 45291264 2555 13 1315 2555
1.8752859 0.59390479 0.15894765 368 45489920 1432 13 1437 1432
1.8681058 0.56650579 0.15800579 692 45680384 2650 13 1411 2650
1.8720412 0.54270554 0.15781742 658 45877504 2514 13 1297 2514
1.8756742 0.51889408 0.15762904 660 46071040 2513 13 1354 2513
1.8799703 0.49532944 0.15750347 612 46266112 2325 13 1363 2325
1.8810663 0.47101089 0.15718952 291 46462208 1099 13 1278 1099
1.8789361 0.44604921 0.15668719 71 46655744 266 13 1187 266
1.8842683 0.4229582 0.15668719 70 46852096 262 13 1212 262
1.8893167 0.39980349 0.15668719 85 47045632 318 13 1246 318
1.8784182 0.37347773 0.15568253 415 47239936 1531 13 1413 1531
1.8799162 0.34985131 0.15549417 616 47435776 2265 13 1393 2265
1.8821012 0.32641482 0.15536858 605 47630336 2219 13 1447 2219
1.8839942 0.30297744 0.15524301 610 47823616 2233 13 1460 2233
1.8885577 0.27998126 0.1553058 450 48019456 1650 13 1388 1650
1.8829503 0.25557837 0.15474068 597 48214272 2168 13 1400 2168
1.8780204 0.23147732 0.15423836 658 48411392 2370 13 1451 2370
1.8807197 0.20841369 0.15423836 636 48602880 2290 13 1515 2290
1.8831356 0.18531868 0.15423836 485 48799744 1748 13 1361 1748
1.8693579 0.16083021 0.15323371 80 48993024 283 13 1207 283
1.8692002 0.13773192 0.15310813 81 49189376 286 13 1148 286
1.8687572 0.11466176 0.15298255 72 49382912 254 13 1221 254
1.86803 0.091623224 0.15285696 82 49579776 288 13 1243 288
1.8899583 0.069458216 0.15417556 525 49771776 1889 13 1375 1889
1.8896706 0.046236079 0.15411277 597 49969664 2145 13 1403 2145
1.8900957 0.023043433 0.15411277 599 50163712 2151 13 1399 2151
1.8872421 -0.00015183489 0.15392441 605 50360064 2167 13 1479 2167
1.9150406 -0.023662036 0.15568253 167 50555392 618 13 1342 618
1.8986425 -0.046764337 0.1546779 72 50749952 261 13 1257 261
1.9019151 -0.070208147 0.15492906 296 50945792 1079 13 1381 1079
1.87599 -0.09231095 0.15335929 571 51141120 2026 13 1405 2026
1.8996192 -0.11686233 0.15492906 244 51336704 891 13 1334 891
1.8990375 -0.14023849 0.15499185 86 51533568 314 13 1170 314
1.8941905 -0.1632743 0.15480347 72 51729408 262 13 1228 262
1.8930374 -0.18660475 0.15486626 74 51924224 272 13 1287 272
1.8925889 -0.21004176 0.15499185 263 52121600 960 13 1327 960
1.8898687 -0.23325092 0.15499185 619 52318208 2257 13 1465 2257
1.8868642 -0.25642496 0.15499185 595 52514816 2168 13 1451 2168
1.8865368 -0.28000054 0.15518022 663 52708608 2424 13 1459 2424
1.8878853 -0.30392426 0.15549417 560 52904704 2059 13 1380 2059
1.902696 -0.3303158 0.15668719 98 53099008 367 13 1211 367
1.8984993 -0.35363996 0.15668719 83 53295872 311 13 1252 311
1.8940165 -0.37691084 0.15668719 104 53489152 390 13 1235 390
1.8921777 -0.40074587 0.15687557 149 53686016 560 13 1203 560
1.8929597 -0.42524931 0.1572523 168 53877504 635 13 1217 635
1.8837149 -0.4475233 0.15700114 87 54074624 327 13 1253 327
1.8790493 -0.47084847 0.15706393 86 54266368 324 13 1264 324
1.8914647 -0.49870992 0.15825695 173 54461952 665 13 1249 665
1.8900113 -0.52321583 0.1585709 696 54657024 2691 13 1364 2691
1.8853652 -0.54692626 0.15869649 793 54850048 3069 13 1282 3069
1.8823315 -0.57118136 0.15894765 810 55046656 3152 13 1409 3152
1.8780346 -0.59514248 0.15913601 789 55240448 3080 13 1346 3080
1.8866985 -0.62347066 0.16020346 556 55434240 2208 13 1351 2208
2.7772596 -0.95591551 0.21998003 428 55630080 3707 13 1283 3707
2.7700179 -0.99160725 0.22029398 418 55823872 3642 13 1314 3642
2.7791548 -1.0335289 0.22173816 462 56017920 4080 13 1276 4080
2.7802281 -1.0729473 0.22268002 440 56213504 3931 13 1291 3931
2.7807508 -1.1125469 0.22362188 412 56409600 3719 13 1286 3719
2.77703 -1.1507913 0.22431257 392 56604928 3565 13 1296 3565
2.7810428 -1.1926526 0.22556838 386 56797184 3550 13 1266 3550
2.7899172 -1.2372127 0.22720094 384 56995072 3592 13 1277 3592
2.7835972 -1.2755147 0.22782885 348 57187328 3276 13 1280 3276
2.7920914 -1.3211058 0.2295242 591 57384448 5670 13 1393 5670
2.7855337 -1.3600876 0.23021489 99 57579264 955 13 1274 955
2.8221135 -1.4211066 0.23398232 338 57777152 3397 13 1303 3397
5.2429528 -2.7216842 0.40684462 83 57969152 2911 13 1252 2911
5.1545959 -2.756634 0.4029516 170 58167552 5835 13 1238 5835
5.1020212 -2.8095701 0.40163299 172 58363648 5859 13 1267 5859
5.0350347 -2.8537579 0.39930975 344 58559488 11573 13 1225 11573
4.9858418 -2.9072859 0.39830512 168 58754304 5646 13 1370 5646
3.1455722 -1.8861492 0.26594269 207 58949632 2798 13 1258 2798
5.0047407 -3.0853388 0.40508649 320 59146240 11137 13 1340 11137
5.0094967 -3.1737657 0.40828881 829 59341568 29299 13 1407 29299
5.0680332 -3.2987058 0.41563529 759 59536128 27896 13 1388 27896
5.0570393 -3.3806195 0.41789576 539 59733248 20039 13 1566 20039
3.1622231 -2.170383 0.27649149 319 59928320 4717 13 1545 4717
3.1647203 -2.2297215 0.27875197 401 60122624 6047 13 1340 6047
3.1565285 -2.2824264 0.28025892 432 60317696 6585 13 1258 6585
2.969594 -2.2032294 0.26782641 635 60514816 8728 13 1364 8728
2.8851585 -2.1959779 0.26330549 388 60712192 5122 13 1264 5122
2.8674326 -2.2385888 0.26405898 273 60904448 3629 13 1238 3629
2.2671664 -1.8150802 0.21790795 19 61101568 162 13 1214 162
2.2238965 -1.8256644 0.2162126 21 61295872 175 13 1220 175
0 -0 0 8 61492224 0 13 1183 0
2.148957 -1.8542598 0.21376377 15 61683712 122 13 1222 122
2.1043639 -1.861313 0.21194285 33 61880576 262 13 1215 262
2.1678624 -1.9654385 0.21928933 268 62071552 2306 13 1224 2306
2.1318839 -1.981022 0.21828468 305 62270208 2595 13 1283 2595
2.1030774 -2.0029039 0.21790795 372 62463488 3160 13 1288 3160
2.0711992 -2.0215893 0.21728005 342 62660096 2883 13 1385 2883
2.0448241 -2.0454419 0.21715446 363 62853888 3049 13 1254 3049
2.0181758 -2.0689521 0.21702887 352 63048448 2954 13 1240 2954
1.9933226 -2.0942855 0.21709166 313 63245824 2635 13 1317 2635
2.5500979 -2.7461309 0.27096593 117 63439872 1659 13 1414 1659
2.5282669 -2.7905321 0.27209616 456 63634688 6504 13 1367 6504
2.4951544 -2.8228433 0.27222174 462 63832832 6599 13 1330 6599
2.4733591 -2.8683681 0.27347755 358 64029440 5170 13 1310 5170
2.6210418 -3.1161985 0.29137287 368 64224768 6144 13 1298 6144
2.4034867 -2.9297469 0.27360314 45 64420608 650 13 1238 650
2.3218448 -2.9021266 0.26901942 90 64617216 1252 13 1138 1252
2.2756219 -2.9170222 0.267952 60 64814592 826 13 1226 826
2.2233436 -2.9232781 0.26625663 71 65007104 962 13 1271 962
2.1575882 -2.9102523 0.2631171 74 65203712 976 13 1253 976
2.1030114 -2.9106214 0.26110783 66 65398528 855 13 1253 855
2.0504766 -2.9125414 0.25928691 53 65594112 677 13 1223 677
1.9999068 -2.9160836 0.25765434 62 65787392 779 13 1256 779
1.9578748 -2.9312761 0.25696364 65 65984768 811 13 1256 811
1.9130518 -2.9416938 0.255959 69 66178304 854 13 1230 854
1.8597302 -2.9379616 0.2539497 72 66376960 875 13 1235 875
1.5576936 -2.5288517 0.22205211 16 66571008 143 13 1207 143
1.514748 -2.5280843 0.22060794 9 66766592 79 13 1218 79
1.4690437 -2.5214725 0.21878701 11 66962176 95 13 1234 95
1.4463493 -2.5540745 0.21985444 22 67157248 192 13 1182 192
1.4153789 -2.5725057 0.21991724 20 67353600 173 13 1255 173
1.394989 -2.6108084 0.22142421 7 67547392 63 13 1203 63
0 -0 0 9 67742464 0 13 1242 0
0 -0 0 14 67939072 0 13 1173 0
1.5442575 -3.1654103 0.25677529 78 68134656 973 13 1233 973
1.5010322 -3.1750989 0.25614738 636 68330240 7888 13 1305 7888
1.4586331 -3.1860199 0.25564504 681 68525824 8409 13 1322 8409
1.4093213 -3.1808667 0.25407529 714 68721920 8688 13 1330 8688
1.2086768 -2.8208656 0.22826838 183 68918784 1739 13 1311 1739
1.1732061 -2.8336411 0.2281428 212 69112320 2004 13 1213 2004
1.1394556 -2.8506052 0.22833118 185 69311232 1752 13 1237 1752
1.1097723 -2.8783422 0.22927304 182 69507072 1738 13 1284 1738
1.079579 -2.9057779 0.23021489 156 69703936 1512 13 1357 1512
1.046527 -2.9263253 0.23071721 156 69898752 1522 13 1288 1522
1.0137818 -2.948386 0.23134512 134 70096128 1308 13 1279 1308
0.98252887 -2.9757686 0.23234977 150 70288128 1479 13 1275 1479
0.95045471 -3.0018742 0.23329163 129 70485504 1286 13 1218 1286
0.91643995 -3.0228629 0.23391953 160 70680064 1603 13 1263 1603
0.88205278 -3.0434678 0.23454744 152 70875904 1534 13 1227 1534
0.84809518 -3.0665679 0.23536371 162 71070976 1648 13 1220 1648
0.81141621 -3.080605 0.23561487 159 71264512 1621 13 1245 1621
0.50613368 -2.0214534 0.16629414 73 71461888 318 13 1249 318
0.49073261 -2.0673265 0.16886854 37 71654400 168 13 1175 168
0.46751031 -2.0829313 0.16949646 34 71849216 156 13 1196 156
0.44624928 -2.1090169 0.17081505 22 72045312 103 13 1253 103
0.4216958 -2.1211867 0.17125459 32 72237056 151 13 1198 151
0.39709303 -2.1340516 0.17175691 31 72429568 146 13 1282 146
0.37291917 -2.1505644 0.1725104 30 72624128 144 13 1234 144
0.34839955 -2.1668036 0.17326389 29 72818176 141 13 1215 141
0.32456034 -2.1896739 0.17445691 24 73012736 118 13 1239 118
0.41146067 -3.0331404 0.22776605 96 73204736 904 13 1207 904
0.37335518 -3.0310273 0.22732653 84 73400832 787 13 1261 787
0.33613169 -3.0353808 0.22732653 92 73595392 864 13 1135 864
0.2981748 -3.0323243 0.22688699 83 73791232 774 13 1278 774
0.25983158 -3.0228281 0.22607072 93 73985536 861 13 1174 861
0.22162019 -3.010859 0.22512886 96 74183680 887 13 1305 887
0.18520389 -3.0223174 0.22569397 122 74378240 1124 13 1260 1124
0.15272683 -3.1190622 0.23165907 145 74576384 1420 13 1259 1420
0.11848579 -3.2314086 0.23862882 486 74773504 5113 13 1287 5113
0.078604624 -3.2236397 0.23806371 417 74970368 4353 13 1282 4353
0.039039686 -3.2243614 0.23806371 439 75165440 4583 13 1270 4583
-0.00052943203 -3.2186096 0.23768696 486 75361024 5067 13 1301 5067
-0.040239699 -3.2353258 0.23875439 445 75557888 4679 13 1247 4679
-0.080162078 -3.2435679 0.23931952 443 75751424 4684 13 1248 4684
-0.12032978 -3.2523134 0.23994742 406 75947264 4318 13 1251 4318
-0.16052714 -3.2565727 0.24032415 556 76144384 5947 13 1322 5947
-0.2018923 -3.2772686 0.24176835 630 76340736 6831 13 1325 6831
-0.24179941 -3.2705631 0.24151719 547 76536320 5919 13 1316 5919
-0.28225967 -3.271327 0.24176835 492 76732928 5337 13 1310 5337
-0.32336369 -3.2775488 0.24239625 505 76927744 5508 13 1387 5508
-0.36499363 -3.2862287 0.24321252 452 77124096 4973 13 1336 4973
-0.40774223 -3.301312 0.24446833 593 77316864 6597 13 1351 6597
-0.43409118 -3.1922243 0.23787533 48 77515008 501 13 1238 501
-0.47059101 -3.1688876 0.2367451 39 77708288 404 13 1177 404
-0.51770157 -3.2141101 0.2400102 35 77905152 374 13 1204 374
-0.56274444 -3.2399635 0.2420823 26 78099712 282 13 1262 282
-0.60520577 -3.2475305 0.24302416 19 78296832 209 13 1227 209
-0.64657229 -3.2476895 0.24352647 15 78487808 165 13 1260 165
-0.14781681 -0.69910455 0.080145545 23 78685440 11 13 1224 11
-0.15726055 -0.70113283 0.080396704 30 78880000 15 13 1226 15
-0.16654532 -0.70206308 0.080585077 47 79076608 24 13 1238 24
-0.17199209 -0.6873818 0.079768799 35 79271936 17 13 1194 17
-0.18143292 -0.68907946 0.080019966 42 79465984 21 13 1237 21
-0.19014178 -0.68776292 0.080082752 60 79662336 31 13 1288 31
-0.19940209 -0.68825316 0.080271125 74 79857152 38 13 1235 38
-0.20899294 -0.68957424 0.080522291 90 80052992 47 13 1248 47
-0.21623261 -0.68315226 0.080271125 122 80250624 63 13 1252 63
-0.22522633 -0.68234247 0.080396704 98 80445184 50 13 1254 50
-0.23325783 -0.67858356 0.080333918 117 80638464 60 13 1250 60
-0.24123104 -0.67473042 0.080271125 123 80835072 64 13 1313 64
-0.24810086 -0.66797781 0.080019966 129 81030912 66 13 1238 66
-0.25520095 -0.66208977 0.079831593 135 81225728 68 13 1220 68
-0.26367745 -0.6598348 0.079894386 150 81416192 76 13 1264 76
-0.27137259 -0.65562743 0.079831593 175 81612800 88 13 1277 88
-0.27861077 -0.65041351 0.079706013 170 81806848 85 13 1237 85
-0.28616667 -0.64603329 0.07964322 183 82001664 91 13 1211 91
-0.29448879 -0.64338017 0.079706013 165 82192384 83 13 1239 83
-0.30364278 -0.64242417 0.079894386 122 82388480 62 13 1244 62
-0.31281748 -0.64133996 0.080082752 110 82582784 56 13 1265 56
-0.32156211 -0.63923556 0.080208339 95 82781184 49 13 1190 49
-0.33030206 -0.6370129 0.080333918 97 82974976 50 13 1181 50
-0.33809429 -0.63291162 0.080333918 93 83171584 48 13 1228 48
-0.34487268 -0.6269666 0.080208339 58 83366912 29 13 1205 29
-0.3520484 -0.62181902 0.080145545 60 83560704 30 13 1224 30
-0.3536191 -0.60710657 0.079392061 37 83757056 18 13 1241 18
-0.36155593 -0.60357726 0.079454847 45 83952640 22 13 1193 22
-0.36841172 -0.59824544 0.079392061 37 84146688 18 13 1261 18
-0.37732792 -0.59620851 0.079580434 43 84343552 21 13 1154 21
-0.38189349 -0.58735114 0.079266481 24 84538880 11 13 1188 11
-0.387963 -0.58096117 0.079140894 16 84733952 7 13 1212 7
-0.39619276 -0.57780212 0.079266481 16 84930816 7 13 1214 7
-0.40267855 -0.57208091 0.079203688 42 85126144 20 13 1213 20
-0 -0 0 7 85324032 0 13 1247 0
-0.3987543 -0.53798276 0.077319972 159 85518336 72 13 1299 72
-0.41923061 -0.5513131 0.078764156 30 85718016 14 13 1202 14
-0.41552243 -0.53275454 0.077696718 8 85912832 3 13 1231 3
-0 -0 0 9 86111232 0 13 1251 0
-0.43100515 -0.52548188 0.077947877 12 86306560 5 13 1240 5
-0.46184674 -0.54916525 0.080333918 63 86506240 32 13 1248 32
-0.45420489 -0.52683467 0.078952529 14 86698752 6 13 1196 6
-0 -0 0 7 86897664 0 13 1183 0
-0 -0 0 8 87090944 0 13 1232 0
-0 -0 0 9 87285504 0 13 1227 0
-0 -0 0 7 87478784 0 13 1237 0
-0 -0 0 7 87672320 0 13 1260 0
-0.53055573 -0.53079695 0.082406007 20 87867648 11 13 1209 11
-0.52488267 -0.51240069 0.081338562 17 88061440 9 13 1202 9
-0.55932862 -0.53275204 0.083787397 27 88253952 16 13 1198 16
-0 -0 0 7 88449280 0 13 1213 0
-0 -0 0 7 88643840 0 13 1197 0
-0 -0 0 10 88837120 0 13 1193 0
-0 -0 0 6 89032192 0 13 1222 0
-0 -0 0 8 89225984 0 13 1238 0
-0 -0 0 6 89424896 0 13 1213 0
-0 -0 0 7 89616384 0 13 1263 0
-0 -0 0 9 89812736 0 13 1258 0
-0 -0 0 9 90005760 0 13 1192 0
-0 -0 0 8 90201344 0 13 1195 0
-0 -0 0 9 90396928 0 13 1195 0
-0.92933476 -0.65458602 0.10670593 19 90594560 24 13 1206 24
-0.93071258 -0.63861728 0.10620361 11 90787328 14 13 1281 14
-0 -0 0 10 90985728 0 13 1233 0
-0 -0 0 7 91179520 0 13 1268 0
-0 -0 0 6 91374336 0 13 1244 0
-0 -0 0 8 91570432 0 13 1253 0
-0 -0 0 7 91763968 0 13 1238 0
-0 -0 0 7 91959808 0 13 1259 0
-1.4319602 -0.81109971 0.1387291 22 92154368 60 13 1198 60
-0.46501416 -0.25620681 0.068592086 61 92349184 17 13 1274 17
-0.4672429 -0.25001085 0.0685293 29 92545280 8 13 1238 8
-0.47204775 -0.245177 0.06865488 34 92739584 9 13 1246 9
-0 -0 0 8 92933888 0 13 1216 0
-0 -0 0 9 93131008 0 13 1166 0
-0 -0 0 6 93326080 0 13 1315 0
-1.5062526 -0.6898194 0.13941979 28 93523200 77 13 1223 77
-0 -0 0 20 93715968 0 13 1252 0
-0 -0 0 8 93914112 0 13 1190 0
-0 -0 0 7 94108416 0 13 1180 0
-0 -0 0 8 94306048 0 13 1268 0
-0 -0 0 6 94501120 0 13 1232 0
-0.46389326 -0.17269324 0.066331632 20 94699520 4 13 1206 4
-0.43496478 -0.15590093 0.064259544 29 94891520 6 13 1230 6
-0 -0 0 11 95089408 0 13 1249 0
-0 -0 0 9 95284224 0 13 1206 0
-0.85336381 -0.27048028 0.091510631 24 95480320 19 13 1188 19
-0 -0 0 8 95675648 0 13 1240 0
-0 -0 0 8 95869696 0 13 1296 0
-0 -0 0 7 96065536 0 13 1269 0
-0 -0 0 8 96258816 0 13 1240 0
-1.0261582 -0.2571252 0.10174549 12 96452864 13 13 1218 13
-0 -0 0 8 96649728 0 13 1257 0
-0 -0 0 7 96843008 0 13 1223 0
-0 -0 0 10 97035520 0 13 1273 0
-0 -0 0 6 97230336 0 13 1332 0
-0 -0 0 10 97423872 0 13 1281 0
-0 -0 0 7 97619200 0 13 1275 0
-0 -0 0 6 97810432 0 13 1311 0
-0 -0 0 6 98006272 0 13 1261 0
-0 -0 0 7 98196992 0 13 1256 0
-0 -0 0 7 98391808 0 13 1227 0
-0 -0 0 5 98586368 0 13 1318 0
-0 -0 0 5 98783744 0 13 1470 0
-0 -0 0 8 98977024 0 13 1647 0
-0 -0 0 3 99174656 0 13 1767 0
-0 -0 0 7 99369472 0 13 2126 0
-0 -0 0 3 99565312 0 13 2435 0
-0 -0 0 4 99762176 0 13 2054 0
-0 -0 0 5 0 0 14 2858 0
-0 -0 0 4 195072 0 14 3254 0
-0 0 0 5 394240 0 14 3187 0
-0 0 0 9 584448 0 14 2715 0
-0 0 0 6 782080 0 14 2616 0
-0 0 0 8 977408 0 14 2368 0
-0 0 0 9 1174016 0 14 2300 0
-0 0 0 7 1368320 0 14 2280 0
-0 0 0 5 1563648 0 14 2364 0
-0 0 0 13 1761280 0 14 2253 0
-0 0 0 6 1956096 0 14 2157 0
-0 0 0 12 2150912 0 14 2205 0
-6.8669028 0.84732306 0.29896078 11 2348800 569 14 2193 569
-6.891634 0.93637204 0.30033019 35 2543104 1695 14 2138 1695
-6.8727055 1.0198454 0.30006391 46 2737152 2262 14 2230 2262
-6.8685517 1.1055368 0.30040625 63 2933504 3098 14 2177 3098
-6.8790817 1.1940149 0.30135724 68 3127808 3364 14 2185 3364
-6.8815942 1.2816362 0.30204195 93 3324416 4564 14 2130 4564
-0.97620273 0.19389576 0.073465601 409 3517696 406 14 1817 406
-0.96104121 0.20316878 0.072971091 471 3715328 456 14 1838 456
-0.94190115 0.2112231 0.072324425 197 3909376 184 14 1911 184
-0.832295 0.1973561 0.068140142 424 4105984 311 14 1864 311
-0.81817883 0.20463987 0.067683667 606 4301312 432 14 1838 432
-0.82236975 0.21644828 0.067949943 564 4497152 409 14 1888 409
-0.81194723 0.22439072 0.067645632 34 4690432 24 14 1833 24
-0.75442928 0.21846756 0.065477408 11 4888064 7 14 1769 7
-0.83488238 0.25295469 0.0687868 21 5081088 16 14 1717 16
-0.82314211 0.26046392 0.068444453 237 5275904 177 14 1799 177
-2.0011482 0.66092551 0.115803 58 5471744 260 14 1900 260
-0 0 0 8 5664768 0 14 1898 0
-0.88261849 0.3155044 0.071259335 29 5861632 26 14 1858 26
-0.80937022 0.30053985 0.068444453 66 6056704 49 14 1833 49
-0.80841804 0.31152862 0.068558566 83 6250240 63 14 1784 63
-0.80360645 0.32105455 0.068520531 78 6447104 59 14 1741 59
-1.8566347 0.76886261 0.11207518 39 6640896 161 14 1747 161
-1.8360389 0.78686279 0.11161871 441 6834432 1765 14 1849 1765
-1.8554769 0.82229608 0.11283596 756 7030528 3121 14 1838 3121
-1.842521 0.84375501 0.11272185 849 7223808 3498 14 1729 3498
-1.8401576 0.87014818 0.11306419 88 7420928 366 14 1960 366
-0.69968688 0.3411611 0.065211132 462 7610368 280 14 1881 280
-0.68295223 0.34343028 0.064678587 601 7805184 352 14 1893 352
-0.67691249 0.35086468 0.064602509 686 7998464 400 14 1819 400
-0.66814971 0.35678926 0.064412318 649 8191488 373 14 1857 373
-0.66021949 0.36303389 0.064260162 627 8383488 357 14 1909 357
-0.6565842 0.3716011 0.064298198 596 8579072 340 14 1975 340
-0.68477976 0.39875463 0.065743685 490 8770048 309 14 1809 309
-0.67897785 0.40661407 0.065705642 144 8968960 91 14 1767 91
-0.62289602 0.38345739 0.063423306 15 9163520 8 14 1907 8
-2.3875527 1.5118089 0.14315304 52 9360384 421 14 1847 421
-2.3889222 1.5540745 0.14406598 47 9556480 388 14 1830 388
-2.3821335 1.5916021 0.14463656 41 9753088 341 14 1892 341
-2.3896124 1.6393733 0.14589185 27 9950976 232 14 1877 232
-2.3881042 1.6818101 0.14676675 23 10147328 200 14 1961 200
-2.3786232 1.7191857 0.14729929 27 10343168 236 14 1946 236
-2.3725958 1.7595574 0.14802204 42 10541312 373 14 1814 373
-2.3595719 1.795197 0.14844047 33 10736640 296 14 1857 296
-2.3444538 1.8295512 0.14878282 27 10932480 247 14 1761 247
-1.8506429 1.4809902 0.12580726 328 11130624 1848 14 1969 1848
-1.8238333 1.4966147 0.12538883 468 11325696 2612 14 1955 2612
-1.8420283 1.5497688 0.1272147 311 11521280 1808 14 1872 1808
-1.8410298 1.5879234 0.12812763 338 11713792 2004 14 1870 2004
-1.8505971 1.6362149 0.12961116 341 11910656 2088 14 1915 2088
-1.8622136 1.6876609 0.13124683 465 12104192 2945 14 1921 2945
-1.8582004 1.7260303 0.13212173 397 12299008 2562 14 1795 2562
-1.8802983 1.7900506 0.13440408 318 12492032 2151 14 1929 2151
-1.8989528 1.8527731 0.1365723 303 12687616 2141 14 1790 2141
-1.895856 1.8957235 0.13763739 324 12877824 2339 14 1773 2339
-1.8926858 1.9395891 0.13874052 312 13075456 2299 14 1876 2299
-1.8880324 1.9829355 0.13980561 322 13270016 2424 14 1798 2424
-1.8866776 2.0308502 0.14109893 318 13465600 2452 14 1839 2452
-1.9146222 2.1123481 0.14410402 500 13659904 4073 14 1927 4073
-1.880614 2.1267004 0.14364755 400 13852928 3233 14 1955 3233
-1.8308803 2.122376 0.14227815 512 14050304 4036 14 1852 4036
-1.7905455 2.1278608 0.14144129 556 14246400 4311 14 1926 4311
-1.7471845 2.1288154 0.14041424 474 14441216 3606 14 1837 3606
-1.7003266 2.1243477 0.13915895 467 14640640 3467 14 1880 3467
-1.6636796 2.13166 0.13851228 543 14836992 3980 14 1914 3980
-1.6234809 2.1336229 0.13763739 518 15032064 3735 14 1831 3735
-1.5870577 2.1397393 0.13699073 592 15228416 4213 14 1850 4213
-1.547804 2.1412351 0.13615386 545 15423488 3815 14 1917 3815
-1.5081793 2.1412756 0.13527897 599 15620096 4120 14 1873 4120
-1.4727453 2.1464372 0.13467035 545 15811584 3702 14 1968 3702
-1.4313072 2.1419134 0.1336433 666 16009472 4432 14 1894 4432
-1.3994665 2.1509397 0.1332629 717 16201984 4732 14 1905 4732
-1.3633444 2.1527538 0.13257819 739 16396288 4811 14 1913 4811
-1.3321071 2.161665 0.13223585 773 16587776 4994 14 1897 4994
-1.1077296 1.847841 0.11759084 553 16785408 2573 14 1952 2573
-1.0990565 1.8854707 0.11865593 336 16976128 1607 14 1825 1607
-1.0787908 1.9040329 0.11888416 414 17173248 1989 14 1795 1989
-0.83422583 1.5152787 0.10142426 145 17367296 437 14 1765 437
-0.81274247 1.5201138 0.10119603 147 17562368 440 14 1737 440
-0.79172659 1.5255377 0.10100583 173 17758208 514 14 1792 514
-0.75812304 1.5056819 0.099750549 255 17952768 728 14 1841 728
-0.73652148 1.5085853 0.099484272 250 18149376 708 14 1832 708
-0.71581763 1.5129931 0.099294074 208 18344704 586 14 1794 586
-0.69553286 1.5180291 0.099141918 297 18540288 832 14 1799 832
-0.6671356 1.5045239 0.098228984 352 18736896 957 14 1835 957
-0.63996321 1.4923905 0.097392127 414 18932992 1095 14 1771 1095
-0.61548418 1.4853594 0.096783504 380 19130368 986 14 1839 986
-0.59312975 1.4825939 0.096365072 357 19326976 914 14 1792 914
-0.56949842 1.4757756 0.095794491 312 19522048 783 14 1868 783
-0.5374229 1.4451851 0.094272926 174 19719680 416 14 1822 416
-0.51897472 1.4497895 0.094196849 153 19912704 365 14 1855 365
-0.49984461 1.4522691 0.094044693 129 20111616 306 14 1814 306
-0.71480536 2.1633079 0.12230767 239 20306176 1247 14 1827 1247
-0.68005896 2.1461952 0.12128062 642 20502784 3263 14 1918 3263
-0.65338069 2.1534226 0.12124258 702 20698880 3564 14 1878 3564
-0.6257928 2.1574395 0.12109043 671 20896256 3395 14 1878 3395
-0.59740567 2.1582148 0.12082415 656 21088256 3298 14 1837 3298
-0.56909406 2.1586192 0.12055787 605 21286912 3022 14 1938 3022
-0.54110545 2.1596241 0.12032964 631 21480192 3136 14 1864 3136
-0.51271647 2.1583235 0.12002533 646 21673984 3186 14 1922 3186
-0.48466009 2.1576278 0.11975906 727 21868800 3564 14 1838 3564
-0.45690504 2.157547 0.11953083 722 22060800 3521 14 1801 3521
-0.42922518 2.1571109 0.11930259 700 22256640 3395 14 1864 3395
-0.35610771 1.9117002 0.10960265 497 22449920 1884 14 1982 1884
-0.37803578 2.1778255 0.11972102 447 22642944 2192 14 1756 2192
-0.35144067 2.1832871 0.11975906 1471 22840064 7207 14 1976 7207
-0.32755226 2.2072051 0.12051984 1198 23034112 5979 14 1904 5979
-0.29506677 2.1714504 0.11899828 774 23227904 3724 14 1942 3724
-0.24542132 1.9884541 0.11184695 286 23421952 1153 14 1808 1153
-0.21615994 1.9476153 0.11017323 34 23617024 133 14 1813 133
-0.18960181 1.9232705 0.10914618 109 23813888 411 14 1771 411
-0.1658148 1.9234611 0.1090701 104 24005376 391 14 1821 391
-0.14205168 1.923358 0.10899402 153 24201472 573 14 1794 573
-0.11837725 1.9239589 0.10895599 134 24395264 502 14 1783 502
-0.094758406 1.9252667 0.10895599 136 24592640 509 14 1803 509
-0.071161963 1.9272832 0.10899402 112 24784384 421 14 1721 421
-0.047432628 1.9250144 0.1088799 171 24983040 638 14 1783 638
-0.023794016 1.9244523 0.10884187 135 25177088 503 14 1834 503
-0.00017623378 1.9245994 0.10884187 152 25374976 567 14 1739 567
0.023466317 1.926455 0.10891794 154 25570304 575 14 1767 575
0.04712975 1.9270209 0.10895599 131 25768192 491 14 1773 491
0.070810601 1.9272962 0.10899402 124 25963520 465 14 1775 465
0.094505303 1.9272801 0.10903206 133 26158848 498 14 1821 498
0.11821026 1.9269726 0.1090701 118 26355456 443 14 1803 443
0.15988518 2.1695342 0.11838965 198 26550016 942 14 1812 942
0.18580993 2.1594443 0.11808534 185 26745344 874 14 1816 874
0.18974306 1.9282771 0.10933638 105 26942208 398 14 1790 398
0.2136122 1.9277898 0.10941245 118 27137024 444 14 1711 444
0.23749791 1.9270068 0.10948853 116 27331584 441 14 1797 441
0.26139656 1.9259275 0.10956461 96 27526400 366 14 1743 366
0.28574464 1.9275171 0.1097548 102 27722496 391 14 1762 391
0.31017095 1.9287982 0.109945 107 27918336 412 14 1728 412
0.33501354 1.9317385 0.11021127 89 28112384 343 14 1697 343
0.36034086 1.9363233 0.11055362 87 28309504 340 14 1852 340
0.38544077 1.9386159 0.11081989 120 28503808 473 14 1784 473
0.4102369 1.938628 0.11101009 102 28700416 404 14 1756 404
0.4346531 1.9363726 0.1111242 93 28895232 367 14 1645 367
0.45884463 1.9328374 0.11120028 80 29092864 319 14 1827 319
0.48277187 1.9280305 0.11123832 90 29284608 358 14 1860 358
0.50639546 1.9219609 0.11123832 145 29482240 576 14 1783 576
0.5328756 1.9261955 0.11165676 106 29675776 427 14 1770 427
0.65447766 2.2573273 0.12504648 467 29871360 2588 14 1902 2588
0.69170517 2.2806811 0.12630177 828 30066688 4712 14 1945 4712
0.72145188 2.2777367 0.12653001 774 30260480 4428 14 1876 4428
0.75217092 2.277251 0.12687235 774 30456576 4464 14 1914 4464
0.78396183 2.2791879 0.12732881 832 30649856 4843 14 1931 4843
0.81490266 2.2778633 0.12767117 770 30844160 4518 14 1933 4518
0.8483665 2.2826777 0.12827979 637 31040256 3787 14 1935 3787
0.87955219 2.2804854 0.12862214 772 31234304 4624 14 1890 4624
0.91192484 2.280654 0.12907861 765 31427840 4628 14 1815 4628
0.94405085 2.2794464 0.12949704 741 31624704 4521 14 1874 4521
0.97352731 2.2713633 0.12964919 270 31819520 1656 14 1799 1656
0.88993901 2.0080321 0.11918847 15 32015872 76 14 1752 76
0.91867596 2.0060446 0.11956886 22 32207104 111 14 1740 111
0.35049763 0.74175888 0.066808775 21 32404736 14 14 1679 14
0.35694337 0.732014 0.066580541 48 32597248 31 14 1690 31
0.36500067 0.7257936 0.066504464 76 32792320 50 14 1822 50
0.37802252 0.72924232 0.06684681 64 32984832 43 14 1746 43
0.38835642 0.72719222 0.066960931 78 33182464 53 14 1804 53
0.40592569 0.7381286 0.067645632 54 33373952 39 14 1748 39
0.42677638 0.75395739 0.068558566 42 33571328 32 14 1725 32
0.44102913 0.75729632 0.068938956 50 33766400 39 14 1767 39
0.46005177 0.76811123 0.069661699 36 33961472 29 14 1800 29
0.48779365 0.79218167 0.070993066 24 34156288 21 14 1754 21
0.4969435 0.78529185 0.070955023 23 34351104 20 14 1748 20
1.365497 2.0991268 0.13090448 8 34547456 54 14 1834 54
1.4289113 2.1387069 0.13349114 45 34744576 302 14 1843 302
1.4951931 2.1795101 0.1361919 98 34939392 692 14 1713 692
1.524704 2.1650822 0.1363821 88 35136768 623 14 1813 623
1.5581836 2.1559265 0.13683857 83 35333376 594 14 1769 594
1.5916671 2.1462736 0.13729504 80 35529472 572 14 1685 572
1.628173 2.1400981 0.1379417 77 35728384 564 14 1779 564
1.6629208 2.1309845 0.13847424 73 35924480 540 14 1766 540
1.6914442 2.113538 0.1386264 114 36123904 843 14 1747 843
1.7254953 2.1026633 0.13912091 112 36319232 837 14 1740 837
1.7601767 2.0920339 0.13965346 92 36517120 694 14 1849 694
1.1818926 1.3704309 0.10446738 30 36712448 100 14 1805 100
1.2111993 1.370046 0.10519012 21 36909312 70 14 1697 70
1.2158399 1.3417535 0.10450542 49 37104384 161 14 1691 161
1.2322136 1.3267323 0.10450542 202 37301248 666 14 1749 666
1.2484019 1.3115112 0.10450542 553 37494528 1818 14 1804 1818
1.2706838 1.3025289 0.10484777 729 37691392 2422 14 1784 2422
1.2908121 1.2910767 0.10507601 634 37883136 2120 14 1845 2120
1.3108501 1.2793258 0.10530424 672 38078464 2259 14 1892 2259
1.3322412 1.2686552 0.10560855 610 38272000 2070 14 1849 2070
1.3506379 1.2549311 0.10576071 473 38463744 1613 14 1914 1613
1.3726006 1.2443011 0.10610306 532 38659840 1830 14 1881 1830
1.3907614 1.2300109 0.10625521 566 38853120 1957 14 1784 1957
1.4140749 1.2200303 0.10667364 488 39047168 1707 14 1940 1707
1.4381162 1.210305 0.10713011 474 39242240 1679 14 1877 1679
1.4559503 1.1951013 0.10728227 442 39436544 1572 14 1960 1572
1.4720669 1.1783932 0.10735834 488 39630592 1741 14 1901 1741
1.4935074 1.1657722 0.1077007 229 39826176 825 14 1937 825
1.508496 1.1479619 0.10773873 32 40020224 115 14 1708 115
1.5256804 1.1317445 0.10789089 34 40215296 126 14 1763 126
2.6271958 1.8989754 0.15897727 253 40406528 2672 14 1770 2672
2.6298749 1.85221 0.15802629 296 40604160 3074 14 1849 3074
2.6367493 1.8090585 0.15730356 338 40796928 3468 14 1875 3468
2.632992 1.759358 0.15612434 356 40992000 3585 14 1741 3585
2.6334419 1.7132937 0.15517336 304 41185536 3011 14 1865 3011
2.6475139 1.6765722 0.15486905 293 41383168 2890 14 1797 2890
2.6508727 1.6334745 0.15410827 315 41575424 3066 14 1827 3066
2.6535752 1.5905485 0.15334749 331 41773312 3179 14 1892 3179
2.658216 1.5493129 0.15270083 318 41968384 3021 14 1876 3021
2.661377 1.5077118 0.15201613 346 42164992 3251 14 1769 3251
2.6577914 1.4628956 0.15106516 367 42360832 3389 14 1911 3389
2.6579165 1.4207511 0.15030438 341 42556160 3111 14 1738 3111
2.6574101 1.3788252 0.1495436 370 42753024 3329 14 1783 3329
2.6732378 1.3456616 0.14950556 363 42948608 3263 14 1834 3263
2.6617095 1.2991713 0.14832635 1593 43144704 14007 14 1905 14007
2.6395099 1.2484701 0.14672871 262 43341056 2241 14 1933 2241
2.6564491 1.2168173 0.14680478 322 43536384 2760 14 1786 2760
2.6766627 1.1865561 0.14703302 324 43731456 2789 14 1781 2789
2.6726522 1.1457478 0.14627224 270 43927296 2294 14 1792 2294
2.668046 1.1052178 0.14551146 279 44122112 2337 14 1836 2337
2.6665618 1.0664585 0.14490284 287 44318976 2377 14 1796 2377
2.676651 1.0325768 0.14478871 322 44511488 2660 14 1878 2660
2.6835008 0.99756396 0.14456049 296 44707584 2437 14 1805 2437
2.6682541 0.9547984 0.14345735 271 44901888 2187 14 1776 2187
2.6334672 0.90605932 0.14159344 289 45098752 2250 14 1815 2250
2.595046 0.85738015 0.13961542 335 45291264 2513 14 1761 2513
2.5625029 0.81189466 0.13790366 289 45489920 2096 14 1864 2096
1.8502821 0.56146008 0.10918422 660 45680384 2475 14 1936 2475
1.8551133 0.53815556 0.10910814 593 45877504 2218 14 1914 2218
1.8596513 0.51481712 0.10903206 572 46071040 2135 14 1944 2135
1.8609974 0.49068472 0.10884187 562 46266112 2087 14 1851 2087
1.8610626 0.46635425 0.10861363 529 46462208 1952 14 1911 1952
1.8520614 0.44001928 0.10804304 357 46655744 1297 14 1864 1297
1.8602468 0.41791502 0.10815717 606 46852096 2209 14 1950 2209
1.8613245 0.39422804 0.10800501 592 47045632 2148 14 1963 2148
1.8621018 0.37057766 0.10785285 626 47239936 2262 14 1978 2262
1.8645444 0.34733331 0.10777678 93 47435776 337 14 1876 337
1.8696508 0.32459706 0.10781481 70 47630336 255 14 1791 255
1.8675737 0.3006773 0.10758658 73 47823616 265 14 1727 265
1.871123 0.27773666 0.10758658 75 48019456 272 14 1739 272
1.8644882 0.25341043 0.10720619 681 48214272 2416 14 2036 2416
1.8654741 0.23026679 0.10713011 689 48411392 2441 14 1982 2441
1.8681593 0.20735721 0.10713011 596 48602880 2112 14 1872 2112
1.8705633 0.18441641 0.10713011 623 48799744 2206 14 1923 2206
1.8677075 0.16101971 0.10693992 226 48993024 798 14 1833 798
1.8725325 0.13830815 0.10705403 58 49189376 208 14 1743 208
1.8730913 0.11525771 0.107016 124 49382912 440 14 1815 440
1.8623878 0.091676243 0.10655953 504 49579776 1758 14 1865 1758
1.8753558 0.069255032 0.107016 379 49771776 1339 14 1829 1339
1.8730675 0.046163075 0.10690188 93 49969664 329 14 1840 329
1.8674978 0.023101257 0.10667364 62 50163712 220 14 1720 220
1.8716377 0.000182011 0.1068258 68 50360064 242 14 1718 242
1.866503 -0.022724019 0.10663561 130 50555392 454 14 1681 454
1.8670826 -0.045651805 0.10667364 604 50749952 2113 14 1937 2113
1.8693776 -0.06867101 0.10678776 594 50945792 2083 14 1875 2083
1.8683941 -0.091605976 0.10678776 630 51141120 2211 14 1921 2211
1.8711189 -0.11477269 0.10693992 536 51336704 1889 14 1870 1889
1.8635901 -0.13728383 0.10671169 105 51533568 370 14 1773 370
1.8707254 -0.16091521 0.10705403 74 51729408 264 14 1785 264
1.875571 -0.18454616 0.10732031 51 51924224 184 14 1834 184
1.8741583 -0.20765865 0.10735834 62 52121600 223 14 1761 223
1.8754359 -0.23113154 0.1075105 337 52318208 1208 14 1829 1208
1.8655272 -0.25318649 0.10724423 78 52514816 277 14 1692 277
1.8632681 -0.27620703 0.10728227 90 52708608 322 14 1837 322
1.8636847 -0.29968682 0.10743442 80 52904704 289 14 1725 289
1.8667585 -0.32373112 0.1077007 372 53099008 1339 14 1906 1339
1.8724689 -0.34844491 0.10808109 707 53295872 2571 14 1924 2571
1.8700122 -0.37178686 0.10815717 675 53489152 2460 14 2013 2460
1.8682417 -0.39532799 0.10827128 632 53686016 2311 14 1983 2311
1.8612998 -0.41778633 0.1081952 422 53877504 1541 14 1840 1541
1.8813102 -0.44660181 0.10918422 64 54074624 243 14 1740 243
1.8756881 -0.46965474 0.10918422 68 54266368 258 14 1757 258
1.8707497 -0.49289173 0.10922226 76 54461952 285 14 1703 285
1.8664864 -0.51634485 0.10929833 320 54657024 1204 14 1805 1204
1.8830425 -0.54589278 0.11021127 782 54850048 3012 14 1867 3012
1.8781141 -0.56953984 0.11028735 743 55046656 2868 14 1982 2868
1.8747939 -0.59375191 0.1104395 193 55240448 751 14 1742 751
1.8673666 -0.61671376 0.1104395 432 55434240 1677 14 1765 1677
1.8606027 -0.63990802 0.11047754 373 55630080 1448 14 1970 1448
