# .PCD v0.7 - Point Cloud Data file format
VERSION 0.7
FIELDS x y z intensity t reflectivity ring noise range
SIZE 4 4 4 4 4 2 2 2 4
TYPE F F F F U U U U U
COUNT 1 1 1 1 1 1 1 1 1
WIDTH 623
HEIGHT 1
VIEWPOINT 0 0 0 1 0 0 0
POINTS 623
DATA ascii
2.3402541 -0.17332387 0.87278897 142 51546624 886 1 1121 886
2.3304486 -0.20137981 0.87008828 128 51742976 793 1 1163 793
2.3583369 -0.14559081 0.82065827 178 51353600 1109 2 1059 1109
2.3223207 -0.17199276 0.80925316 23 51546624 141 2 1069 141
2.3266499 -0.20105094 0.81147081 29 51742976 179 2 1045 179
2.3249514 -0.22968078 0.81178761 152 51937536 926 2 1020 926
2.2955635 -0.25525486 0.802917 226 52134912 1343 2 1146 1343
2.2884929 -0.28293958 0.80164975 228 52328448 1350 2 1174 1350
2.3447857 -0.087470956 0.75806069 157 50962176 953 3 1338 953
2.3330407 -0.11571625 0.75480795 284 51157504 1700 3 1261 1700
2.331445 -0.14433753 0.75480795 79 51353600 472 3 1274 472
2.3380718 -0.17357497 0.7574693 36 51546624 217 3 1253 217
2.2986493 -0.19903371 0.74593669 163 51742976 951 3 1279 951
2.288429 -0.22647281 0.74357104 280 51937536 1629 3 1360 1629
2.2778823 -0.25369114 0.74120533 244 52134912 1411 3 1293 1411
2.2708056 -0.28115502 0.74002254 275 52328448 1579 3 1284 1579
2.2435217 -0.30577111 0.73262984 40 52523520 230 3 1330 230
2.2282622 -0.33159035 0.72908133 220 52717824 1229 3 1345 1229
2.2268546 -0.35936663 0.72996843 248 52912640 1388 3 1313 1388
2.2091012 -0.38437176 0.72582853 265 53108480 1466 3 1328 1466
2.3521831 -0.058026839 0.7018199 260 50767360 1561 4 977 1561
2.3493717 -0.086816028 0.70127231 322 50962176 1927 4 1139 1927
2.3404443 -0.11526018 0.69908202 327 51157504 1947 4 1011 1947
2.332134 -0.14355759 0.69716543 342 51353600 2023 4 1070 2023
2.2563412 -0.16669668 0.67608351 38 51546624 214 4 989 214
2.2493346 -0.19395895 0.67471457 30 51742976 169 4 935 169
2.2582705 -0.22268167 0.67800003 115 51937536 645 4 932 645
2.2544119 -0.25027108 0.67772627 153 52134912 855 4 1016 855
2.2311261 -0.27543923 0.67197663 34 52328448 190 4 939 190
2.2218599 -0.3020196 0.67033392 34 52523520 189 4 957 189
2.2113271 -0.32827276 0.66841733 43 52717824 236 4 1006 236
2.1776967 -0.35063964 0.65992981 357 52912640 1882 4 1030 1882
2.1722822 -0.37717223 0.65965605 339 53108480 1787 4 998 1787
2.1627626 -0.4029195 0.65828711 335 53304576 1758 4 1005 1758
2.1576555 -0.42942959 0.65828711 362 53500160 1899 4 1013 1899
2.1522231 -0.45587501 0.65828711 346 53696768 1815 4 993 1815
2.1126859 -0.47465593 0.64843059 234 53891328 1190 4 1018 1190
2.3714926 -0.029393302 0.6487838 99 50572800 597 5 1107 597
2.3361218 -0.057628002 0.63972753 26 50767360 154 5 1073 154
2.3304029 -0.086111978 0.63846976 34 50962176 199 5 1116 199
2.3146706 -0.11398666 0.6346963 168 51157504 965 5 1203 965
2.3111656 -0.14226341 0.63419318 180 51353600 1033 5 1126 1033
2.3015242 -0.17004247 0.63218069 38 51546624 217 5 1148 217
2.2867289 -0.19718985 0.62891036 46 51742976 261 5 1062 261
2.2475371 -0.22162144 0.61935097 412 51937536 2247 5 1213 2247
2.2436864 -0.24907854 0.61909944 408 52134912 2223 5 1130 2223
2.2385397 -0.27635577 0.61859632 395 52328448 2148 5 1138 2148
2.2033329 -0.29949796 0.61029476 256 52523520 1354 5 1144 1354
2.2023637 -0.32694057 0.61104941 361 52717824 1912 5 1191 1912
2.1656985 -0.34870565 0.60249627 490 52912640 2520 5 1170 2520
2.1746058 -0.37757611 0.60601819 439 53108480 2286 5 1229 2286
2.1517315 -0.4008624 0.60123849 74 53304576 380 5 1109 380
2.1286156 -0.42364463 0.59645879 43 53500160 219 5 1054 219
2.1194694 -0.44893125 0.59545255 49 53696768 248 5 1078 248
2.1213548 -0.47660518 0.59746504 75 53891328 381 5 1088 381
2.0899234 -0.49655643 0.59067285 417 54087168 2058 5 1155 2058
2.0827339 -0.52193016 0.59042126 454 54282240 2237 5 1161 2237
2.0771079 -0.54769617 0.59067285 456 54477056 2248 5 1221 2248
2.3638453 0.028723126 0.58887506 302 50185472 1784 6 1173 1784
2.3552592 -0.00028457202 0.58681375 329 50378752 1929 6 1080 1929
2.3463182 -0.02907721 0.5847525 349 50572800 2033 6 1050 2033
2.3487041 -0.05794045 0.58543956 131 50767360 766 6 1061 766
2.3030696 -0.085097477 0.57490414 338 50962176 1898 6 1085 1898
2.2969909 -0.11311308 0.57375902 368 51157504 2057 6 1056 2057
2.2886288 -0.14087242 0.57215583 394 51353600 2190 6 1057 2190
2.2741079 -0.16801231 0.5691784 199 51546624 1096 6 1019 1096
2.2224147 -0.19163308 0.55749786 41 51742976 218 6 1011 218
2.2324889 -0.22013502 0.56047523 92 51937536 492 6 995 492
2.228652 -0.24740694 0.56024623 431 52134912 2291 6 1083 2291
2.1945341 -0.27091551 0.55291724 63 52328448 328 6 1030 328
2.1804345 -0.29638138 0.55039793 70 52523520 361 6 1029 361
2.1785588 -0.32340255 0.55085599 62 52717824 321 6 949 321
2.1619329 -0.34809867 0.54787856 161 52912640 818 6 995 818
2.1536624 -0.37393594 0.54696244 449 53108480 2268 6 1097 2268
2.1297729 -0.39676762 0.54238182 313 53304576 1553 6 1114 1553
2.1199703 -0.42192245 0.5412367 49 53500160 244 6 1021 244
2.0974925 -0.44427219 0.53711414 259 53696768 1259 6 1093 1259
2.0823855 -0.46784273 0.53482383 459 53891328 2210 6 1085 2210
2.0717525 -0.49223566 0.53367865 501 54087168 2400 6 1176 2400
2.0636678 -0.51714861 0.53322059 444 54282240 2124 6 1198 2124
2.0543425 -0.54168898 0.53253353 246 54477056 1175 6 1069 1175
2.0419118 -0.5652988 0.53115934 178 54672640 846 6 1058 846
2.0273426 -0.58814257 0.52932709 447 54867968 2105 6 1187 2105
2.0143838 -0.6112799 0.52795291 428 55064832 2005 6 1134 2005
2.0113702 -0.63742465 0.52909809 249 55260672 1171 6 1141 1171
2.4424105 0.09007895 0.54759485 175 49795072 1097 7 1396 1097
2.3846366 0.058665555 0.53523284 181 49990656 1080 7 1403 1080
2.3538659 0.02901713 0.52863979 285 50185472 1654 7 1406 1654
2.3481736 0.00013002902 0.52740359 386 50378752 2228 7 1416 2228
2.3254936 -0.028407037 0.52266484 279 50572800 1580 7 1472 1580
2.3171439 -0.05674931 0.52101654 49 50767360 279 7 1360 279
2.3064942 -0.084818713 0.51895624 50 50962176 283 7 1307 283
2.2857325 -0.11215413 0.51483554 40 51157504 224 7 1290 224
2.2421861 -0.13761033 0.50597614 346 51353600 1828 7 1421 1828
2.2500873 -0.16583598 0.50803643 40 51546624 217 7 1353 217
2.2342339 -0.19225864 0.50515199 40 51742976 215 7 1297 215
2.2005441 -0.21658899 0.49855891 284 51937536 1454 7 1403 1454
2.1948028 -0.24325286 0.49794081 525 52134912 2679 7 1342 2679
2.1799984 -0.26872945 0.49546841 529 52328448 2671 7 1351 2671
2.1639314 -0.29374778 0.49278998 521 52523520 2600 7 1379 2600
2.1504843 -0.31884354 0.49072966 482 52717824 2383 7 1405 2383
2.1464095 -0.34520927 0.49072966 546 52912640 2698 7 1465 2698
2.1400836 -0.37118822 0.49031758 575 53108480 2839 7 1366 2839
2.1315193 -0.39670554 0.48949346 529 53304576 2602 7 1464 2602
2.087142 -0.4150013 0.48104608 70 53500160 335 7 1330 335
2.075191 -0.43916309 0.47960386 55 53696768 262 7 1368 262
2.0658267 -0.46373779 0.4787797 68 53891328 322 7 1313 322
2.0723567 -0.49199441 0.48145816 502 54087168 2383 7 1461 2383
2.0433826 -0.51167947 0.47651336 71 54282240 333 7 1309 333
2.0360034 -0.5364669 0.4763073 56 54477056 263 7 1355 263
2.0273807 -0.56088918 0.47589526 55 54672640 258 7 1369 258
2.020345 -0.58572602 0.47589526 75 54867968 351 7 1339 351
1.9989595 -0.60621232 0.47280475 510 55064832 2327 7 1466 2327
1.9857728 -0.62892318 0.47156855 507 55260672 2301 7 1452 2301
1.9732599 -0.65170908 0.47053838 532 55456768 2404 7 1406 2404
1.9586369 -0.67364591 0.46909615 583 55650816 2615 7 1457 2615
1.9410096 -0.69433302 0.4670358 551 55847424 2450 7 1396 2450
2.3829863 0.11719467 0.47682649 400 49603328 2358 8 1225 2358
2.3547702 0.086860538 0.47134399 41 49795072 238 8 1060 238
2.3507442 0.057837244 0.47043025 34 49990656 196 8 1121 196
2.3483279 0.028949767 0.46988198 31 50185472 180 8 1050 180
2.310163 0.00013417531 0.46275473 369 50378752 2040 8 1174 2040
2.2972107 -0.028056851 0.46037897 428 50572800 2339 8 1191 2339
2.2966933 -0.056245048 0.46037897 213 50767360 1165 8 1104 1165
2.2879703 -0.084134415 0.45891696 242 50962176 1315 8 1161 1315
2.2484686 -0.11031941 0.45178971 481 51157504 2524 8 1229 2524
2.2351701 -0.13717853 0.4495967 516 51353600 2681 8 1138 2681
2.2235134 -0.16387285 0.44776919 471 51546624 2426 8 1099 2426
2.2105603 -0.19021739 0.44575894 71 51742976 363 8 1114 363
2.2041459 -0.21694414 0.44502795 146 51937536 743 8 1106 743
2.1964319 -0.24343371 0.44411421 568 52134912 2873 8 1182 2873
2.1747398 -0.26808032 0.44064194 408 52328448 2028 8 1187 2028
2.159596 -0.2931585 0.43844894 54 52523520 267 8 1111 267
2.1490283 -0.31862742 0.43716967 59 52717824 289 8 1142 289
2.1381619 -0.34388131 0.43589044 53 52912640 259 8 1096 259
2.1270003 -0.36891663 0.43461117 347 53108480 1674 8 1221 1674
2.1136141 -0.39336982 0.43296641 324 53304576 1552 8 1154 1552
2.1028423 -0.41812605 0.43186992 63 53500160 301 8 1106 301
2.0917821 -0.44267732 0.43077341 65 53696768 308 8 1181 308
2.062211 -0.46292546 0.42620465 314 53891328 1452 8 1212 1452
2.0401139 -0.48433349 0.42309791 496 54087168 2257 8 1256 2257
2.0302022 -0.50837636 0.42236692 524 54282240 2376 8 1252 2376
2.0171559 -0.53149706 0.42108765 531 54477056 2393 8 1243 2393
2.0029016 -0.55411208 0.41962564 471 54672640 2106 8 1244 2106
1.9959511 -0.57864904 0.41962564 545 54867968 2437 8 1210 2437
1.9886998 -0.60309881 0.41962564 576 55064832 2575 8 1256 2575
1.980212 -0.62716079 0.41944289 558 55260672 2493 8 1205 2493
1.9704996 -0.65079683 0.4190774 543 55456768 2421 8 1194 2421
1.9326162 -0.66469103 0.41322938 91 55650816 395 8 1058 395
1.9187599 -0.68636924 0.41213289 65 55847424 280 8 1134 280
1.9304661 -0.71740204 0.4161534 383 56043264 1683 8 1150 1683
1.9132619 -0.73785239 0.41450864 579 56239872 2522 8 1171 2522
1.9031504 -0.76091033 0.41432589 621 56434688 2701 8 1171 2701
1.8773205 -0.77743351 0.41103637 251 56630272 1077 8 1338 1077
2.3746779 0.14559965 0.41690397 460 49408256 2677 9 1344 2677
2.3664248 0.1159661 0.41531378 463 49603328 2668 9 1232 2668
2.3558302 0.086484991 0.41340554 428 49795072 2446 9 1338 2446
2.3369746 0.057089835 0.41022515 340 49990656 1913 9 1289 1913
2.3296015 0.028312583 0.40895301 329 50185472 1833 9 1278 1833
2.3050916 -0.00027034371 0.4049775 504 50378752 2753 9 1303 2753
2.3029404 -0.028532553 0.40465948 551 50572800 3005 9 1307 3005
2.2441854 -0.055345003 0.39527729 88 50767360 455 9 1227 455
2.234458 -0.082550876 0.39384612 44 50962176 226 9 1229 226
2.2322907 -0.10991617 0.3936871 71 51157504 364 9 1250 364
2.2189488 -0.13657169 0.39177889 140 51353600 711 9 1228 711
2.2111983 -0.16335389 0.39082476 63 51546624 318 9 1216 318
2.1991911 -0.18962654 0.38923454 70 51742976 350 9 1210 350
2.1908035 -0.21601743 0.38828045 53 51937536 264 9 1179 264
2.1595321 -0.23972185 0.38366887 520 52134912 2524 9 1373 2524
2.149569 -0.26535666 0.38255572 579 52328448 2793 9 1307 2793
2.1373465 -0.29051688 0.38112456 538 52523520 2573 9 1311 2573
2.1238551 -0.31527215 0.37953436 102 52717824 483 9 1212 483
2.1110539 -0.33989736 0.37810317 560 52912640 2631 9 1384 2631
2.103806 -0.36527047 0.37762612 562 53108480 2633 9 1413 2633
2.0952828 -0.39033595 0.37699005 522 53304576 2438 9 1358 2438
2.086462 -0.41524738 0.37635395 575 53500160 2676 9 1389 2676
2.0628588 -0.43692994 0.37333259 86 53696768 393 9 1234 393
2.0467463 -0.45982906 0.37158337 160 53891328 723 9 1201 723
2.0447912 -0.4858247 0.37221944 595 54087168 2702 9 1298 2702
2.0377178 -0.51064068 0.37206042 661 54282240 2997 9 1349 2997
1.9940687 -0.52578437 0.36585867 90 54477056 393 9 1264 393
1.9874663 -0.55021507 0.36585867 68 54672640 297 9 1195 297
1.9758241 -0.5731867 0.36506358 70 54867968 304 9 1231 304
1.9629734 -0.59566873 0.36410946 76 55064832 329 9 1191 329
1.9602212 -0.62120473 0.36490455 436 55260672 1893 9 1267 1893
1.932766 -0.63870382 0.36156514 90 55456768 383 9 1197 383
1.9191816 -0.66044515 0.36061102 83 55650816 351 9 1213 351
1.908144 -0.68294811 0.36013395 86 55847424 362 9 1275 362
1.9107233 -0.7104435 0.36204219 291 56043264 1242 9 1203 1242
1.895414 -0.73134851 0.36092904 671 56239872 2843 9 1218 2843
1.8844634 -0.75381941 0.36061102 634 56434688 2684 9 1323 2684
1.872335 -0.77575368 0.36013395 716 56630272 3018 9 1226 3018
1.859045 -0.79711473 0.35949787 687 56825600 2885 9 1277 2885
1.8473183 -0.81906736 0.35917982 744 57022464 3121 9 1388 3121
1.8425128 -0.84414345 0.36013395 479 57216512 2024 9 1307 2024
2.378206 0.17513332 0.36028877 55 49213440 319 10 1242 319
2.3613865 0.14478686 0.35771346 35 49408256 204 10 1323 204
2.3619959 0.11574978 0.35757792 244 49603328 1395 10 1352 1395
2.3444264 0.086068198 0.35500261 138 49795072 774 10 1232 774
2.3274775 0.056859393 0.35256284 53 49990656 293 10 1256 293
2.3210649 0.028210239 0.35161406 59 50185472 328 10 1320 328
2.2806149 -0.00026340171 0.34605679 284 50378752 1505 10 1284 1505
2.2853932 -0.02831223 0.34673452 589 50572800 3140 10 1287 3140
2.2333696 -0.055076417 0.3396863 217 50767360 1103 10 1275 1103
2.2562876 -0.083361112 0.34293932 49 50962176 255 10 1235 255
2.2174914 -0.10918492 0.3377887 564 51157504 2839 10 1330 2839
2.2060957 -0.13577838 0.33643326 560 51353600 2792 10 1392 2792
2.2022872 -0.16269401 0.33616218 627 51546624 3119 10 1337 3119
2.1695249 -0.18706337 0.33196035 395 51742976 1913 10 1356 1913
2.1670661 -0.21367268 0.33196035 301 51937536 1455 10 1230 1455
2.1554184 -0.23926447 0.33074048 582 52134912 2793 10 1408 2793
2.1483867 -0.26521051 0.33019832 637 52328448 3046 10 1362 3046
2.1233728 -0.28861499 0.32721636 283 52523520 1329 10 1302 1329
2.113791 -0.31377637 0.32640311 70 52717824 330 10 1312 330
2.1009779 -0.3382732 0.32518324 73 52912640 337 10 1265 337
2.0839789 -0.36182436 0.32342118 71 53108480 324 10 1240 324
2.0832777 -0.38809723 0.32396334 241 53304576 1108 10 1296 1108
2.0521231 -0.40840676 0.32030371 80 53500160 357 10 1246 357
2.0401721 -0.43212041 0.31935489 76 53696768 341 10 1308 341
2.0308492 -0.45625451 0.31881273 77 53891328 340 10 1216 340
2.0144944 -0.47862059 0.31732175 346 54087168 1515 10 1379 1515
1.9998202 -0.50113642 0.31610188 694 54282240 3009 10 1374 3009
1.9925619 -0.52538675 0.31596634 715 54477056 3095 10 1271 3095
1.974507 -0.54662472 0.31433982 94 54672640 402 10 1277 402
1.9543295 -0.56694674 0.31244221 243 54867968 1025 10 1248 1025
1.9500691 -0.59175032 0.31284884 811 55064832 3433 10 1265 3433
1.9398273 -0.61473763 0.31244221 778 55260672 3286 10 1410 3286
1.9302561 -0.63787389 0.31217113 791 55456768 3334 10 1363 3334
1.9204094 -0.66086793 0.31190005 762 55650816 3204 10 1274 3204
1.8907015 -0.67670149 0.30878258 148 55847424 608 10 1259 608
1.8906124 -0.70296156 0.31000245 688 56043264 2856 10 1353 2856
1.8781464 -0.72468203 0.30946028 764 56239872 3160 10 1330 3160
1.8672724 -0.74693888 0.3091892 724 56434688 2988 10 1312 2988
1.836915 -0.76107049 0.30607173 513 56630272 2072 10 1303 2072
1.8256161 -0.78277373 0.30580062 107 56825600 434 10 1286 434
1.8131559 -0.80391264 0.30539399 82 57022464 328 10 1278 328
1.8013527 -0.82527661 0.30512291 82 57216512 328 10 1198 328
1.8081048 -0.85537326 0.30769822 713 57412096 2910 10 1298 2910
1.8001426 -0.87880152 0.30810484 798 57607424 3269 10 1334 3269
1.7883379 -0.90038019 0.3079693 783 57803776 3202 10 1353 3202
2.3863978 0.23474157 0.30297688 462 48823296 2693 11 1083 2693
2.3752367 0.20424935 0.30141872 325 49018112 1873 11 1046 1873
2.3726087 0.17472203 0.30086225 61 49213440 353 11 1017 353
2.3249774 0.14256039 0.29529747 139 49408256 766 11 1046 766
2.3186109 0.11363076 0.29440713 472 49603328 2579 11 1108 2579
2.304934 0.084624819 0.29273769 501 49795072 2704 11 988 2704
2.2948704 0.056068189 0.29151344 526 49990656 2810 11 1097 2810
2.2784925 0.027699847 0.28962141 492 50185472 2591 11 991 2591
2.2677293 -0.00025974715 0.28839716 584 50378752 3045 11 1099 3045
2.2645741 -0.028050821 0.28806329 593 50572800 3082 11 1070 3082
2.2501507 -0.055493131 0.28650513 349 50767360 1794 11 1032 1794
2.1887209 -0.080853291 0.2797161 44 50962176 216 11 1030 216
2.1915343 -0.10790235 0.28016129 76 51157504 374 11 983 374
2.1652477 -0.1332572 0.27737892 456 51353600 2175 11 1064 2175
2.1743512 -0.16062535 0.27860317 117 51546624 567 11 958 567
2.1652856 -0.18669708 0.2778241 49 51742976 237 11 1014 237
2.1578865 -0.21276596 0.27726761 57 51937536 274 11 1004 274
2.1472116 -0.23835199 0.27637726 67 52134912 319 11 996 319
2.1214404 -0.26187924 0.27381745 575 52328448 2663 11 1169 2663
2.1082201 -0.28655261 0.27270451 372 52523520 1708 11 1075 1708
2.0996299 -0.31167164 0.27214801 87 52717824 399 11 1024 399
2.0917225 -0.33678129 0.27170283 84 52912640 384 11 1025 384
2.0707874 -0.35953155 0.26981083 583 53108480 2610 11 1138 2610
2.0623116 -0.38418752 0.26936564 664 53304576 2963 11 1088 2963
2.0525687 -0.40849555 0.26880917 640 53500160 2841 11 1126 2841
2.040596 -0.43221027 0.26803008 632 53696768 2788 11 1063 2788
1.9944161 -0.44806233 0.26335567 510 53891328 2162 11 1041 2162
2.0013363 -0.47549182 0.26480252 675 54087168 2895 11 1084 2895
1.9924588 -0.49929026 0.26446864 692 54282240 2960 11 1075 2960
1.9861817 -0.52370322 0.26446864 729 54477056 3118 11 1117 3118
1.9872673 -0.55015987 0.26535898 193 54672640 834 11 1031 834
1.9288294 -0.55954403 0.25934905 99 54867968 407 11 999 407
1.9218178 -0.58317161 0.25934905 86 55064832 354 11 965 354
1.9277788 -0.61091691 0.26090717 674 55260672 2794 11 1014 2794
1.9163626 -0.63327974 0.26046199 521 55456768 2152 11 1039 2152
1.8943524 -0.65189546 0.25879255 80 55650816 328 11 956 328
1.8852744 -0.6747579 0.25868127 86 55847424 352 11 995 352
1.8740579 -0.69680274 0.25834739 68 56043264 278 11 942 278
1.8598033 -0.71760035 0.25767961 71 56239872 288 11 1013 288
1.8425535 -0.73704553 0.25667796 682 56434688 2722 11 1043 2722
1.8480586 -0.76569003 0.25845867 250 56630272 1016 11 988 1016
1.8239106 -0.78204203 0.25667796 70 56825600 281 11 1027 281
1.8141764 -0.80436534 0.25667796 83 57022464 333 11 977 333
1.8231405 -0.83526361 0.25901514 261 57216512 1065 11 990 1065
1.7902969 -0.84694457 0.25623277 723 57412096 2874 11 1106 2874
1.7806617 -0.86928666 0.25634405 756 57607424 3008 11 1086 3008
1.7698601 -0.89107269 0.25634405 746 57803776 2968 11 1083 2968
1.764084 -0.91547203 0.25701183 811 57996032 3246 11 1102 3246
1.7474591 -0.93423885 0.25634405 719 58191616 2860 11 1091 2860
1.7332515 -0.95417422 0.25601017 370 58388992 1468 11 1053 1468
2.389149 0.26465148 0.24510923 464 48627200 2709 12 1723 2709
2.376354 0.23375522 0.24371473 441 48823296 2540 12 1713 2540
2.3701108 0.20380938 0.24293032 499 49018112 2851 12 1794 2851
2.3555434 0.17346808 0.24144869 182 49213440 1023 12 1660 1023
2.3236873 0.14248151 0.23848538 60 49408256 329 12 1574 329
2.3053608 0.11298358 0.23674227 414 49603328 2223 12 1647 2223
2.282681 0.083811514 0.23465054 355 49795072 1868 12 1618 1868
2.2895129 0.055938188 0.23517346 67 49990656 355 12 1618 355
2.2830541 0.027754534 0.23456338 75 50185472 395 12 1565 395
2.2712684 -0.00026075091 0.23351751 69 50378752 360 12 1608 360
2.2272651 -0.027582366 0.22968265 566 50572800 2831 12 1649 2831
2.2377136 -0.05518429 0.23064137 121 50767360 612 12 1629 612
2.2169578 -0.081901334 0.22889826 56 50962176 279 12 1554 279
2.1958861 -0.10811739 0.22715513 196 51157504 956 12 1630 956
2.1764967 -0.1339515 0.22558634 548 51353600 2627 12 1684 2627
2.1707151 -0.1603561 0.22523771 548 51546624 2617 12 1635 2617
2.1606438 -0.18629603 0.22454047 540 51742976 2565 12 1717 2565
2.1482813 -0.21181718 0.22366892 348 51937536 1640 12 1728 1640
2.1276984 -0.23618244 0.22210011 567 52134912 2624 12 1785 2624
2.1187079 -0.26154143 0.22157717 579 52328448 2665 12 1750 2665
2.1064551 -0.2863124 0.22079277 626 52523520 2857 12 1768 2857
2.0643535 -0.30642867 0.2173937 313 52717824 1375 12 1627 1375
2.0614212 -0.33189693 0.21748085 79 52912640 348 12 1582 348
2.0503228 -0.35597461 0.21687077 290 53108480 1267 12 1623 1267
2.0604897 -0.38384774 0.21817809 690 53304576 3055 12 1686 3055
2.0155673 -0.4011246 0.21460472 401 53500160 1708 12 1665 1708
2.0143912 -0.42665491 0.21495333 94 53696768 402 12 1642 402
2.0041442 -0.45024973 0.21451756 98 53891328 417 12 1639 417
1.9897455 -0.47273567 0.21373315 66 54087168 279 12 1633 279
1.9741317 -0.49469402 0.2128616 177 54282240 740 12 1531 740
1.9640595 -0.51786572 0.21251297 325 54477056 1353 12 1549 1353
1.9460362 -0.53873712 0.2114671 88 54672640 363 12 1582 363
1.9354517 -0.56146652 0.21111849 66 54867968 270 12 1670 270
1.9150709 -0.58112288 0.20989831 101 55064832 409 12 1593 409
1.9020979 -0.60277325 0.20937537 783 55260672 3144 12 1662 3144
1.8917202 -0.62513125 0.2091139 832 55456768 3330 12 1641 3330
1.8801388 -0.64700115 0.20876528 815 55650816 3251 12 1749 3251
1.8711196 -0.66968876 0.20867813 316 55847424 1258 12 1655 1258
1.864628 -0.69329453 0.20885244 264 56043264 1054 12 1648 1054
1.8420397 -0.71074235 0.2075451 690 56239872 2712 12 1663 2712
1.8350289 -0.73403382 0.20771942 742 56434688 2921 12 1674 2921
1.8231221 -0.75535274 0.20745794 764 56630272 3002 12 1756 3002
1.810969 -0.77649009 0.20719647 728 56825600 2854 12 1744 2854
1.7903765 -0.79380751 0.20615061 185 57022464 715 12 1669 715
1.7805005 -0.81571841 0.20615061 413 57216512 1597 12 1619 1597
1.7775598 -0.84091598 0.20684785 814 57412096 3176 12 1755 3176
1.7671065 -0.86266601 0.20684785 762 57607424 2970 12 1697 2970
1.757277 -0.88473433 0.206935 798 57803776 3113 12 1678 3113
1.7462876 -0.90623218 0.206935 772 57996032 3011 12 1707 3011
1.769294 -0.94591784 0.21033408 60 58191616 244 12 1625 244
2.419363 0.26799348 0.18833362 411 48627200 2447 13 1165 2447
2.363868 0.23252901 0.18462896 514 48823296 2915 13 1144 2915
2.3327348 0.20060144 0.18249409 341 49018112 1881 13 1055 1881
2.3439789 0.17261833 0.1830592 74 49213440 414 13 969 414
2.3429322 0.14365835 0.18287084 76 49408256 425 13 901 425
2.2797241 0.11173142 0.17878945 536 49603328 2808 13 1019 2808
2.2779317 0.083637938 0.17860109 587 49795072 3067 13 975 3067
2.2688091 0.055435814 0.17797318 614 49990656 3179 13 1006 3179
2.2274044 0.027087362 0.17533597 328 50185472 1639 13 969 1639
2.2315612 -0.00024948933 0.17558713 653 50378752 3267 13 1058 3267
2.2194147 -0.027483795 0.17483366 593 50572800 2937 13 1077 2937
2.2099309 -0.054494377 0.17426853 623 50767360 3060 13 1137 3060
2.1791756 -0.080499001 0.17238481 136 50962176 652 13 1003 652
2.1730397 -0.10698851 0.17207086 107 51157504 512 13 975 512
2.1576173 -0.13278624 0.1711918 532 51353600 2497 13 1150 2497
2.1458724 -0.15851651 0.17056389 501 51546624 2331 13 1135 2331
2.123879 -0.18311952 0.16930808 82 51742976 377 13 967 377
2.1135263 -0.20838416 0.16880576 70 51937536 320 13 943 320
2.1058505 -0.23375325 0.16849181 85 52134912 386 13 1018 386
2.0948994 -0.25859809 0.16798948 86 52328448 388 13 967 388
2.0826681 -0.28307489 0.16742437 77 52523520 344 13 994 344
2.0691657 -0.3071439 0.16679646 81 52717824 358 13 1027 358
2.0612996 -0.33187732 0.1665453 82 52912640 362 13 929 362
2.0551052 -0.35680583 0.16641971 92 53108480 405 13 957 405
2.0201573 -0.37632662 0.16447321 735 53304576 3117 13 1100 3117
2.010493 -0.40011379 0.16415925 751 53500160 3172 13 1072 3172
2.0025027 -0.42413458 0.16397089 478 53696768 2014 13 980 2014
2.0010421 -0.44955221 0.16422205 95 53891328 404 13 1012 404
1.9808103 -0.47061107 0.16328019 597 54087168 2487 13 1035 2487
1.955525 -0.4900277 0.16202438 772 54282240 3154 13 1015 3154
1.9493644 -0.51398814 0.16202438 791 54477056 3230 13 1021 3230
1.9409866 -0.5373382 0.16189881 780 54672640 3180 13 1056 3180
1.9265789 -0.5588907 0.16139647 630 54867968 2549 13 1094 2549
1.9128906 -0.58046079 0.16095695 522 55064832 2097 13 1062 2097
1.8951586 -0.60057271 0.16026625 907 55260672 3601 13 1148 3601
1.8848033 -0.62284404 0.16007787 830 55456768 3285 13 1127 3285
1.8789054 -0.64657646 0.16020346 840 55650816 3333 13 1052 3333
1.8811649 -0.6732862 0.16089416 208 55847424 836 13 1018 836
1.8409578 -0.68448842 0.15875928 78 56043264 305 13 960 305
1.8305573 -0.70630938 0.15863369 75 56239872 292 13 1040 292
1.8115597 -0.72464061 0.157943 398 56434688 1524 13 991 1524
1.8025309 -0.74681669 0.157943 670 56630272 2563 13 1077 2563
1.7941477 -0.76927376 0.15800579 91 56825600 350 13 1027 350
1.7836602 -0.79082811 0.157943 98 57022464 377 13 969 377
1.7747284 -0.81307262 0.15800579 74 57216512 286 13 969 286
1.7646172 -0.83479005 0.15800579 83 57412096 320 13 911 320
1.7533433 -0.8559438 0.157943 473 57607424 1810 13 1052 1810
1.7427076 -0.87739557 0.157943 543 57803776 2078 13 1099 2078
2.3040502 0.17009148 0.12352492 563 49213440 3012 14 1511 3012
2.2929978 0.14100926 0.12303041 553 49408256 2926 14 1555 2926
2.2835767 0.11232187 0.12261198 555 49603328 2909 14 1437 2909
2.2777929 0.084033713 0.12234571 563 49795072 2933 14 1456 2933
2.2466853 0.055294096 0.12112846 115 49990656 585 14 1369 585
2.2172186 0.027355038 0.11998729 67 50185472 334 14 1363 334
2.2123909 0.0001448406 0.1197971 73 50378752 362 14 1362 362
2.2032332 -0.026893266 0.11945475 177 50572800 864 14 1411 864
2.1827579 -0.053435653 0.11869397 60 50767360 289 14 1408 289
2.166959 -0.079664089 0.11812338 60 50962176 286 14 1345 286
2.1588316 -0.10590602 0.11785711 57 51157504 269 14 1416 269
2.1483929 -0.13183777 0.11751476 301 51353600 1400 14 1456 1400
2.1286752 -0.15686676 0.11683006 514 51546624 2349 14 1489 2349
2.1226077 -0.1826337 0.1166779 318 51742976 1448 14 1453 1448
2.1112566 -0.20778511 0.11633555 79 51937536 359 14 1420 359
2.0618684 -0.22849604 0.11454771 404 52134912 1744 14 1498 1744
2.0737855 -0.25561759 0.1151183 650 52328448 2844 14 1509 2844
2.0586104 -0.27943179 0.11466184 751 52523520 3250 14 1537 3250
2.0500841 -0.3039394 0.11447164 746 52717824 3213 14 1454 3213
2.0333745 -0.32700914 0.11397713 498 52912640 2117 14 1464 2117
2.0203476 -0.35039866 0.11363478 740 53108480 3120 14 1522 3120
2.0080366 -0.37370092 0.11333047 774 53304576 3237 14 1467 3237
2.0003593 -0.39772931 0.11321635 766 53500160 3194 14 1477 3194
1.9923952 -0.42162564 0.11310223 672 53696768 2795 14 1414 2795
1.9617219 -0.44034839 0.11211322 83 53891328 339 14 1377 339
1.954226 -0.46392658 0.11203714 86 54087168 350 14 1397 350
1.9348155 -0.48447224 0.1115046 340 54282240 1357 14 1468 1357
1.9403197 -0.51123637 0.11196107 744 54477056 3003 14 1449 3003
1.9098237 -0.52834296 0.11101009 190 54672640 750 14 1377 750
1.9089545 -0.55341017 0.11123832 98 54867968 391 14 1377 391
1.8981947 -0.57563365 0.11108617 76 55064832 301 14 1464 301
1.8843198 -0.59677082 0.11081989 79 55260672 312 14 1368 312
1.8616737 -0.61483246 0.11021127 212 55456768 819 14 1374 819
1.8483192 -0.63568068 0.10998303 429 55650816 1644 14 1512 1644
1.8460243 -0.660335 0.11021127 89 55847424 345 14 1427 345
1.8312255 -0.68050098 0.109945 79 56043264 304 14 1405 304
1.8190078 -0.70148277 0.10979284 75 56239872 288 14 1422 288
1.8149015 -0.72560769 0.10998303 526 56434688 2014 14 1460 2014
1.797552 -0.74438214 0.10964069 740 56630272 2806 14 1543 2806
1.7864451 -0.76559716 0.10956461 713 56825600 2699 14 1601 2699
1.7750885 -0.78665185 0.10948853 524 57022464 1980 14 1489 1980
1.7634845 -0.80754328 0.10941245 93 57216512 353 14 1399 353
1.7480222 -0.82655907 0.10918422 659 57412096 2470 14 1575 2470
1.7664826 -0.86197644 0.11040147 153 57607424 595 14 1373 595
2.2520661 0.1107773 0.067053258 481 49603328 2448 15 1238 2448
2.2442627 0.082802385 0.066929169 574 49795072 2898 15 1211 2898
2.2091241 0.054376118 0.066432811 315 49990656 1539 15 1222 1539
2.2656155 0.027943708 0.067204922 55 50185472 282 15 1255 282
2.1937947 0.00014686913 0.066212207 557 50378752 2683 15 1183 2683
2.1836331 -0.026650583 0.066074334 598 50572800 2854 15 1257 2854
2.1731455 -0.053198632 0.065936454 594 50767360 2807 15 1262 2807
2.1533439 -0.079161122 0.065674491 507 50962176 2355 15 1280 2355
2.1342337 -0.10469491 0.065426312 506 51157504 2315 15 1302 2315
2.1277983 -0.13057023 0.065357372 586 51353600 2665 15 1279 2665
2.1210496 -0.15630344 0.065288432 586 51546624 2652 15 1269 2652
2.1129947 -0.18180482 0.065205708 550 51742976 2476 15 1249 2476
2.0588605 -0.20261878 0.064488746 74 51937536 318 15 1140 318
2.0472748 -0.22687602 0.064364657 90 52134912 382 15 1199 382
2.0621991 -0.25418729 0.064612836 623 52328448 2690 15 1255 2690
2.0609062 -0.27974385 0.06464041 671 52523520 2904 15 1249 2904
2.011821 -0.29825935 0.06400618 123 52717824 510 15 1170 510
2.0089967 -0.323084 0.064019971 87 52912640 361 15 1167 361
2.0019252 -0.34719998 0.063978605 91 53108480 377 15 1116 377
1.9896499 -0.3702755 0.063868307 95 53304576 390 15 1166 390
1.9790721 -0.39349261 0.063785575 463 53500160 1886 15 1166 1886
1.962356 -0.41526285 0.063620128 74 53696768 299 15 1165 299
1.9522344 -0.43821678 0.063551188 89 53891328 357 15 1137 357
1.9476826 -0.46237186 0.063564979 96 54087168 385 15 1192 385
1.9331326 -0.48405051 0.063440889 224 54282240 890 15 1182 890
1.9125443 -0.50391239 0.063234068 742 54477056 2904 15 1245 2904
1.9013982 -0.52601033 0.063165136 782 54672640 3045 15 1198 3045
1.8803954 -0.54512483 0.062958315 452 54867968 1733 15 1238 1733
1.9099233 -0.57919288 0.063482247 85 55064832 340 15 1142 340
1.8702637 -0.59231621 0.063013472 614 55260672 2368 15 1298 2368
1.8552591 -0.61271256 0.062903166 804 55456768 3071 15 1227 3071
1.8457094 -0.63478255 0.062875591 757 55650816 2884 15 1265 2884
1.8349565 -0.65637356 0.062834233 730 55847424 2775 15 1276 2775
1.8220775 -0.67709947 0.062765293 745 56043264 2817 15 1250 2817
1.8043027 -0.69580853 0.062627412 365 56239872 1367 15 1211 1367
1.7956282 -0.71789771 0.062627412 699 56434688 2618 15 1334 2618
1.7820644 -0.73796505 0.06255848 752 56630272 2803 15 1334 2803
1.7728744 -0.75977814 0.06255848 707 56825600 2635 15 1327 2635
1.7625031 -0.78107148 0.062544689 726 57022464 2704 15 1334 2704
1.7555126 -0.80389076 0.062586054 611 57216512 2280 15 1253 2280
2.2091873 0.05476623 0.011671128 204 49990656 1000 16 956 1000
2.187696 0.027380586 0.011916865 552 50185472 2647 16 958 2647
2.1798677 0.00053160486 0.012006224 579 50378752 2757 16 992 2757
2.1747108 -0.026157739 0.012062073 570 50572800 2701 16 1029 2701
2.1622305 -0.052549127 0.012196111 280 50767360 1314 16 972 1314
2.1384397 -0.078234054 0.012453019 82 50962176 375 16 854 375
2.1263325 -0.10393111 0.012575887 64 51157504 290 16 842 290
2.1209049 -0.12977165 0.012620566 67 51353600 306 16 911 306
2.1041942 -0.15468623 0.012788115 273 51546624 1219 16 963 1219
2.0881898 -0.17929611 0.012944493 86 51742976 382 16 862 382
2.0728958 -0.2036346 0.013089702 85 51937536 372 16 928 372
2.0642776 -0.228396 0.01315672 68 52134912 297 16 895 297
2.0325391 -0.25016284 0.013480647 337 52328448 1418 16 919 1418
2.0273345 -0.27481738 0.013502987 681 52523520 2855 16 997 2855
2.0198529 -0.29908857 0.013547666 723 52717824 3020 16 981 3020
2.0091197 -0.32274127 0.013625856 78 52912640 326 16 980 326
1.9882591 -0.34446689 0.013815744 163 53108480 667 16 896 667
1.9691364 -0.36609548 0.013983292 759 53304576 3048 16 983 3048
1.9615533 -0.38964722 0.014016801 781 53500160 3127 16 984 3127
1.9497762 -0.41223991 0.014094991 739 53696768 2939 16 1019 2939
1.9377409 -0.43460244 0.01417318 732 53891328 2892 16 977 2892
1.9283702 -0.45742485 0.014217859 453 54087168 1782 16 963 1782
1.9138818 -0.47886837 0.014318388 682 54282240 2659 16 1038 2659
1.9039935 -0.50129944 0.014363067 724 54477056 2810 16 1028 2810
1.8948072 -0.52382672 0.014396577 719 54672640 2782 16 1002 2782
1.8853552 -0.54620415 0.014430086 641 54867968 2473 16 1029 2473
1.8651139 -0.56523639 0.014586465 104 55064832 398 16 890 398
1.8561306 -0.5874778 0.014608804 78 55260672 299 16 858 299
1.8449836 -0.60895675 0.014653484 415 55456768 1571 16 961 1571
1.826025 -0.62764895 0.014787522 769 55650816 2872 16 1012 2872
1.8247758 -0.65236747 0.014709334 390 55847424 1468 16 942 1468
1.8128837 -0.67331779 0.014754013 77 56043264 291 16 906 291
1.7979538 -0.69299531 0.014832202 72 56239872 267 16 826 267
1.7902428 -0.71537799 0.014821032 95 56434688 356 16 932 356
1.7794815 -0.73652798 0.014843372 77 56630272 285 16 852 285
1.7556039 -0.75200695 0.01502209 564 56825600 2061 16 1083 2061
1.7572136 -0.77835619 0.014888051 284 57022464 1051 16 1087 1051
2.1454608 -0.026177952 -0.040056255 530 50572800 2447 17 1062 2447
2.1399827 -0.052380912 -0.039877396 515 50767360 2367 17 987 2367
2.1271946 -0.07819514 -0.039448138 212 50962176 966 17 903 966
2.1111026 -0.10355602 -0.038911562 65 51157504 294 17 913 294
2.088726 -0.12816551 -0.038160358 583 51353600 2560 17 1021 2560
2.0850027 -0.15364048 -0.038088813 598 51546624 2621 17 918 2621
2.0769863 -0.1787 -0.037874185 629 51742976 2740 17 974 2740
2.0428116 -0.20103635 -0.036729492 742 51937536 3135 17 953 3135
2.056083 -0.22785382 -0.037301838 554 52134912 2378 17 936 2378
2.0223854 -0.2492723 -0.03619292 687 52328448 2861 17 915 2861
2.0132325 -0.27326369 -0.035978291 703 52523520 2910 17 961 2910
2.006762 -0.29750836 -0.035870977 705 52717824 2910 17 1002 2910
1.9644806 -0.3159163 -0.034475882 280 52912640 1112 17 982 1112
1.9673483 -0.34119642 -0.034726284 95 53108480 379 17 855 379
1.9571184 -0.36421496 -0.034511652 241 53304576 960 17 924 960
1.9632831 -0.39035016 -0.034905143 727 53500160 2919 17 956 2919
1.9573674 -0.41420621 -0.034869369 629 53696768 2524 17 1013 2524
1.9228854 -0.43162289 -0.033796221 84 53891328 330 17 872 330
1.9145271 -0.45449412 -0.033688907 79 54087168 310 17 862 310
1.9049281 -0.47698236 -0.033545818 78 54282240 304 17 906 304
1.8940997 -0.4990488 -0.033366963 70 54477056 269 17 817 269
1.8859067 -0.52172142 -0.033295419 191 54672640 736 17 926 736
1.8716841 -0.54259759 -0.033009246 68 54867968 261 17 936 261
1.8601031 -0.56407416 -0.032830387 87 55064832 332 17 898 332
1.855899 -0.58776373 -0.032937702 94 55260672 360 17 894 360
1.8428532 -0.60861272 -0.032723073 70 55456768 267 17 917 267
1.8172915 -0.62500262 -0.032043412 660 55650816 2443 17 1069 2443
1.807603 -0.64658296 -0.031971868 661 55847424 2442 17 1032 2442
1.7920388 -0.66592997 -0.031685695 314 56043264 1152 17 938 1152
1.7949201 -0.69218808 -0.032114957 90 56239872 336 17 910 336
1.7742285 -0.70933706 -0.031649925 143 56434688 525 17 951 525
1.7700064 -0.73296887 -0.031828783 637 56630272 2343 17 1071 2343
2.1097405 -0.077550359 -0.08977849 243 50962176 1090 18 1363 1090
2.0856993 -0.10230526 -0.088398412 488 51157504 2136 18 1243 2136
2.0793052 -0.12758569 -0.088098399 527 51353600 2297 18 1186 2297
2.07161 -0.15265112 -0.08773838 543 51546624 2354 18 1126 2354
2.0566523 -0.1769467 -0.086958334 362 51742976 1549 18 1174 1549
2.0235312 -0.19913526 -0.085098229 79 51937536 329 18 1104 329
2.0129983 -0.22307104 -0.084618203 60 52134912 249 18 1089 249
2.0041652 -0.24702305 -0.084258184 69 52328448 284 18 1095 284
2.0049393 -0.27213642 -0.084498197 127 52523520 523 18 1099 523
1.9777517 -0.29320183 -0.083058119 77 52717824 311 18 1079 311
1.9690772 -0.31665641 -0.082758106 60 52912640 241 18 1110 241
1.9532413 -0.33874705 -0.082038067 78 53108480 309 18 1111 309
1.9440308 -0.36177674 -0.081738047 88 53304576 346 18 1145 346
1.9218229 -0.38209853 -0.080657989 514 53500160 1983 18 1172 1983
1.9130831 -0.4048261 -0.080417976 614 53696768 2357 18 1219 2357
1.9069973 -0.42805326 -0.080357976 342 53891328 1313 18 1141 1313
1.9006296 -0.45119208 -0.080297969 72 54087168 277 18 1096 277
1.8891401 -0.47302586 -0.07993795 90 54282240 344 18 1129 344
1.8783672 -0.49490035 -0.079637937 578 54477056 2190 18 1256 2190
1.8663805 -0.51631552 -0.079277918 568 54672640 2139 18 1189 2139
1.8560692 -0.53806752 -0.079037905 639 54867968 2395 18 1278 2395
1.8435955 -0.55906463 -0.078677885 599 55064832 2233 18 1250 2233
1.8299352 -0.57953531 -0.078257859 451 55260672 1669 18 1179 1669
1.81226 -0.5985024 -0.077597827 626 55456768 2292 18 1285 2292
1.8019474 -0.61972207 -0.077417813 556 55650816 2029 18 1325 2029
1.7913873 -0.6407789 -0.077237807 585 55847424 2127 18 1231 2127
1.7815179 -0.66201794 -0.077117801 595 56043264 2161 18 1311 2161
1.7723285 -0.68347073 -0.077057794 584 56239872 2116 18 1276 2116
1.7712221 -0.70813441 -0.07753782 387 56434688 1416 18 1361 1416
2.0341346 -0.14988266 -0.13519897 486 51546624 2039 19 1001 2039
2.0281713 -0.17449094 -0.13486147 531 51742976 2220 19 987 2220
2.0219107 -0.19897547 -0.13452397 236 51937536 984 19 950 984
2.02823 -0.22476189 -0.13528334 61 52134912 258 19 990 258
1.9897177 -0.24523951 -0.13224588 395 52328448 1601 19 1006 1601
1.9826089 -0.26910111 -0.13190839 600 52523520 2422 19 1028 2422
1.9702867 -0.29209366 -0.13114902 538 52717824 2152 19 1037 2152
1.9655701 -0.31609172 -0.13106465 552 52912640 2207 19 1052 2207
1.954671 -0.33899528 -0.13047405 467 53108480 1853 19 1005 1853
1.9386089 -0.36076665 -0.12946156 573 53304576 2246 19 1020 2246
1.9252403 -0.38277867 -0.12870219 567 53500160 2202 19 1061 2202
1.9145492 -0.40513664 -0.12819596 598 53696768 2309 19 1019 2309
1.9026279 -0.42707163 -0.12760535 560 53891328 2148 19 959 2148
1.8759161 -0.44532016 -0.12574913 249 54087168 934 19 1066 934
1.8799756 -0.4707292 -0.12659286 52 54282240 200 19 920 200
1.8538239 -0.48842862 -0.12482101 414 54477056 1534 19 1081 1534
1.8457699 -0.51060939 -0.12465227 486 54672640 1798 19 1083 1798
1.8422359 -0.53405428 -0.12490539 542 54867968 2010 19 1036 2010
1.8336365 -0.55604243 -0.12473664 103 55064832 383 19 1003 383
1.8209757 -0.57669592 -0.12423041 57 55260672 212 19 963 212
1.8099772 -0.59774798 -0.12389291 59 55456768 219 19 942 219
1.8006213 -0.61926568 -0.12372416 67 55650816 247 19 914 247
1.7863193 -0.63896489 -0.12313355 404 55847424 1466 19 1072 1466
1.7690041 -0.6573649 -0.12228981 509 56043264 1828 19 1082 1828
1.9874432 -0.19522393 -0.18046699 347 51937536 1401 20 1184 1401
1.9848979 -0.2195982 -0.18046699 430 52134912 1737 20 1150 1737
1.9761339 -0.24320969 -0.17981483 473 52328448 1899 20 1118 1899
1.9680754 -0.26677299 -0.17927136 482 52523520 1927 20 1105 1927
1.9597368 -0.29017523 -0.1787279 497 52717824 1976 20 1176 1976
1.9344362 -0.31072962 -0.17633665 177 52912640 689 20 1087 689
1.9226419 -0.33308566 -0.17546709 69 53108480 267 20 1077 267
1.9174323 -0.35647243 -0.1753584 46 53304576 179 20 1064 179
1.9070635 -0.37881222 -0.17470624 51 53500160 196 20 1095 196
1.8954636 -0.40074557 -0.17394538 377 53696768 1433 20 1214 1433
1.8855535 -0.42288694 -0.17340192 59 53891328 225 20 1071 225
1.8773204 -0.44530487 -0.17307584 51 54087168 193 20 1098 193
1.8659286 -0.46686009 -0.17242368 46 54282240 173 20 1084 173
1.8485239 -0.48668322 -0.17111936 37 54477056 138 20 1063 138
1.8203764 -0.50323421 -0.16861941 170 54672640 615 20 1102 615
1.8197925 -0.52719599 -0.16927157 469 54867968 1705 20 1171 1705
1.8122346 -0.5491994 -0.16916287 73 55064832 266 20 1051 266
1.8015679 -0.57019633 -0.1687281 51 55260672 185 20 1094 185
1.7887716 -0.59039086 -0.16807595 50 55456768 181 20 1069 181
1.7757517 -0.61035746 -0.16742378 254 55650816 907 20 1150 907
1.7737439 -0.6341117 -0.16807595 360 55847424 1293 20 1256 1293
1.9303358 -0.28616306 -0.22315606 323 52717824 1253 21 1275 1253
1.9266787 -0.30982968 -0.22315606 95 52912640 369 21 1167 369
1.912025 -0.3801485 -0.22289051 127 53500160 495 21 1287 495
1.8810359 -0.398038 -0.21930557 253 53696768 955 21 1363 955
1.8750427 -0.42087397 -0.21917279 238 53891328 898 21 1357 898
1.8784155 -0.445914 -0.22036777 167 54087168 637 21 1345 637
1.8190837 -0.55162615 -0.21638452 110 55064832 405 21 1242 405
1.8040571 -0.59579152 -0.21625175 142 55456768 522 21 1217 522
