# .PCD v0.7 - Point Cloud Data file format
VERSION 0.7
FIELDS x y z intensity t reflectivity ring noise range
SIZE 4 4 4 4 4 2 2 2 4
TYPE F F F F U U U U U
COUNT 1 1 1 1 1 1 1 1 1
WIDTH 807
HEIGHT 1
VIEWPOINT 0 0 0 1 0 0 0
POINTS 807
DATA ascii
-0.20060338 1.1545947 0.052121215 141 22645504 194 15 1492 194
-0.18626089 1.1559823 0.052107427 133 22840832 183 15 1497 183
-0.29623869 1.9959472 0.063785575 243 23036672 991 15 1553 991
-0.27656361 2.0351019 0.064281933 1011 23229440 4266 15 1608 4266
-0.24985687 2.0244489 0.064088911 1157 23424256 4818 15 1650 4818
-0.22521517 2.0293503 0.064116485 1220 23619328 5088 15 1632 5088
-0.19941387 2.0230052 0.063992396 1396 23816192 5771 15 1633 5771
-0.17431642 2.0223114 0.06395103 1562 24012288 6443 15 1572 6443
-0.14926608 2.0213068 0.063909665 1346 24207104 5538 15 1739 5538
-0.11429009 1.8573133 0.061620913 786 24403200 2725 15 1869 2725
-0.10191661 2.0713003 0.064557686 1254 24601344 5399 15 1736 5399
-0.076894537 2.0833864 0.06470935 1231 24794624 5354 15 1676 5354
-0.048806112 1.9812138 0.063289225 626 24992256 2462 15 1597 2462
-0.025815479 2.0906451 0.064792082 1203 25189888 5263 15 1649 5263
-0.00017195585 1.9638165 0.063041046 499 25384192 1925 15 1671 1925
0.024521321 2.0116625 0.063702852 482 25579776 1954 15 1575 1954
0.049969755 2.0421977 0.064130269 566 25777408 2365 15 1556 2365
0.075322203 2.0494246 0.064240575 479 25973760 2018 15 1559 2018
0.10081033 2.055337 0.064337082 406 26170368 1722 15 1529 1722
0.12614773 2.0559411 0.064364657 418 26366208 1775 15 1567 1775
0.15092579 2.048255 0.064281933 341 26560000 1440 15 1499 1440
0.17613557 2.047245 0.064295724 302 26757120 1278 15 1513 1278
0.20242254 2.0568702 0.064461172 211 26952704 904 15 1497 904
0.22819987 2.0592003 0.064530112 176 27149056 758 15 1466 758
0.25381976 2.059222 0.064571477 163 27342848 704 15 1473 704
0.27974385 2.0609062 0.06464041 165 27537152 715 15 1575 715
0.30545375 2.0602853 0.064681776 126 27730944 548 15 1560 548
0.33214417 2.0652666 0.064805865 94 27925504 413 15 1511 413
0.35848948 2.066946 0.064888589 95 28121600 419 15 1546 419
0.38657403 2.077136 0.06509541 72 28316160 324 15 1476 324
0.41496226 2.086946 0.065302223 54 28510720 246 15 1499 246
0.44157705 2.0865877 0.065371163 43 28706816 197 15 1512 197
0.46561512 2.0741825 0.065274648 33 28900352 151 15 1474 151
0.49242035 2.0741494 0.065357372 49 29096192 225 15 1501 225
0.50835681 2.0301239 0.064819656 17 29292288 76 15 1477 76
0.3838324 1.4571548 0.056740083 42 29485312 96 15 1416 96
0.40275219 1.4561894 0.056795232 40 29679360 92 15 1499 92
0.44455096 1.533724 0.057980973 23 29874688 60 15 1483 60
0.63349044 2.0888484 0.066060543 24 30071040 116 15 1531 116
0.66451359 2.0980744 0.066308722 29 30266368 143 15 1421 143
0.69021016 2.0897617 0.066308722 33 30461440 162 15 1448 162
0.71287435 2.0726252 0.066184632 79 30653952 382 15 1460 382
0.73623323 2.0580726 0.066101909 33 30850304 159 15 1555 159
0.77119112 2.0751247 0.066487961 449 31044864 2204 15 1487 2204
0.77788001 2.0169959 0.065770999 34 31240704 160 15 1542 160
0.80220169 2.0063698 0.065757215 66 31433216 309 15 1570 309
0.81757659 1.9742044 0.065426312 24 31629568 111 15 1533 111
0.816522 1.905208 0.064543903 81 31824384 350 15 1492 350
0.97075307 2.1902919 0.068997316 619 32021248 3556 15 1671 3556
1.0013067 2.1863956 0.069121405 623 32216832 3606 15 1666 3606
1.0357587 2.190213 0.069369584 751 32412928 4413 15 1617 4413
1.0695767 2.1917143 0.069590189 702 32608000 4178 15 1657 4178
1.1044859 2.1944995 0.06983836 699 32804352 4223 15 1582 4223
1.1396233 2.1967556 0.070086539 643 32997888 3942 15 1607 3942
1.1745096 2.1975956 0.070320934 718 33194496 4460 15 1637 4460
1.2144095 2.2066674 0.070693195 608 33389824 3862 15 1417 3862
1.2468196 2.2011681 0.070844866 679 33583616 4349 15 1589 4349
1.1971925 2.0543988 0.068749137 22 33778944 127 15 1488 127
1.2125442 2.0232584 0.068487175 18 33973760 103 15 1448 103
0 0 0 11 34169600 0 15 1514 0
1.2736031 2.0114756 0.068790503 16 34365696 93 15 1494 93
1.3014634 2.0007236 0.068873227 20 34561536 117 15 1464 117
1.3370295 2.0012286 0.06914898 12 34757888 72 15 1484 72
0 0 0 9 34954496 0 15 1493 0
1.4191382 2.0152252 0.069948666 17 35150592 106 15 1498 106
0 0 0 11 35348736 0 15 1480 0
1.5134424 2.0408239 0.07099653 11 35544064 74 15 1500 74
1.5523 2.0403988 0.071313642 8 35742720 56 15 1480 56
1.5938339 2.0424776 0.07168591 9 35937536 63 15 1491 63
1.6393994 2.0485249 0.072140902 21 36135936 147 15 1527 147
1.7265874 2.1039937 0.073492095 109 36333824 810 15 1529 810
1.7625784 2.0948877 0.073712699 85 36529152 641 15 1484 641
1.7999105 2.0867276 0.073960878 88 36724480 672 15 1507 672
1.8392935 2.0802116 0.074250415 89 36921088 691 15 1433 691
1.8801286 2.0745225 0.074567534 92 37115136 726 15 1446 726
1.9183764 2.065212 0.074829496 72 37309440 575 15 1524 575
1.9546081 2.0531008 0.075050101 68 37505792 550 15 1530 550
1.9936234 2.0432718 0.075325854 48 37698304 394 15 1546 394
2.0319827 2.0320854 0.075587817 57 37890560 475 15 1469 475
2.0710812 2.0209615 0.07586357 55 38085120 464 15 1551 464
2.113832 2.0126288 0.076208264 54 38280192 466 15 1392 466
2.1559546 2.0028684 0.076539166 56 38473216 489 15 1490 489
2.1937077 1.9883461 0.076787345 51 38668544 451 15 1497 451
2.2269323 1.9692234 0.0769528 58 38861312 517 15 1480 517
2.6976826 2.327034 0.085087523 199 39057152 2533 15 1498 2533
1.4719309 1.2387512 0.062489539 38 39250432 142 15 1466 142
1.4839294 1.218058 0.062434386 28 39446784 105 15 1506 105
1.4956422 1.1972574 0.062379237 56 39639808 208 15 1447 208
1.5575221 1.2157186 0.063206494 434 39835136 1697 15 1570 1697
1.5770985 1.2001461 0.063289225 411 40028672 1617 15 1566 1617
1.6061649 1.1914222 0.063537404 472 40224000 1889 15 1569 1889
1.627148 1.1763077 0.063647702 530 40419840 2139 15 1533 2139
1.6594472 1.1689161 0.06395103 516 40616192 2127 15 1575 2127
1.700053 1.1665629 0.064392239 434 40811264 1847 15 1581 1847
1.7400155 1.1628311 0.064819656 395 41007360 1732 15 1623 1732
1.7751093 1.1550204 0.065164343 453 41202176 2034 15 1596 2034
1.81196 1.1475911 0.065536611 382 41398784 1759 15 1603 1759
1.8488922 1.1394292 0.065908879 50 41594624 238 15 1488 238
2.8825445 1.7277535 0.082302414 98 41788928 1110 15 1603 1110
2.8905704 1.6846993 0.082095593 247 41984256 2772 15 1473 2772
2.8840549 1.6338252 0.081668176 292 42180352 3213 15 1569 3213
2.9030113 1.5978284 0.081654392 284 42377472 3123 15 1563 3123
2.9029989 1.551716 0.081351064 291 42573568 3159 15 1520 3159
2.8960817 1.5026233 0.080951221 356 42769920 3797 15 1510 3797
2.9071577 1.4633751 0.080840923 329 42964736 3490 15 1575 3490
2.904228 1.4175045 0.080523804 325 43162624 3399 15 1534 3399
2.9060371 1.3744924 0.080289416 301 43357440 3116 15 1547 3116
2.9045029 1.3304015 0.080013663 370 43554304 3781 15 1567 3781
2.8675885 1.2711627 0.079213977 273 43748608 2689 15 1586 2689
2.8645904 1.2280002 0.078938223 233 43944192 2268 15 1553 2268
2.891454 1.1977279 0.079117462 224 44137216 2198 15 1553 2198
2.9040773 1.1614127 0.079089887 253 44333056 2477 15 1624 2477
2.9022508 1.1195719 0.078855492 191 44527616 1851 15 1608 1851
2.2877884 0.8505227 0.069617763 500 44720640 2983 15 1575 2983
2.2895799 0.81935316 0.069493674 522 44914944 3089 15 1582 3089
2.2918978 0.78859341 0.069383368 524 45111296 3081 15 1625 3081
2.280514 0.75351083 0.06908004 378 45303040 2182 15 1620 2182
2.2752903 0.72094059 0.068873227 53 45500160 305 15 1482 305
2.2724833 0.68948317 0.068707772 55 45694976 313 15 1456 313
2.2577245 0.65486306 0.068376869 96 45887744 533 15 1472 533
2.2453527 0.62150979 0.068087332 401 46081792 2181 15 1520 2181
2.2489429 0.59289008 0.068032183 66 46276352 359 15 1494 359
2.2482893 0.56330466 0.067921877 74 46473728 399 15 1529 399
2.2355754 0.53105366 0.067646123 582 46668544 3077 15 1540 3077
2.2321675 0.50138998 0.06750825 718 46864128 3762 15 1650 3762
2.2332611 0.47292519 0.06743931 715 47056640 3730 15 1573 3730
2.2261472 0.44294947 0.067260072 492 47253504 2538 15 1585 2538
2.2196188 0.41340289 0.067094617 316 47447296 1613 15 1501 1613
2.2176282 0.38493776 0.066998102 646 47643904 3275 15 1603 3275
2.2202106 0.35737759 0.066970527 694 47835904 3514 15 1544 3514
2.1858542 0.32438755 0.066432811 221 48031744 1081 15 1527 1081
2.180753 0.2963292 0.066308722 94 48226304 458 15 1469 458
2.1752934 0.26844507 0.066184632 91 48423680 438 15 1568 438
2.172461 0.24107005 0.066101909 72 48619520 346 15 1487 346
2.187197 0.21556725 0.066267356 654 48815360 3160 15 1642 3160
2.1657681 0.1866544 0.065936454 83 49010688 395 15 1458 395
2.1678956 0.16006304 0.065936454 74 49208064 351 15 1537 351
2.181673 0.13418205 0.066101909 190 49402112 910 15 1553 910
2.1681747 0.10666515 0.065895088 624 49597952 2943 15 1699 2943
2.1663227 0.0799402 0.06585373 608 49793280 2860 15 1691 2860
2.1631422 0.053252347 0.065798581 672 49987840 3148 15 1670 3148
2.150635 0.026545158 0.065619335 446 50182144 2066 15 1542 2066
2.1427996 0.00015243184 0.065509036 245 50377984 1126 15 1610 1126
2.1476393 -0.026204923 0.065577976 722 50574592 3337 15 1725 3337
2.1491551 -0.052607082 0.065605551 693 50770176 3206 15 1695 3206
2.1263647 -0.078164481 0.065302223 486 50965504 2201 15 1670 2201
2.1192534 -0.10395733 0.065219499 99 51160064 447 15 1534 447
2.1158221 -0.12983315 0.065191917 97 51357440 438 15 1490 438
2.1110778 -0.15556677 0.065150559 102 51552768 459 15 1462 459
2.1179757 -0.1822343 0.065274648 318 51750144 1438 15 1586 1438
2.1115997 -0.20781894 0.065219499 667 51943936 3005 15 1637 3005
2.0919957 -0.23184043 0.064985104 185 52141312 821 15 1520 821
2.0909779 -0.25773999 0.065012679 146 52335872 650 15 1482 650
2.0708141 -0.28109062 0.064778291 386 52531200 1689 15 1547 1689
2.0899572 -0.30985847 0.06509541 794 52727040 3546 15 1687 3546
2.0869846 -0.33564109 0.065109193 883 52920064 3947 15 1618 3947
2.0807383 -0.36088422 0.065081619 893 53114624 3985 15 1675 3985
2.07517 -0.38620779 0.065067828 884 53311232 3942 15 1672 3942
2.0702746 -0.41164422 0.065067828 821 53504000 3660 15 1612 3660
3.0364215 -0.64276671 0.078758985 267 53699584 2577 15 1532 2577
3.014647 -0.67691123 0.078565955 303 53895680 2897 15 1546 2897
2.9817927 -0.70807606 0.078221262 339 54088192 3187 15 1572 3187
2.9437816 -0.73732203 0.077807635 367 54280448 3384 15 1528 3384
2.9084067 -0.76650769 0.077435367 394 54475520 3567 15 1606 3567
2.871799 -0.7946704 0.077049315 344 54671872 3059 15 1531 3059
2.8397439 -0.82344419 0.076732196 364 54866432 3187 15 1583 3187
2.7921093 -0.84690613 0.07619448 345 55061760 2941 15 1586 2941
2.7557702 -0.87294966 0.075822212 328 55254784 2743 15 1621 2743
2.7334576 -0.9029364 0.075656757 314 55450880 2605 15 1583 2605
2.7136619 -0.93348366 0.075532667 308 55644928 2539 15 1607 2539
2.6822326 -0.95963806 0.07524313 356 55840768 2893 15 1594 2893
2.6346402 -0.97923833 0.074719198 435 56033536 3441 15 1579 3441
2.6074994 -1.0057364 0.074498594 421 56229632 3293 15 1544 3293
2.5782502 -1.0309737 0.074250415 420 56425472 3242 15 1502 3242
2.5432343 -1.0533493 0.073919512 501 56621312 3800 15 1554 3800
2.5163319 -1.0785685 0.073712699 477 56817664 3579 15 1526 3579
2.4910238 -1.1040976 0.07353346 447 57014016 3321 15 1610 3321
2.4663789 -1.1295853 0.073368005 417 57208832 3072 15 1547 3072
5.4169812 -2.5623374 0.11859155 242 57406464 8707 15 1554 8707
5.4192743 -2.6452887 0.11911547 867 57601280 31540 15 1689 31540
5.4140902 -2.7255318 0.11954289 888 57797888 32648 15 1623 32648
5.4121861 -2.8083472 0.12003925 1199 57993728 44612 15 1543 44612
5.340281 -2.8547509 0.11946017 474 58188288 17392 15 1665 17392
3.504802 -1.9290794 0.091126516 182 58384640 2921 15 1527 2921
3.5052238 -1.985746 0.091512568 164 58579968 2669 15 1535 2669
3.5211921 -2.0522795 0.09216059 160 58775808 2661 15 1623 2661
3.5214701 -2.1107597 0.092574224 176 58972672 2974 15 1534 2974
3.5106244 -2.1632581 0.092822403 211 59168256 3596 15 1517 3596
3.5116892 -2.2238321 0.093277395 289 59363072 5001 15 1576 5001
3.5117917 -2.2847557 0.093732387 412 59559168 7239 15 1571 7239
3.4701886 -2.318789 0.093511783 407 59754752 7097 15 1575 7097
3.2469022 -2.2276776 0.090257891 1142 59951360 17714 15 1614 17714
3.22913 -2.2742646 0.090423346 675 60144896 10535 15 1632 10535
3.541311 -2.5597684 0.096214168 647 60339200 12358 15 1661 12358
3.5313148 -2.6191177 0.096586429 533 60534528 10310 15 1603 10310
2.6538799 -2.0191715 0.081943929 21 60730880 238 15 1524 238
2.591068 -2.0220542 0.081282124 26 60924672 286 15 1491 286
2.5348353 -2.028703 0.080730617 31 61118976 331 15 1531 331
2.4726515 -2.0292044 0.080068812 29 61313536 301 15 1500 301
2.418493 -2.0349286 0.079544879 39 61510400 394 15 1502 394
2.3789549 -2.0520432 0.07928291 15 61701632 154 15 1419 154
2.3820558 -2.1062546 0.079806842 297 61896960 3006 15 1616 3006
2.3515847 -2.1312981 0.079724118 405 62092288 4084 15 1586 4084
2.3252532 -2.1599951 0.079724118 415 62286592 4186 15 1529 4186
2.3043644 -2.1938834 0.079834417 401 62480640 4063 15 1576 4063
2.2751219 -2.2199011 0.079793058 348 62676736 3521 15 1529 3521
2.2533646 -2.2533102 0.079903357 184 62871808 1871 15 1616 1871
3.0766881 -3.1532786 0.096710518 573 63068160 11134 15 1570 11134
3.0046697 -3.1560326 0.096048713 445 63264512 8463 15 1509 8463
2.9412177 -3.1662912 0.095552355 333 63457792 6228 15 1586 6228
2.8752844 -3.1725078 0.095000848 334 63654656 6132 15 1530 6132
2.8056719 -3.1730928 0.094366618 354 63851008 6363 15 1474 6363
2.7521553 -3.1906252 0.094063289 385 64049664 6849 15 1473 6849
2.6748166 -3.1790135 0.09324982 329 64243968 5690 15 1499 5690
2.5290501 -3.0817332 0.090933487 17 64439552 276 15 1537 276
0 -0 0 8 64634880 0 15 1479 0
2.49633 -3.198843 0.091912411 589 64832000 9706 15 1548 9706
2.4278297 -3.1910362 0.091250606 175 65028864 2819 15 1589 2819
2.0031638 -2.7009213 0.082329988 53 65224192 606 15 1454 606
0 -0 0 9 65420800 0 15 1520 0
0 -0 0 9 65617664 0 15 1511 0
0 -0 0 9 65811968 0 15 1599 0
1.7910187 -2.6803868 0.080413498 11 66008064 119 15 1512 119
1.7639884 -2.7113838 0.080565169 9 66205184 101 15 1431 101
0 -0 0 11 66400256 0 15 1486 0
1.8579216 -3.0152164 0.084797978 12 66594816 155 15 1549 155
1.9456728 -3.2462106 0.088148378 50 66789888 723 15 1494 723
1.8976358 -3.2560196 0.087927781 660 66986496 9380 15 1619 9380
1.8471887 -3.2607901 0.087638237 641 67182848 9011 15 1544 9011
1.7265337 -3.1369138 0.085335694 166 67378176 2132 15 1616 2132
1.1747113 -2.1974878 0.070320934 262 67571456 1628 15 1664 1628
1.1214137 -2.1611443 0.069535032 473 67768064 2807 15 1613 2807
1.0858192 -2.1568794 0.069259278 367 67963392 2143 15 1531 2143
1.0246296 -2.0990493 0.068170056 29 68160512 161 15 1488 161
0.99793911 -2.109657 0.068142481 30 68355328 167 15 1427 167
0.97155893 -2.1208353 0.06812869 37 68550656 204 15 1489 204
0.9535619 -2.1508815 0.068404444 86 68745728 479 15 1492 479
0.92355078 -2.1541495 0.068280354 59 68942080 327 15 1453 327
0.89857668 -2.1690161 0.068335511 94 69137664 521 15 1478 521
0.8681801 -2.1705952 0.06819763 85 69334016 467 15 1464 467
0.83752078 -2.1708233 0.068045966 52 69530112 284 15 1469 284
0.8111667 -2.1818748 0.068059757 74 69726720 404 15 1459 404
0.7839939 -2.1907232 0.068045966 84 69920256 458 15 1479 458
0.75770164 -2.2020702 0.068073541 67 70115584 365 15 1530 365
0.72372377 -2.1903141 0.067770213 51 70312192 274 15 1516 274
0.69437575 -2.1914043 0.067659914 30 70505216 162 15 1431 162
0.66685128 -2.1978467 0.06763234 37 70700032 197 15 1512 197
0.6395517 -2.2049041 0.067618549 24 70895360 129 15 1509 129
0.86969787 -3.14257 0.080923647 120 71091712 1281 15 1509 1281
0.82648295 -3.1356015 0.080675468 140 71286528 1477 15 1546 1477
0.7838136 -3.1290181 0.08044108 100 71483136 1046 15 1473 1046
0.74420208 -3.1335368 0.08037214 100 71674880 1042 15 1547 1042
0.70306504 -3.1307259 0.080206685 129 71871744 1333 15 1489 1333
0.66314441 -3.1322699 0.08011017 103 72066048 1060 15 1516 1060
0.6195876 -3.1146734 0.079751693 99 72259840 1003 15 1510 1003
0.57711208 -3.0994325 0.079434581 125 72451328 1247 15 1528 1247
0 -0 0 9 72645632 0 15 1451 0
0 -0 0 7 72838656 0 15 1518 0
0 -0 0 7 73032960 0 15 1475 0
0 -0 0 6 73229312 0 15 1470 0
0 -0 0 8 73424384 0 15 1556 0
0 -0 0 6 73620736 0 15 1595 0
0 -0 0 8 73817856 0 15 1581 0
0.024204206 -0.2769213 0.039795041 201 74012416 15 15 1493 15
0 -0 0 5 74209280 0 15 2323 0
0 -0 0 4 74407680 0 15 2479 0
0 -0 0 9 74601984 0 15 2355 0
0 -0 0 8 74799360 0 15 2325 0
0.0065668919 -0.25289422 0.039450351 532 74995712 34 15 1626 34
0 -0 0 3 75191808 0 15 3485 0
-0 -0 0 0 75388416 0 15 6223 0
-0 -0 0 0 75584512 0 15 5212 0
-0 -0 0 1 75777536 0 15 4276 0
-0 -0 0 3 75975168 0 15 3219 0
-0 -0 0 6 76170752 0 15 2998 0
-0 -0 0 0 76368896 0 15 4108 0
-0 -0 0 1 76563456 0 15 4670 0
-0 -0 0 0 76759808 0 15 4753 0
-0.026892355 -0.27667317 0.039795041 2592 76953856 200 15 2273 200
-0.030285535 -0.27632234 0.039795041 2544 77149696 196 15 2239 196
-0.033674154 -0.27592987 0.039795041 2565 77345280 198 15 2231 198
-0.037057705 -0.27549586 0.039795041 2550 77541376 198 15 2186 198
-0.040582497 -0.27600944 0.039808832 2497 77734400 195 15 2172 195
-0.044284403 -0.27746502 0.039836407 2436 77931008 192 15 2149 192
-0.047685988 -0.27690068 0.039836407 2475 78124288 196 15 2149 196
-0.051629785 -0.27924365 0.039877769 2360 78319360 191 15 1995 191
-0.055443004 -0.28055036 0.039905343 2279 78514944 186 15 2042 186
-0.059088811 -0.28082708 0.039919131 2312 78707968 191 15 2017 191
-0.064064853 -0.28690991 0.040015645 2128 78903040 184 15 1965 184
-0.067580856 -0.28610215 0.040015645 2102 79099136 182 15 1985 182
-0.070357487 -0.28234154 0.039974283 2013 79296000 171 15 1954 171
-0.07330706 -0.27952316 0.039946709 1930 79491328 161 15 1878 161
-0.077798896 -0.28245714 0.040001858 1899 79686656 163 15 1912 163
-0.082095012 -0.28436211 0.04004322 1808 79880960 159 15 1816 159
-0.086449474 -0.28620371 0.040084586 1661 80078592 149 15 1720 149
-0.089955129 -0.28512129 0.040084586 1645 80274432 147 15 1712 147
-0.094388492 -0.28684413 0.040125947 1601 80471040 146 15 1744 146
-0.098877557 -0.2885007 0.040167309 1487 80663040 139 15 1753 139
-0.1020735 -0.28632417 0.040153522 1530 80859392 141 15 1748 141
-0.10662491 -0.28786165 0.040194884 1450 81054208 137 15 1860 137
-0.11050935 -0.28746441 0.040208671 1388 81248256 131 15 1750 131
-0.11402866 -0.28608662 0.040208671 1345 81442304 127 15 1710 127
-0.11791354 -0.28558955 0.040222462 1366 81636608 130 15 1683 130
-0.1221974 -0.28595901 0.040250037 1328 81832448 128 15 1788 128
-0.12650797 -0.28626609 0.040277611 1210 82028800 118 15 1680 118
-0.13084434 -0.28651017 0.040305186 1201 82220800 119 15 1753 119
-0.1373437 -0.29120994 0.040401701 1072 82416128 111 15 1623 111
-0.14090694 -0.28950256 0.040401701 1092 82614272 113 15 1707 113
-0.14534831 -0.28953782 0.040429275 1049 82808832 110 15 1734 110
-0.14935103 -0.28861988 0.040443063 985 83002880 104 15 1557 104
-0.15618174 -0.29293787 0.040539578 909 83199488 100 15 1540 100
-0.15831807 -0.28837141 0.040498212 950 83395584 102 15 1561 102
-0.16776027 -0.2968463 0.040663667 825 83590656 96 15 1597 96
-0.17239757 -0.29649296 0.040691242 766 83785984 90 15 1586 90
-0.17550886 -0.29349744 0.040677454 754 83981056 88 15 1572 88
-0.18119584 -0.29472646 0.040732604 727 84176896 87 15 1529 87
-0.19014934 -0.30092785 0.04087048 681 84372224 86 15 1525 86
-0.20200834 -0.31114307 0.041077297 583 84569088 80 15 1567 80
-0.20692255 -0.31030333 0.041104872 574 84763136 80 15 1635 80
-0.21410947 -0.3126874 0.041187596 454 84959744 65 15 1573 65
-0.21850635 -0.31085387 0.041201383 487 85154048 70 15 1562 70
-0.22699119 -0.31463158 0.041311685 443 85351680 66 15 1598 66
-0.23560095 -0.31824687 0.041421987 400 85548544 62 15 1603 62
-0.24251629 -0.31931022 0.041490927 325 85746688 52 15 1527 52
-0.2488775 -0.31946293 0.041546077 318 85941760 52 15 1516 52
-0.26152745 -0.3273131 0.041739102 279 86140416 49 15 1570 49
-0.27123415 -0.3310349 0.041863192 242 86334208 44 15 1558 44
-0.27978301 -0.33303669 0.041959707 231 86532608 43 15 1561 43
-0.28907436 -0.33563477 0.042070009 185 86727936 36 15 1586 36
-0.301783 -0.34179902 0.042249247 149 86922496 31 15 1547 31
-0.31267044 -0.34547803 0.042387124 110 87116032 24 15 1489 24
-0.32573444 -0.3511377 0.042566363 90 87310080 20 15 1560 20
-0.33139804 -0.34856221 0.042593937 88 87504640 20 15 1506 20
-0.34891984 -0.35806534 0.042855904 62 87699712 15 15 1623 15
-0.36177298 -0.36224014 0.043021355 50 87894016 13 15 1555 13
-0.36690673 -0.35847157 0.043035142 42 88086784 11 15 1474 11
-0.37200233 -0.35463148 0.043048933 32 88281600 8 15 1494 8
-0.37339556 -0.3473179 0.04299378 29 88475136 7 15 1588 7
-0.37540671 -0.34069538 0.042952418 24 88671744 6 15 1533 6
-0.37955931 -0.33606291 0.042952418 22 88864000 5 15 1532 5
-0.36623895 -0.31636018 0.042635303 12 89058560 2 15 1577 2
-0.37774524 -0.31827891 0.04277318 8 89251328 2 15 1514 2
-0 -0 0 9 89449728 0 15 1520 0
-0 -0 0 8 89644288 0 15 1499 0
-0 -0 0 6 89838592 0 15 1498 0
-0 -0 0 10 90033408 0 15 1457 0
-0 -0 0 8 90230016 0 15 1472 0
-0.56384546 -0.40792993 0.045558285 15 90426112 7 15 1470 7
-0.59497118 -0.4194012 0.045999493 18 90622720 9 15 1456 9
-0.61244166 -0.42055222 0.046206307 17 90820352 9 15 1495 9
-0.62587088 -0.41855922 0.046344183 14 91014912 8 15 1512 8
-0.63850397 -0.41575396 0.046468273 31 91208960 18 15 1500 18
-0.65876478 -0.41751459 0.046716452 18 91403776 11 15 1520 11
-0.67831141 -0.4183147 0.046950839 25 91600640 16 15 1440 16
-0.69540149 -0.41715473 0.047143869 19 91795712 12 15 1437 12
-0.70306009 -0.41009986 0.047185231 12 91990528 8 15 1478 8
-0.71848041 -0.40735441 0.047350682 13 92184320 9 15 1509 9
-0.72692937 -0.40043506 0.047405835 7 92380928 5 15 1490 5
-0.74678069 -0.39949572 0.047640223 8 92575488 6 15 1543 6
-0 -0 0 8 92771584 0 15 1472 0
-0 -0 0 8 92965120 0 15 1503 0
-0 -0 0 7 93161984 0 15 1437 0
-0 -0 0 6 93356032 0 15 1487 0
-0 -0 0 9 93552640 0 15 1496 0
-0 -0 0 8 93748224 0 15 1518 0
-0 -0 0 7 93944320 0 15 1421 0
-0 -0 0 10 94138624 0 15 1514 0
-0 -0 0 7 94336000 0 15 1464 0
-0 -0 0 8 94529792 0 15 1489 0
-0 -0 0 8 94726144 0 15 1531 0
-0 -0 0 10 94922496 0 15 1469 0
-0 -0 0 9 95116288 0 15 1445 0
-0 -0 0 8 95311360 0 15 1483 0
-0 -0 0 9 95506944 0 15 1426 0
-0 -0 0 7 95703296 0 15 1532 0
-0 -0 0 11 95899136 0 15 1494 0
-1.2295986 -0.34053203 0.053555131 11 96093952 18 15 1542 18
-1.4057953 -0.37076035 0.056009337 243 96286208 515 15 1475 515
-1.4694071 -0.36829507 0.056850385 42 96482304 97 15 1564 97
-0 -0 0 10 96677376 0 15 1578 0
-0 -0 0 8 96872704 0 15 1868 0
-2.2616303 -0.47892776 0.067839153 11 97064192 60 15 2034 60
-0 -0 0 9 97258752 0 15 2000 0
-0 -0 0 9 97451008 0 15 2112 0
-0 -0 0 10 97646080 0 15 2228 0
-0 -0 0 8 97840640 0 15 2177 0
-0 -0 0 9 98034688 0 15 2031 0
-5.530726 -0.75093788 0.11292481 15 98228224 492 15 1802 492
-0 -0 0 7 98424320 0 15 2457 0
-0 -0 0 6 98619136 0 15 1820 0
-0 -0 0 5 98814976 0 15 2052 0
-0 -0 0 6 99012096 0 15 2435 0
-0 -0 0 3 99206144 0 15 2909 0
-0 -0 0 6 99401216 0 15 3633 0
-0 -0 0 1 99596544 0 15 4027 0
-0 -0 0 1 99794432 0 15 3165 0
-0 -0 -0 2 0 0 16 2645 0
-0 -0 -0 2 195840 0 16 3082 0
-0 -0 -0 2 393728 0 16 2742 0
-0 0 -0 1 589568 0 16 3504 0
-0 0 -0 0 783872 0 16 4256 0
-0 0 -0 6 979712 0 16 2130 0
-0 0 -0 5 1175808 0 16 1638 0
-0 0 -0 6 1371392 0 16 1580 0
-0 0 -0 7 1567744 0 16 1576 0
-0.49816516 0.042476203 0.030771613 281 1764864 70 16 1366 70
-0.56726545 0.055442471 0.029989723 449 1958912 146 16 1370 146
-0.57648087 0.063501015 0.029878024 441 2155520 148 16 1319 148
-0.62428707 0.076565109 0.029330701 743 2351872 295 16 1436 295
-0.62825477 0.084892847 0.029274851 868 2547712 349 16 1420 349
-0.62222004 0.09186282 0.029330701 1065 2740992 422 16 1286 422
-0.61808413 0.099015154 0.02936421 1138 2937088 446 16 1378 446
-0.60499984 0.1045419 0.029498247 1160 3129088 439 16 1297 439
-0.54468799 0.10098045 0.03016844 2537 3324672 779 16 1635 779
-0.55419588 0.10980216 0.030045571 2064 3519744 660 16 1474 660
-0.5479154 0.11555956 0.03010142 1969 3714560 619 16 1399 619
-0.55230999 0.12358877 0.030034402 2176 3908352 699 16 1518 699
-0.54783309 0.12966421 0.030067911 2120 4104960 674 16 1463 674
-0.54911059 0.13710591 0.030034402 1522 4298752 489 16 1409 489
-0.54158515 0.1423053 0.03010142 1612 4492288 506 16 1405 506
-0.52245086 0.14414127 0.030302478 1077 4688640 317 16 1336 317
-0.47166288 0.13634129 0.030872142 1275 4881920 308 16 1603 308
-0.43454894 0.1313815 0.031285428 1637 5075200 338 16 1560 338
-0.43385723 0.13700612 0.031274259 808 5269504 167 16 1438 167
-0.43024433 0.1416927 0.031296596 913 5466368 188 16 1336 188
-0.50884652 0.17460617 0.030347159 157 5661184 45 16 1234 45
-0.50760704 0.18117416 0.030335989 193 5856768 56 16 1248 56
-0.50253361 0.18634464 0.030369498 182 6051072 52 16 1180 52
-0.43863383 0.1687499 0.03110671 47 6246656 10 16 1145 10
-0.49595222 0.19787884 0.030391838 154 6441728 44 16 1222 44
-0.43897963 0.18137668 0.031050861 705 6637568 159 16 1446 159
-0.42109638 0.18005356 0.031240748 877 6830080 184 16 1392 184
-0.42799693 0.18925907 0.031129049 1472 7025920 323 16 1550 323
-0.43837017 0.20032582 0.030972671 2175 7219712 505 16 1723 505
-0.4250313 0.20056057 0.03110671 2750 7416576 608 16 1737 608
-0.43332189 0.21102361 0.030972671 2526 7611136 587 16 1854 587
-0.44856364 0.22531575 0.030749274 1236 7805184 312 16 1486 312
-0.47683141 0.24691917 0.030358328 992 8000512 287 16 1365 287
-0.49581283 0.26453477 0.030079082 1704 8195328 539 16 1426 539
-0.48552087 0.26674247 0.03016844 1935 8388608 594 16 1396 594
-0.4865613 0.27514452 0.030112591 1704 8583424 533 16 1379 533
-0.47796452 0.27807397 0.03017961 1482 8777984 454 16 1464 454
-0.47022757 0.28134832 0.03023546 1719 8973312 516 16 1420 516
-0.4641856 0.28552404 0.030268969 1442 9168128 428 16 1384 428
-0.42769822 0.27033734 0.030704595 309 9364736 79 16 1233 79
-0.42434856 0.27556551 0.030704595 29 9561600 7 16 1178 7
-0.41844064 0.27908573 0.030738104 23 9759488 5 16 1279 5
-2.1474161 1.4726146 0.0072701969 34 9956608 237 16 1292 237
-2.1308184 1.5000073 0.0072478568 46 10152192 318 16 1348 318
-2.1341326 1.5418569 0.0069462704 39 10349824 270 16 1255 270
-2.1303115 1.5792464 0.0067340429 48 10546176 339 16 1189 339
-2.1258922 1.6167728 0.006521815 39 10743296 278 16 1272 278
-2.1161401 1.6507359 0.0063766069 30 10938112 217 16 1200 217
-2.1074347 1.6859514 0.0062090587 32 11135744 234 16 1239 234
-1.5918643 1.3057319 0.013357779 265 11328512 1124 16 1229 1124
-1.5703651 1.320662 0.013435967 512 11522816 2157 16 1251 2157
-1.5896288 1.3705282 0.012910984 391 11716864 1723 16 1252 1723
-1.5726906 1.3899322 0.012910984 448 11910912 1978 16 1285 1978
-1.6014545 1.450758 0.012218451 332 12104192 1555 16 1348 1555
-1.5996492 1.4852723 0.011972714 345 12298240 1648 16 1337 1648
-1.6153418 1.5371947 0.01144773 448 12489728 2228 16 1270 2228
-1.6078081 1.5680742 0.011269012 451 12683776 2275 16 1282 2275
-1.6146075 1.6138461 0.010855727 386 12878336 2018 16 1297 2018
-1.6442664 1.6843487 0.010062666 343 13071616 1906 16 1292 1906
-1.6441594 1.7261243 0.0097275693 356 13266432 2029 16 1333 2029
-1.6419103 1.7666825 0.0094148125 316 13461760 1844 16 1357 1844
-1.6415969 1.8104057 0.0090573765 386 13657344 2307 16 1275 2307
-1.6424416 1.856631 0.0086664315 423 13851904 2606 16 1314 2606
-1.6763611 1.9425159 0.0076946518 563 14048000 3708 16 1283 3708
-1.6459588 1.9552903 0.0078063509 607 14243328 3974 16 1292 3974
-1.6116899 1.9629748 0.0079850685 668 14440448 4313 16 1244 4313
-1.5743576 1.9662113 0.008219636 731 14637824 4647 16 1306 4647
-1.5353447 1.9664649 0.0084877135 646 14836224 4022 16 1256 4022
-1.4947484 1.9636726 0.0087893 622 15030272 3797 16 1285 3797
-1.4616028 1.9698209 0.0089568477 666 15226624 4011 16 1246 4011
-1.4285328 1.9754531 0.0091243964 670 15421696 3988 16 1349 3988
-1.3938185 1.9781197 0.009325454 675 15618560 3960 16 1427 3960
-1.3609527 1.9827076 0.0094930017 658 15814400 3813 16 1406 3813
-1.3281856 1.9867885 0.0096605504 735 16010752 4205 16 1428 4205
-1.2938883 1.9878514 0.009861608 792 16205568 4464 16 1367 4464
-1.2597666 1.9883739 0.010062666 768 16401408 4263 16 1366 4263
-1.2258283 1.9883606 0.010263723 825 16594432 4503 16 1250 4503
-1.1936239 1.9903891 0.010431271 861 16791040 4642 16 1281 4642
-1.1620589 1.9927924 0.010587649 922 16986112 4910 16 1258 4910
-1.1296301 1.9929826 0.010766367 912 17179648 4787 16 1281 4787
-1.0997837 1.997059 0.010889236 849 17373952 4421 16 1308 4421
-1.0718939 2.0042319 0.010967425 925 17568768 4788 16 1285 4788
-1.0145179 1.9542184 0.011760486 686 17765632 3331 16 1413 3331
-0.86501014 1.7173351 0.014876882 431 17961472 1598 16 1318 1598
-0.88378763 1.8095925 0.013860423 290 18157056 1180 16 1326 1180
-0.8897354 1.8799593 0.013123211 343 18351872 1488 16 1317 1488
-0.88450629 1.9298269 0.012642907 364 18549248 1645 16 1348 1645
-0.87899518 1.9816715 0.012140262 461 18744320 2172 16 1359 2172
-0.85224664 1.9867947 0.012207282 1181 18941696 5524 16 1434 5524
-0.82741874 1.9961796 0.012218451 720 19138560 3368 16 1315 3368
-0.80174619 2.0033977 0.012251961 685 19334144 3195 16 1366 3195
-0.77494144 2.007488 0.01231898 629 19526912 2918 16 1287 2918
-0.74815738 2.0112231 0.012386 560 19723520 2584 16 1292 2584
-0.506437 1.4139503 0.019579399 147 19918592 332 16 1214 332
-0.47668415 1.3841287 0.020003853 316 20114944 678 16 1186 678
-0.45652562 1.3803796 0.020115552 343 20309504 728 16 1285 728
-0.43502113 1.3715795 0.020283101 297 20505856 617 16 1294 617
-0.41293105 1.3595911 0.020484159 292 20700928 592 16 1298 592
-0.38925156 1.3405472 0.020763407 299 20896256 583 16 1255 583
-0.37143788 1.3404045 0.020819254 265 21091840 513 16 1192 513
-0.34017614 1.2887815 0.021467108 362 21285888 643 16 1222 643
-0.31947461 1.2734599 0.021690505 382 21479680 658 16 1268 658
-0.29897001 1.2568543 0.021925073 331 21673216 553 16 1274 553
-0.27936009 1.2418915 0.022137301 352 21869056 572 16 1303 572
-0.26016304 1.2266396 0.022349527 324 22062592 511 16 1307 511
-0.24157813 1.212087 0.022550585 319 22257408 488 16 1214 488
-0.22155917 1.1874354 0.022863341 217 22450176 316 16 1249 316
-0.19876207 1.1427751 0.023399496 111 22645504 149 16 1181 149
-0.18377002 1.1392047 0.023466516 87 22840832 116 16 1196 116
-0.30188385 2.0315688 0.013413628 613 23036672 2589 16 1174 2589
-0.27544963 2.0242212 0.013536497 1069 23229440 4468 16 1382 4468
-0.25046611 2.0264566 0.013547666 1037 23424256 4329 16 1290 4329
-0.22480755 2.0224206 0.013625856 1143 23619328 4739 16 1344 4739
-0.19938394 2.0190566 0.013692874 1311 23816192 5403 16 1290 5403
-0.1744203 2.0193586 0.013715214 1483 24012288 6098 16 1308 6098
-0.1495529 2.0203497 0.013726384 1426 24207104 5858 16 1441 5858
-0.10995572 1.7815025 0.016418325 842 24403200 2687 16 1403 2687
-0.10262814 2.0783417 0.013112041 1176 24601344 5100 16 1440 5100
-0.077337183 2.0854402 0.013045022 1190 24794624 5188 16 1319 5188
-0.048787188 1.9662759 0.014385407 691 24992256 2677 16 1310 2677
-0.026171636 2.0897095 0.013011512 1192 25189888 5211 16 1362 5211
-0.00051969371 1.9978791 0.014039141 609 25384192 2435 16 1421 2435
0.024339145 2.0257313 0.013726384 466 25579776 1913 16 1259 1913
0.049636688 2.0432734 0.013525327 585 25777408 2445 16 1220 2445
0.074817277 2.0455084 0.013491817 560 25973760 2348 16 1225 2348
0.10010917 2.0484312 0.013447138 410 26170368 1725 16 1228 1725
0.12536155 2.0490446 0.013424798 423 26366208 1784 16 1195 1784
0.15027654 2.0443602 0.013458308 340 26560000 1430 16 1135 1430
0.1754384 2.0433583 0.013447138 291 26757120 1225 16 1147 1225
0.2012839 2.0490127 0.013357779 274 26952704 1163 16 1185 1163
0.22685389 2.0503638 0.013313099 208 27149056 887 16 1134 887
0.25224259 2.0494103 0.013290759 174 27342848 743 16 1193 743
0.27831456 2.0530965 0.01321257 121 27537152 520 16 1178 520
0.30480817 2.0584288 0.013112041 90 27730944 390 16 1212 390
0.33052167 2.0574949 0.013078531 97 27925504 423 16 1106 423
0.35882136 2.0710182 0.012877474 64 28121600 284 16 1128 284
0.38475782 2.0694082 0.012843965 65 28316160 289 16 1201 289
0.4107087 2.0674729 0.012810455 64 28510720 286 16 1153 286
0.43646294 2.0642338 0.012788115 49 28706816 219 16 1148 219
0.42562246 1.8977391 0.014631145 10 28900352 38 16 1166 38
0.34101093 1.4380314 0.019847475 37 29096192 81 16 1121 81
0.37466362 1.4977576 0.019110264 21 29292288 50 16 1220 50
0.52652329 1.9997199 0.013257249 31 29485312 133 16 1158 133
0.40437514 1.4630547 0.01940068 30 29679360 69 16 1148 69
0.41951421 1.4483783 0.01951238 303 29874688 690 16 1132 690
0.43986827 1.4517332 0.019411851 195 30071040 449 16 1173 449
0.45402706 1.4347869 0.019545889 372 30266368 843 16 1230 843
0.48853433 1.4803797 0.018942716 106 30461440 258 16 1189 258
0.7183876 2.089839 0.011671128 85 30653952 416 16 1209 416
0.72915947 2.0394394 0.012162602 38 30850304 179 16 1168 179
0.76945841 2.0715795 0.011671128 394 31044864 1925 16 1225 1925
0.77251363 2.0041375 0.01236366 13 31240704 61 16 1151 61
0.79148084 1.9805796 0.012531208 10 31433216 47 16 1123 47
0.82299536 1.988271 0.01231898 19 31629568 88 16 1214 88
0.80912352 1.8888708 0.013402458 57 31824384 242 16 1166 242
0.97040021 2.1905346 0.0095935306 638 32021248 3668 16 1327 3668
1.0022045 2.1893709 0.0094594918 684 32216832 3972 16 1314 3972
1.0345531 2.188659 0.0093142837 747 32412928 4380 16 1283 4380
1.0679114 2.1892784 0.009146736 687 32608000 4084 16 1320 4084
1.1014396 2.1894066 0.0089791873 670 32804352 4032 16 1306 4032
1.1374332 2.1934776 0.0087557901 687 32997888 4195 16 1248 4195
1.1741623 2.1978743 0.0085212225 664 33194496 4126 16 1275 4126
1.2102051 2.1999447 0.0083089955 705 33389824 4448 16 1252 4448
1.2430243 2.195369 0.0081749568 698 33583616 4446 16 1216 4446
1.2361401 2.1220651 0.0089233378 40 33778944 243 16 1120 243
1.1747056 1.9609253 0.010822217 12 33973760 64 16 1134 64
1.2049747 1.9565784 0.010688178 15 34169600 80 16 1200 80
1.2481509 1.9720582 0.010286063 11 34365696 61 16 1180 61
1.2733476 1.9582694 0.010263723 14 34561536 77 16 1190 77
1.3172801 1.9724283 0.009861608 9 34757888 52 16 1168 52
1.3560922 1.9775537 0.0095711909 10 34954496 60 16 1096 60
1.4015594 1.9910136 0.0091579054 13 35150592 78 16 1159 78
0 0 -0 8 35348736 0 16 1159 0
1.4982436 2.0210769 0.008253146 10 35544064 65 16 1164 65
0 0 -0 6 35742720 0 16 1136 0
0 0 -0 7 35937536 0 16 1124 0
1.6584615 2.0730827 0.006700533 34 36135936 242 16 1119 242
1.701537 2.0742188 0.0063877767 47 36333824 339 16 1205 339
1.7249315 2.0508866 0.0064212861 391 36529152 2810 16 1207 2810
1.7839295 2.0689392 0.0058404529 60 36724480 450 16 1163 450
1.8217684 2.0611253 0.0056282249 58 36921088 439 16 1239 439
1.8623681 2.0556562 0.0053713182 51 37115136 394 16 1164 394
1.92216 2.0700126 0.0048016543 30 37309440 240 16 1224 240
1.9591382 2.0585809 0.0046117664 31 37505792 252 16 1175 252
2.2195749 2.2755859 0.00084751862 137 37698304 1387 16 1186 1387
2.2876327 2.2884822 0.00021083577 168 37890560 1762 16 1148 1762
2.3520412 2.2958546 -0.00035882785 248 38085120 2684 16 1157 2684
2.4104524 2.2957792 -0.00082796259 259 38280192 2874 16 1189 2874
2.4823976 2.3068628 -0.0014981551 264 38473216 3033 16 1241 3033
2.5623796 2.323236 -0.0022800462 270 38668544 3233 16 1225 3233
2.6416316 2.3366616 -0.0030395978 241 38861312 3001 16 1188 3001
2.6988776 2.3288896 -0.0034640532 203 39057152 2582 16 1228 2582
1.4947137 1.2583662 0.014530616 35 39250432 134 16 1168 134
1.5108162 1.2405634 0.014519446 20 39446784 77 16 1149 77
1.5251454 1.2213051 0.014530616 142 39639808 543 16 1156 543
1.5683951 1.2246461 0.0141285 425 39835136 1683 16 1279 1683
1.5920585 1.2119681 0.014005631 516 40028672 2067 16 1274 2067
1.618055 1.2006798 0.013849253 480 40224000 1949 16 1239 1949
1.6480644 1.1918638 0.013637026 490 40419840 2029 16 1187 2029
1.6764637 1.1813388 0.013447138 448 40616192 1887 16 1210 1887
1.7015527 1.1680318 0.013301929 500 40811264 2131 16 1235 2131
1.7573273 1.1748427 0.012743436 361 41007360 1614 16 1270 1614
1.7808316 1.1591879 0.012620566 342 41202176 1549 16 1296 1549
1.8312474 1.1602529 0.012140262 259 41398784 1218 16 1217 1218
1.8606704 1.1471364 0.011939204 29 41594624 139 16 1203 139
2.8840516 1.729344 -0.0012077383 217 41788928 2455 16 1271 2455
2.8929617 1.6867721 -0.00105136 223 41984256 2503 16 1231 2503
2.8856032 1.6353705 -0.00069392408 282 42180352 3105 16 1247 3105
2.8949425 1.59405 -0.00055988558 288 42377472 3150 16 1130 3150
2.8984129 1.5499189 -0.00035882785 337 42573568 3643 16 1206 3643
2.9074514 1.509168 -0.00023595923 275 42769920 2953 16 1232 2953
2.9061034 1.4634833 9.778023e-06 296 42964736 3136 16 1189 3136
2.9076691 1.4198151 0.00021083577 308 43162624 3230 16 1167 3230
2.9031796 1.3737645 0.00047891276 331 43357440 3418 16 1219 3418
2.9143648 1.3355358 0.00054593204 282 43554304 2903 16 1157 2903
2.6498976 1.1752518 0.0039750836 313 43748608 2632 16 1213 2632
2.6530919 1.1379167 0.0041091223 278 43944192 2319 16 1215 2319
2.6557705 1.1006808 0.0042431606 292 44137216 2421 16 1345 2421
2.6635072 1.0657794 0.00431018 309 44333056 2545 16 1231 2545
2.6717207 1.0312142 0.0043660291 325 44527616 2667 16 1223 2667
2.6822996 0.99765348 0.0043883692 341 44720640 2794 16 1263 2794
2.6839843 0.96095622 0.0045112376 356 44914944 2902 16 1286 2902
2.2937257 0.78967267 0.0092584342 449 45111296 2647 16 1363 2647
2.2918501 0.75770098 0.0093924729 524 45303040 3056 16 1231 3056
2.2904902 0.72619689 0.0095153414 419 45500160 2421 16 1260 2421
2.2714803 0.68961477 0.0098392684 70 45694976 395 16 1195 395
2.2644062 0.65723127 0.010017986 541 45887744 3015 16 1290 3015
2.2655551 0.6275267 0.010096175 541 46081792 2992 16 1271 2992
2.2711513 0.59916776 0.010118515 579 46276352 3197 16 1246 3197
2.2482646 0.56371826 0.010464781 288 46473728 1550 16 1153 1550
2.2238812 0.5286907 0.010822217 79 46668544 414 16 1187 414
2.2380066 0.50311369 0.010732858 442 46864128 2329 16 1195 2329
2.2410774 0.47499052 0.010766367 647 47056640 3398 16 1272 3398
2.2241812 0.44296503 0.011023275 88 47253504 453 16 1234 453
2.2255173 0.41490516 0.011067954 71 47447296 365 16 1154 365
2.2265005 0.38687935 0.011112634 79 47643904 405 16 1136 405
2.2054124 0.35539588 0.01140305 434 47835904 2168 16 1198 2168
2.222466 0.33021355 0.011257842 681 48031744 3440 16 1245 3440
2.1946442 0.29860723 0.011615278 333 48226304 1635 16 1214 1635
2.2130296 0.2734901 0.01144773 82 48423680 409 16 1166 409
2.1933608 0.24377577 0.011704637 610 48619520 2971 16 1276 2971
2.1872311 0.21595882 0.011805166 727 48815360 3515 16 1236 3515
2.1877241 0.18893015 0.011827506 582 49010688 2812 16 1357 2812
2.185889 0.16177469 0.011872185 605 49208064 2909 16 1263 2909
2.1517797 0.13272853 0.012274301 97 49402112 451 16 1244 451
2.1612363 0.10670593 0.012184942 131 49597952 614 16 1211 614
2.1723754 0.080544904 0.012073243 555 49793280 2629 16 1301 2629
2.1612048 0.053585187 0.012207282 447 49987840 2089 16 1279 2089
2.1497014 0.02691181 0.01234132 98 50182144 454 16 1153 454
2.1498697 0.00052964146 0.01234132 87 50377984 403 16 1161 403
2.1487143 -0.0258404 0.01235249 89 50574592 412 16 1146 412
2.1372395 -0.051937267 0.012475358 269 50770176 1231 16 1182 1231
2.135442 -0.078123838 0.012486529 672 50965504 3073 16 1369 3073
2.1333237 -0.10427411 0.012497698 550 51160064 2511 16 1259 2511
2.1328816 -0.13050668 0.012486529 100 51357440 457 16 1231 457
2.0962162 -0.15409827 0.012877474 313 51552768 1385 16 1203 1385
2.1160851 -0.18169646 0.012631737 753 51750144 3403 16 1295 3403
2.1127009 -0.20755245 0.012642907 775 51943936 3496 16 1283 3496
2.1090009 -0.23335275 0.012654076 775 52141312 3495 16 1329 3495
2.1149104 -0.26031691 0.012553548 569 52335872 2589 16 1298 2589
2.0947123 -0.28396389 0.012743436 110 52531200 492 16 1191 492
2.0821676 -0.30832794 0.012843965 265 52727040 1176 16 1204 1176
2.0821762 -0.33449125 0.012799284 824 52920064 3671 16 1330 3671
2.0788999 -0.36018845 0.012788115 904 53114624 4030 16 1300 4030
2.0772724 -0.38622153 0.012754605 782 53311232 3493 16 1216 3493
3.0894008 -0.61391324 0.001171445 281 53504000 2790 16 1220 2790
3.0532646 -0.64577472 0.0014953713 287 53699584 2798 16 1212 2798
3.0207186 -0.67771876 0.0017746183 282 53895680 2713 16 1295 2713
2.9878521 -0.70896208 0.0020538652 365 54088192 3445 16 1245 3445
2.9585574 -0.74047333 0.0022884326 359 54280448 3342 16 1262 3342
2.9028351 -0.76449388 0.0028245866 357 54475520 3218 16 1266 3218
2.8585405 -0.79045975 0.0032267021 371 54671872 3265 16 1215 3265
2.8313382 -0.82046705 0.0034277597 358 54866432 3111 16 1273 3111
2.8038325 -0.84992647 0.0036288174 360 55061760 3092 16 1219 3092
2.7645934 -0.87521207 0.0039639138 362 55254784 3045 16 1241 3045
2.7356048 -0.90311354 0.0041761412 310 55450880 2573 16 1282 2573
2.7044592 -0.92978585 0.0044107088 370 55644928 3035 16 1311 3035
2.6768401 -0.957178 0.0046005966 346 55840768 2798 16 1201 2798
2.6292748 -0.97671813 0.005025052 408 56033536 3212 16 1229 3212
2.6040297 -1.0038724 0.0051814299 429 56229632 3342 16 1284 3342
2.5710881 -1.0275851 0.0054271673 393 56425472 3015 16 1232 3015
2.5407314 -1.0517896 0.0056393952 498 56621312 3767 16 1247 3767
2.5101705 -1.0754049 0.0058516227 470 56817664 3508 16 1191 3508
2.4830718 -1.1000502 0.0060191709 473 57014016 3492 16 1145 3492
2.4639308 -1.1279404 0.0060861898 447 57208832 3285 16 1200 3285
3.205615 -1.515456 -0.0032518255 164 57406464 2066 16 1176 2066
3.1957631 -1.559065 -0.0033635241 256 57601280 3240 16 1213 3240
3.2076523 -1.6138979 -0.0037544698 163 57797888 2105 16 1183 2105
3.2124588 -1.6660318 -0.0040672263 156 57993728 2045 16 1237 2045
3.2164655 -1.7185249 -0.0043799826 185 58188288 2463 16 1241 2463
3.2284241 -1.7761861 -0.004804438 201 58384640 2732 16 1218 2732
3.2359667 -1.8324257 -0.0051842136 169 58579968 2341 16 1193 2341
3.2495222 -1.8931429 -0.0056533488 205 58775808 2902 16 1202 2902
3.2414846 -1.9421293 -0.0058544064 206 58972672 2946 16 1203 2946
3.2582717 -2.006937 -0.0063905604 230 59168256 3372 16 1215 3372
3.2502949 -2.0574682 -0.0066139577 305 59363072 4515 16 1257 4515
3.2507863 -2.1141016 -0.0069602239 387 59559168 5823 16 1215 5823
3.2487104 -2.1699436 -0.0072841505 520 59754752 7940 16 1245 7940
3.2399778 -2.222091 -0.0075298874 1255 59951360 19397 16 1306 19397
3.2492561 -2.2875905 -0.0080325315 808 60144896 12764 16 1221 12764
3.2841539 -2.372977 -0.0089037819 568 60339200 9327 16 1277 9327
3.2692442 -2.4238207 -0.0091048395 455 60534528 7556 16 1312 7556
2.9957309 -2.2784982 -0.0056868582 18 60730880 258 16 1176 258
2.6845315 -2.0942528 -0.0016768731 12 60924672 141 16 1185 141
2.5665035 -2.0533156 -0.00035882785 26 61118976 284 16 1155 284
2.4993708 -2.0504038 0.0002443454 33 61313536 349 16 1109 349
0.78683949 -0.66147089 0.02487392 38 61510400 40 16 1120 40
2.3922656 -2.0627956 0.0010709162 15 61701632 152 16 1145 152
2.3472941 -2.0747766 0.0013613328 23 61896960 228 16 1185 228
2.3587041 -2.1369989 0.00080283912 130 62092288 1320 16 1170 1320
2.4033697 -2.2317924 -0.00028063872 274 62286592 2950 16 1204 2950
2.3410373 -2.2280238 0.00025551528 290 62480640 3032 16 1186 3032
2.2977736 -2.2412219 0.00050125254 392 62676736 4042 16 1227 4042
2.2623191 -2.2614732 0.00062412117 372 62871808 3810 16 1192 3810
2.2567453 -2.3119655 0.00026668515 320 63068160 3343 16 1213 3343
2.2502694 -2.362658 -9.0750851e-05 216 63264512 2301 16 1228 2301
2.2544563 -2.4259901 -0.00063807471 97 63457792 1067 16 1175 1067
2.2862999 -2.5216322 -0.0016657033 83 63654656 962 16 1244 962
2.3432858 -2.649122 -0.0031512966 74 63851008 926 16 1259 926
2.2975368 -2.6625359 -0.0029278991 93 64049664 1155 16 1126 1155
2.3039649 -2.7371993 -0.0036092615 140 64243968 1795 16 1195 1795
2.2721047 -2.7675853 -0.0036427712 65 64439552 837 16 1166 837
2.5304112 -3.1606021 -0.0088702729 23 64634880 383 16 1131 383
2.4969723 -3.1985104 -0.0089708017 175 64832000 2884 16 1229 2884
2.0687864 -2.7180414 -0.0017997418 128 65028864 1495 16 1233 1495
1.9655775 -2.6492591 -0.00049286633 15 65224192 165 16 1209 165
0 -0 -0 6 65420800 0 16 1164 0
1.8775122 -2.6648164 -5.7241228e-05 10 65617664 110 16 1095 110
1.8474982 -2.6917784 -0.0001130906 10 65811968 109 16 1182 109
0 -0 -0 9 66008064 0 16 1165 0
1.8179657 -2.7933009 -0.00087264209 13 66205184 147 16 1181 147
0 -0 -0 7 66400256 0 16 1149 0
1.8569373 -3.0124357 -0.0031736363 14 66594816 180 16 1100 180
1.9411643 -3.2373998 -0.0058097267 77 66789888 1103 16 1118 1103
1.8967581 -3.2532022 -0.0057091978 739 66986496 10484 16 1242 10484
1.8433845 -3.2527432 -0.0054076114 721 67182848 10085 16 1173 10085
1.801883 -3.2724915 -0.0053741019 577 67378176 8056 16 1266 8056
1.1652361 -2.1788352 0.0087557901 371 67571456 2265 16 1274 2265
1.1319628 -2.1805446 0.0089121684 411 67768064 2482 16 1267 2482
1.0857842 -2.1558664 0.0093924729 289 67963392 1686 16 1218 1686
1.052667 -2.1555495 0.0095600206 23 68160512 133 16 1168 133
1.0175841 -2.1502268 0.0097834188 65 68355328 370 16 1135 370
0.98570681 -2.1507342 0.0099286269 128 68550656 718 16 1169 718
0.95761871 -2.1590118 0.0099733062 91 68745728 509 16 1128 509
0.93026412 -2.1687627 0.0099956458 116 68942080 648 16 1159 648
0.89898741 -2.1689296 0.010129685 64 69137664 355 16 1120 355
0.87118953 -2.1770129 0.010163194 82 69334016 452 16 1136 452
0.84440863 -2.1875398 0.010163194 113 69530112 622 16 1226 622
0.81715208 -2.1968002 0.010174364 85 69726720 469 16 1129 469
0.79080629 -2.2085454 0.010152024 91 69920256 502 16 1163 502
0.76592201 -2.2247021 0.010073835 80 70115584 444 16 1164 444
0.73887753 -2.2348831 0.010062666 121 70312192 672 16 1133 672
0.72136408 -2.2752385 0.0096940594 49 70505216 280 16 1177 280
0.69426006 -2.2867901 0.0096605504 28 70700032 161 16 1200 161
0.67088097 -2.3114634 0.0094706621 22 70895360 129 16 1135 129
0.91722721 -3.3121316 -0.0020343091 277 71091712 3276 16 1202 3276
0.87396407 -3.3134689 -0.0019226103 329 71286528 3865 16 1247 3865
0.79508144 -3.1716614 -0.00016893998 10 71483136 109 16 1195 109
0.78984207 -3.3232176 -0.0017997418 450 71674880 5251 16 1277 5251
0.75097394 -3.3414407 -0.0019002706 459 71871744 5385 16 1255 5385
0.70866978 -3.3445351 -0.0018332513 454 72066048 5311 16 1233 5311
0.66718358 -3.3510184 -0.0018109116 480 72259840 5608 16 1201 5608
0.62491262 -3.3530552 -0.0017438923 535 72451328 6228 16 1245 6228
0.58149523 -3.3476639 -0.001598684 29 72645632 337 16 1200 337
0 -0 -0 6 72838656 0 16 1411 0
0 -0 -0 3 73032960 0 16 2141 0
0 -0 -0 7 73229312 0 16 2040 0
0 -0 -0 4 73424384 0 16 2430 0
0 -0 -0 1 73620736 0 16 3085 0
0 -0 -0 0 73817856 0 16 3751 0
0 -0 -0 1 74012416 0 16 3751 0
0 -0 -0 1 74209280 0 16 3513 0
0 -0 -0 2 74407680 0 16 3256 0
0 -0 -0 6 74601984 0 16 3061 0
0 -0 -0 2 74799360 0 16 3092 0
0 -0 -0 2 74995712 0 16 3144 0
0 -0 -0 0 75191808 0 16 6630 0
0 -0 -0 0 75388416 0 16 10237 0
-0 -0 -0 0 75584512 0 16 9435 0
-0 -0 -0 0 75777536 0 16 7336 0
-0 -0 -0 1 75975168 0 16 3129 0
-0 -0 -0 4 76170752 0 16 2929 0
-0 -0 -0 1 76368896 0 16 3856 0
-0 -0 -0 0 76563456 0 16 4326 0
-0 -0 -0 0 76759808 0 16 4475 0
-0 -0 -0 0 76953856 0 16 4486 0
-0 -0 -0 0 77149696 0 16 4389 0
-0.032890413 -0.26999113 0.033318345 2546 77345280 189 16 1864 189
-0.036604665 -0.27253973 0.033284836 2485 77541376 188 16 1900 188
-0.040093046 -0.27305913 0.033273667 2436 77734400 186 16 1945 186
-0.043758452 -0.27452108 0.033251327 2385 77931008 185 16 1923 185
-0.04729484 -0.27494866 0.033240154 2395 78124288 187 16 1674 187
-0.051214214 -0.27729672 0.033206645 2283 78319360 182 16 1719 182
-0.055003241 -0.27860886 0.033184305 2287 78514944 185 16 1771 185
-0.059246197 -0.28182596 0.033139627 2173 78707968 181 16 1769 181
-0.063138224 -0.28302902 0.033117287 2115 78903040 178 16 1655 178
-0.066606671 -0.28223291 0.033117287 2038 79099136 171 16 1644 171
-0.070065089 -0.2813943 0.033117287 1962 79296000 165 16 1655 165
-0.073512949 -0.28051329 0.033117287 1920 79491328 161 16 1571 161
-0.078549542 -0.28537247 0.033050269 1700 79686656 149 16 1551 149
-0.082045585 -0.28438705 0.033050269 1740 79880960 153 16 1459 153
-0.086109683 -0.2852726 0.033027928 1620 80078592 144 16 1639 144
