# .PCD v0.7 - Point Cloud Data file format
VERSION 0.7
FIELDS x y z intensity t reflectivity ring noise range
SIZE 4 4 4 4 4 2 2 2 4
TYPE F F F F U U U U U
COUNT 1 1 1 1 1 1 1 1 1
WIDTH 619
HEIGHT 1
VIEWPOINT 0 0 0 1 0 0 0
POINTS 619
DATA ascii
2.1348372 0.5341019 0.76648408 328 46473728 1770 2 1559 1770
2.1403077 0.50764519 0.76616728 325 46668544 1752 2 1505 1752
2.1139822 0.47408342 0.75507897 172 46864128 900 2 1493 900
2.143563 0.56391877 0.71784443 285 46276352 1536 3 1696 1536
2.1206644 0.53016257 0.70838177 78 46473728 409 3 1657 409
2.140954 0.50740093 0.71281737 46 46668544 244 3 1654 244
2.1423583 0.48004633 0.71133882 43 46864128 228 3 1639 228
2.1247208 0.44878873 0.70394617 316 47056640 1636 3 1579 1636
2.1141384 0.41952321 0.69891912 421 47253504 2144 3 1708 2144
2.1134918 0.39250234 0.69714487 434 47447296 2199 3 1693 2199
2.1153255 0.36604881 0.69625771 414 47643904 2097 3 1726 2097
2.1092825 0.33840021 0.69300497 109 47835904 545 3 1712 545
2.1676247 0.59959853 0.67225045 156 46081792 857 4 1471 857
2.1683087 0.57123929 0.67033392 197 46276352 1072 4 1284 1072
2.1247718 0.53198248 0.65554917 56 46473728 290 4 1267 290
2.13114 0.5058682 0.65554917 44 46668544 228 4 1265 228
2.1165409 0.47504756 0.64952576 89 46864128 453 4 1264 453
2.123152 0.44923753 0.64979953 500 47056640 2553 4 1344 2553
2.1247315 0.42239988 0.64870441 534 47253504 2716 4 1304 2716
2.1250272 0.39541546 0.64733541 488 47447296 2472 4 1354 2472
2.1173997 0.36717424 0.64377612 213 47643904 1065 4 1187 1065
2.1226957 0.34131536 0.64404994 78 47835904 390 4 1237 390
2.0991333 0.31115615 0.63611001 444 48031744 2167 4 1367 2167
2.1037464 0.28550231 0.63638377 529 48226304 2584 4 1328 2584
2.1013641 0.25895983 0.63474101 455 48423680 2210 4 1388 2210
2.1015158 0.23283614 0.63391966 429 48619520 2079 4 1361 2079
2.1505764 0.59488589 0.61230725 486 46081792 2587 5 1534 2587
2.153971 0.56746459 0.611301 476 46276352 2526 5 1546 2526
2.1570168 0.54004967 0.61029476 571 46473728 3017 5 1558 3017
2.1521809 0.51085877 0.60727596 519 46668544 2714 5 1537 2714
2.1205125 0.47593826 0.59721345 112 46864128 568 5 1444 568
2.1385033 0.45248285 0.60048378 396 47056640 2025 5 1435 2025
2.1334527 0.42413202 0.59771657 473 47253504 2393 5 1573 2393
2.1270783 0.39579675 0.59469783 360 47447296 1803 5 1533 1803
2.1088877 0.36569977 0.58866036 75 47643904 371 5 1355 371
2.1074831 0.33887208 0.58715099 59 47835904 290 5 1419 290
2.1076534 0.31241754 0.58614475 72 48031744 352 5 1461 352
2.1142056 0.2869198 0.5868994 437 48226304 2127 5 1536 2127
2.108922 0.25988984 0.58463532 553 48423680 2669 5 1479 2669
2.1061807 0.23335211 0.58312595 506 48619520 2430 5 1558 2430
2.1011801 0.20673174 0.58111346 515 48815360 2455 5 1558 2455
2.0958443 0.18026935 0.57910097 563 49010688 2663 5 1613 2663
2.0950029 0.15432376 0.57834625 528 49208064 2490 5 1628 2490
2.0977051 0.1286623 0.57859784 588 49402112 2775 5 1592 2775
2.0730255 0.10163572 0.57180566 157 49597952 723 5 1648 723
2.1733191 0.62998188 0.56505585 434 45887744 2350 6 1444 2350
2.1658745 0.59911472 0.56139135 80 46081792 430 6 1403 430
2.1796529 0.57422578 0.5629946 484 46276352 2600 6 1441 2600
2.1837025 0.54672611 0.56230748 563 46473728 3017 6 1414 3017
2.161833 0.51314807 0.55543655 215 46668544 1124 6 1427 1124
2.1603687 0.48487636 0.5536043 72 46864128 377 6 1309 377
2.1671085 0.45853016 0.55383337 81 47056640 424 6 1369 424
2.2012153 0.4375909 0.56070429 122 47253504 653 6 1328 653
2.1346426 0.39720291 0.54352701 524 47447296 2613 6 1414 2613
2.1364789 0.37047923 0.54283988 572 47643904 2844 6 1449 2844
2.1360588 0.34346163 0.54169476 529 47835904 2618 6 1408 2618
2.1189284 0.31408677 0.53665608 384 48031744 1863 6 1427 1863
2.1255169 0.2884528 0.53734314 568 48226304 2762 6 1416 2762
2.1192353 0.26115888 0.53505284 539 48423680 2597 6 1481 2597
2.1174431 0.23459786 0.53390771 511 48619520 2452 6 1413 2452
2.0978811 0.20640776 0.52864003 100 48815360 473 6 1381 473
2.093467 0.1800653 0.52703679 70 49010688 330 6 1382 330
2.0955191 0.15436168 0.52703679 68 49208064 320 6 1431 320
2.0972555 0.12863481 0.52703679 77 49402112 362 6 1400 362
2.0899258 0.10246119 0.52497554 502 49597952 2324 6 1386 2324
2.0851891 0.076593548 0.52360135 497 49793280 2288 6 1474 2288
2.0830526 0.050928462 0.52291423 538 49987840 2468 6 1461 2468
2.0786541 0.025304021 0.52176911 573 50182144 2618 6 1470 2618
2.0700474 -0.00020368138 0.5197078 329 50377984 1492 6 1434 1492
2.1983294 0.66699761 0.51668984 279 45694976 1543 7 1766 1543
2.1894314 0.63506657 0.51298124 166 45887744 902 7 1688 902
2.1649935 0.59928083 0.50597614 81 46081792 427 7 1676 427
2.1702921 0.57216936 0.50556403 67 46276352 357 7 1770 357
2.1657591 0.54264146 0.50309163 310 46473728 1619 7 1790 1619
2.1617823 0.51353747 0.50082529 684 46668544 3534 7 1743 3534
2.1707857 0.48761326 0.50144339 662 46864128 3429 7 1765 3429
2.1469281 0.45465821 0.49505636 455 47056640 2294 7 1854 2294
2.1494665 0.42770547 0.49443826 603 47253504 3032 7 1769 3032
2.1516671 0.40075898 0.49382016 634 47447296 3178 7 1859 3178
2.1554589 0.37415734 0.49361411 693 47643904 3469 7 1840 3469
2.145396 0.34534821 0.49052361 462 47835904 2280 7 1654 2280
2.1291451 0.31598189 0.48619691 79 48031744 382 7 1701 382
2.1299534 0.28943545 0.48557881 88 48226304 429 7 1718 429
2.1284888 0.26267746 0.48454866 73 48423680 355 7 1770 355
2.1218262 0.23546033 0.4824883 461 48619520 2198 7 1861 2198
2.1284511 0.20978776 0.48331246 222 48815360 1065 7 1764 1065
2.1084416 0.18172404 0.47857368 107 49010688 501 7 1648 501
2.1095369 0.15576465 0.47836766 81 49208064 382 7 1753 382
2.1093361 0.12974586 0.47795558 555 49402112 2593 7 1877 2593
2.1058826 0.10361175 0.4769254 546 49597952 2538 7 1944 2538
2.1050398 0.077689707 0.47651336 558 49793280 2589 7 1870 2589
2.1087694 0.051923506 0.47713146 657 49987840 3056 7 1922 3056
2.0857644 0.025756113 0.47218665 126 50182144 577 7 1729 577
2.0771165 0.00015959673 0.47033235 112 50377984 509 7 1761 509
2.0857685 -0.025438866 0.47218665 653 50574592 2970 7 1917 2970
2.0804079 -0.050911929 0.47115648 702 50770176 3180 7 1868 3180
2.0757151 -0.076293401 0.47033235 679 50965504 3066 7 1798 3066
2.0648489 -0.10127866 0.468272 535 51160064 2393 7 1771 2393
2.1974773 0.66673923 0.46019623 519 45694976 2835 8 1555 2835
2.1979394 0.63753277 0.45873421 569 45887744 3088 8 1504 3088
2.1970692 0.60815364 0.45708945 531 46081792 2859 8 1579 2859
2.176796 0.57388276 0.45178971 431 46276352 2263 8 1518 2263
2.1798596 0.54617178 0.45105872 645 46473728 3374 8 1484 3374
2.1806583 0.51801807 0.4499622 629 46668544 3271 8 1618 3271
2.1839731 0.49057311 0.44941396 627 46864128 3253 8 1536 3253
2.1609728 0.45762989 0.44393143 223 47056640 1129 8 1465 1129
2.1625688 0.43031019 0.44320044 78 47253504 395 8 1438 395
2.1667199 0.40355989 0.44301769 52 47447296 264 8 1474 264
2.1531038 0.37374896 0.43954542 121 47643904 600 8 1517 600
2.1458797 0.34542599 0.43735242 604 47835904 2957 8 1539 2957
2.1489847 0.31892258 0.43716967 124 48031744 608 8 1495 608
2.1498137 0.29213059 0.43662143 62 48226304 304 8 1495 304
2.1200602 0.26163882 0.43040791 339 48423680 1604 8 1486 1604
2.1279972 0.23614401 0.43132168 590 48619520 2802 8 1584 2802
2.128778 0.20981991 0.43095616 593 48815360 2811 8 1530 2811
2.130213 0.18359649 0.43077341 598 49010688 2830 8 1618 2830
2.1146564 0.15614173 0.42748392 209 49208064 974 8 1499 974
2.1046376 0.12945771 0.42529091 80 49402112 370 8 1466 370
2.1119597 0.10390963 0.4263874 262 49597952 1215 8 1513 1215
2.1140583 0.078020893 0.42657015 563 49793280 2609 8 1635 2609
2.0942163 0.051567834 0.42273241 129 49987840 589 8 1439 589
2.0937083 0.025852738 0.42254966 83 50182144 379 8 1475 379
2.0801039 0.00015927089 0.41999114 113 50377984 508 8 1474 508
2.0691352 -0.02523292 0.41798091 130 50574592 578 8 1475 578
2.0834126 -0.050986018 0.42072216 609 50770176 2739 8 1592 2739
2.0816476 -0.07651256 0.42053941 628 50965504 2823 8 1542 2823
2.077606 -0.10190678 0.41999114 630 51160064 2824 8 1579 2824
2.0732551 -0.12721334 0.41944289 635 51357440 2837 8 1627 2837
2.067616 -0.15235606 0.4187119 687 51552768 3057 8 1630 3057
2.0577545 -0.17704174 0.41724989 721 51750144 3185 8 1633 3185
2.0564053 -0.20237669 0.41743264 637 51943936 2817 8 1543 2817
2.2154233 0.7015537 0.40799889 471 45500160 2611 9 1704 2611
2.2134724 0.67116463 0.40624967 521 45694976 2866 9 1725 2866
2.2101624 0.64065492 0.40434143 599 45887744 3257 9 1596 3257
2.2131 0.61216933 0.40354633 610 46081792 3301 9 1642 3301
2.1898937 0.57692188 0.39845771 94 46276352 497 9 1505 497
2.1853156 0.54712963 0.39654946 56 46473728 293 9 1552 293
2.1928258 0.52049911 0.39670849 73 46668544 381 9 1634 381
2.174001 0.48793355 0.39257398 323 46864128 1648 9 1573 1648
2.1836886 0.46203527 0.39321005 656 47056640 3356 9 1600 3356
2.1775737 0.43289527 0.39130181 91 47253504 462 9 1576 462
2.1759276 0.40487742 0.39018866 61 47447296 308 9 1593 308
2.1612763 0.37477475 0.38700828 695 47643904 3433 9 1696 3433
2.1608388 0.34744155 0.38621318 681 47835904 3348 9 1690 3348
2.1600566 0.32017565 0.38541809 673 48031744 3300 9 1718 3300
2.137408 0.29006436 0.38112456 481 48226304 2298 9 1664 2298
2.1408067 0.26381323 0.38112456 83 48423680 397 9 1650 397
2.1399577 0.23708822 0.38048849 81 48619520 387 9 1539 387
2.1240375 0.20897646 0.3774671 423 48815360 1979 9 1620 1979
2.126442 0.18289551 0.3774671 266 49010688 1244 9 1637 1244
2.1255724 0.15656999 0.37699005 81 49208064 379 9 1585 379
2.1263483 0.13041389 0.37683102 67 49402112 314 9 1553 314
2.1268024 0.10426234 0.376672 89 49597952 416 9 1482 416
2.1022699 0.077217817 0.37253749 481 49793280 2186 9 1711 2186
2.1089809 0.051557612 0.37349162 636 49987840 2908 9 1760 2908
2.1045189 0.025614111 0.37269652 733 50182144 3333 9 1710 3333
2.0987511 -0.00021182223 0.3717424 689 50377984 3116 9 1693 3116
2.0936544 -0.025904734 0.3709473 647 50574592 2911 9 1692 2911
2.0912049 -0.051546127 0.37062925 781 50770176 3509 9 1704 3509
2.0884418 -0.077131309 0.3703112 671 50965504 3009 9 1624 3009
2.0853658 -0.10265645 0.36999318 664 51160064 2975 9 1733 2975
2.0671973 -0.12720543 0.36728984 275 51357440 1212 9 1630 1212
2.0635114 -0.15241772 0.36697179 205 51552768 903 9 1524 903
2.0595183 -0.17755874 0.36665377 285 51750144 1251 9 1588 1251
2.0434296 -0.20146015 0.36442748 330 51943936 1429 9 1649 1429
2.0614092 -0.22881205 0.36776689 749 52141312 3307 9 1631 3307
2.0535471 -0.25348583 0.36697179 791 52335872 3477 9 1712 3477
2.0453906 -0.27800119 0.36617669 803 52531200 3512 9 1666 3512
2.0369422 -0.30235466 0.3653816 820 52727040 3571 9 1687 3571
2.2370956 0.73873663 0.35635805 400 45303040 2267 10 1792 2267
2.2185993 0.70255882 0.3524273 89 45500160 492 10 1627 492
2.2156754 0.67183226 0.35080078 83 45694976 455 10 1591 455
2.2199464 0.64348924 0.35025862 83 45887744 452 10 1655 452
2.2018921 0.60907114 0.34659898 479 46081792 2548 10 1682 2548
2.205368 0.58099568 0.34605679 715 46276352 3791 10 1711 3791
2.1815748 0.54619378 0.34171942 189 46473728 975 10 1647 975
2.1823292 0.51800948 0.34090617 204 46668544 1046 10 1699 1046
2.1856213 0.49053952 0.34049955 709 46864128 3630 10 1730 3630
2.184691 0.46224716 0.33955076 768 47056640 3908 10 1747 3908
2.1892271 0.43520984 0.33941522 759 47253504 3860 10 1769 3860
2.1651804 0.40287966 0.33534893 186 47447296 921 10 1606 921
2.1611753 0.37475726 0.33412904 82 47643904 402 10 1634 402
2.1616986 0.34757963 0.33358687 97 47835904 474 10 1627 474
2.1589406 0.32001039 0.33263808 528 48031744 2568 10 1771 2568
2.1499414 0.29176301 0.33087602 108 48226304 518 10 1644 518
2.14746 0.26463193 0.33006278 86 48423680 411 10 1661 411
2.1475914 0.23793259 0.32965612 72 48619520 343 10 1608 343
2.1434472 0.21088259 0.32870734 377 48815360 1782 10 1701 1782
2.140938 0.1841397 0.32802963 648 49010688 3052 10 1785 3052
2.1390841 0.15756281 0.32748747 670 49208064 3145 10 1814 3145
2.1359119 0.13099872 0.32680973 655 49402112 3059 10 1838 3059
2.1334002 0.10458459 0.32626757 483 49597952 2250 10 1754 2250
2.1206615 0.077889994 0.32436997 636 49793280 2923 10 1828 2923
2.1155148 0.051716149 0.32355672 664 49987840 3034 10 1896 3034
2.1140087 0.025727881 0.32328564 758 50182144 3457 10 1815 3457
2.1082206 -0.00021450793 0.32247236 319 50377984 1449 10 1749 1449
2.0922081 -0.025886573 0.32030371 142 50574592 634 10 1621 634
2.0828187 -0.051337875 0.31908381 160 50770176 708 10 1660 708
2.0701509 -0.076452419 0.31745729 173 50965504 757 10 1617 757
2.0740047 -0.10209507 0.31813502 555 51160064 2443 10 1757 2443
2.0706177 -0.12741654 0.31786394 255 51357440 1123 10 1744 1123
2.0659339 -0.15259711 0.31745729 218 51552768 954 10 1679 954
2.0619316 -0.17776725 0.31718621 271 51750144 1187 10 1750 1187
2.0615668 -0.20325172 0.31745729 683 51943936 2989 10 1889 2989
2.0539939 -0.22798759 0.31677958 904 52141312 3938 10 1870 3938
2.0510416 -0.25317609 0.31677958 885 52335872 3857 10 1723 3857
2.0477803 -0.27832645 0.31677958 896 52531200 3904 10 1833 3904
2.0393105 -0.30270663 0.31610188 1073 52727040 4651 10 1842 4651
2.0344641 -0.32755166 0.31596634 1186 52920064 5134 10 1689 5134
2.0361481 -0.35351095 0.31677958 951 53114624 4144 10 1804 4144
2.0326307 -0.37865263 0.31691512 964 53311232 4203 10 1806 4203
2.0288026 -0.40376121 0.31705067 909 53504000 3967 10 1764 3967
2.288259 0.78689253 0.30542538 199 45111296 1181 11 1585 1181
2.2373452 0.738819 0.29830247 569 45303040 3202 11 1469 3202
2.2452958 0.71100789 0.29819116 582 45500160 3274 11 1395 3274
2.2538517 0.68340111 0.29819116 479 45694976 2695 11 1438 2695
2.2105231 0.64075941 0.29218119 269 45887744 1448 11 1341 1448
2.2210934 0.61437899 0.2925151 632 46081792 3403 11 1438 3403
2.2198162 0.58479941 0.29151344 650 46276352 3474 11 1373 3474
2.2200768 0.55582643 0.29073438 681 46473728 3619 11 1343 3619
2.1948209 0.52097231 0.2870616 84 46668544 437 11 1287 437
2.1923213 0.49204209 0.28605995 89 46864128 459 11 1339 459
2.1865268 0.46263528 0.28472441 94 47056640 475 11 1281 475
2.1774182 0.43286437 0.28305498 190 47253504 948 11 1273 948
2.178658 0.40538502 0.28260979 108 47447296 541 11 1349 541
2.1815102 0.37827975 0.2823872 84 47643904 421 11 1343 421
2.1830444 0.351008 0.28205332 83 47835904 411 11 1242 411
2.1744075 0.32230026 0.28060648 757 48031744 3708 11 1375 3708
2.1713054 0.29465839 0.27982742 761 48226304 3706 11 1351 3706
2.1688397 0.26726273 0.27915964 696 48423680 3369 11 1496 3369
2.1551642 0.23877023 0.27726761 526 48619520 2508 11 1428 2508
2.1430964 0.21084815 0.27559817 391 48815360 1840 11 1404 1840
2.1504734 0.1849581 0.27615467 626 49010688 2957 11 1446 2957
2.150599 0.15840891 0.27593207 638 49208064 3007 11 1530 3007
2.1236148 0.13024673 0.27270451 342 49402112 1572 11 1405 1572
2.1151271 0.10369208 0.27159154 77 49597952 350 11 1260 350
2.1082954 0.077438042 0.27070117 78 49793280 356 11 1309 356
2.109087 0.051560182 0.27070117 89 49987840 405 11 1348 405
2.1055861 0.025626903 0.27025598 470 50182144 2113 11 1462 2113
2.1017668 -0.00021267752 0.26981083 585 50377984 2621 11 1413 2621
2.0946498 -0.025917232 0.26903173 165 50574592 737 11 1335 737
2.0971546 -0.051693868 0.26936564 116 50770176 521 11 1302 521
2.0904038 -0.077204131 0.26869786 464 50965504 2059 11 1392 2059
2.0902915 -0.10289983 0.26880917 669 51160064 2971 11 1455 2971
2.0878794 -0.12848195 0.26869786 752 51357440 3338 11 1403 3338
2.0841634 -0.153947 0.26847526 760 51552768 3365 11 1473 3365
2.0583549 -0.17745821 0.26580417 481 51750144 2082 11 1437 2082
2.0728347 -0.20436473 0.2676962 313 51943936 1378 11 1407 1378
2.0731339 -0.23011567 0.26803008 759 52141312 3350 11 1369 3350
2.0671952 -0.25517309 0.2676962 806 52335872 3543 11 1467 3543
2.0629234 -0.28038752 0.26758492 778 52531200 3419 11 1377 3419
2.0494974 -0.30422068 0.26647195 900 52727040 3918 11 1375 3918
2.0485532 -0.32982269 0.26680583 1134 52920064 4949 11 1475 4949
2.0433724 -0.35476658 0.26669455 1244 53114624 5421 11 1440 5421
2.0359342 -0.37926865 0.26636064 1222 53311232 5314 11 1453 5314
2.0369744 -0.40538907 0.26702842 990 53504000 4326 11 1505 4326
2.029902 -0.42994314 0.26680583 942 53699584 4112 11 1410 4112
2.024473 -0.45482081 0.26680583 848 53895680 3702 11 1407 3702
2.019706 -0.47985986 0.26691714 808 54088192 3530 11 1398 3530
2.0146294 -0.50485039 0.26702842 744 54280448 3252 11 1465 3252
2.2476757 0.77294379 0.24275602 497 45111296 2833 12 2265 2833
2.2484775 0.74249315 0.24197161 555 45303040 3141 12 2176 3141
2.2498217 0.71244025 0.24127437 583 45500160 3278 12 2219 3278
2.2545815 0.68362224 0.24092574 572 45694976 3205 12 2158 3205
2.2168717 0.64259851 0.23674227 61 45887744 328 12 2060 328
2.2169089 0.6132223 0.23604503 75 46081792 401 12 2045 401
2.2146337 0.583435 0.23517346 83 46276352 443 12 2147 443
2.2274249 0.55766481 0.23569641 601 46473728 3196 12 2080 3196
2.2050216 0.52339178 0.23308173 97 46668544 504 12 2008 504
2.2112784 0.49629337 0.23308173 89 46864128 461 12 2129 461
2.2201262 0.46973833 0.2333432 310 47056640 1615 12 2153 1615
2.1944559 0.43624833 0.23055421 735 47253504 3714 12 2219 3714
2.194747 0.40837583 0.23011844 704 47447296 3538 12 2041 3538
2.1927221 0.3802219 0.22950834 712 47643904 3555 12 2123 3555
2.1814854 0.35075763 0.22811386 179 47835904 885 12 2155 885
2.1738 0.32221031 0.22706799 365 48031744 1778 12 2107 1778
2.1687059 0.29430607 0.22628358 737 48226304 3564 12 2248 3564
2.1721542 0.26767057 0.22628358 652 48423680 3151 12 2212 3151
2.1653738 0.23989952 0.22541203 105 48619520 503 12 2069 503
2.1661718 0.21311426 0.22523771 94 48815360 449 12 2075 449
2.1626687 0.18600482 0.22471479 81 49010688 385 12 2081 385
2.1290219 0.15682344 0.22157717 304 49208064 1400 12 2182 1400
2.15465 0.13214459 0.22366892 647 49402112 3041 12 2283 3041
2.1322293 0.10452739 0.22157717 334 49597952 1538 12 2206 1538
2.1124454 0.077589706 0.2197469 111 49793280 501 12 2068 501
2.1281769 0.052023396 0.22105424 412 49987840 1886 12 2142 1886
2.1316433 0.025939301 0.22131571 704 50182144 3229 12 2307 3229
2.1288126 -0.00022034817 0.22105424 774 50377984 3539 12 2169 3539
2.1256611 -0.026306614 0.22079277 749 50574592 3417 12 2237 3417
2.1012771 -0.051796239 0.21870103 390 50770176 1741 12 2191 1741
2.0885372 -0.077134848 0.21765517 117 50965504 516 12 2033 516
2.0953932 -0.10315191 0.21835241 208 51160064 923 12 2062 923
2.1068954 -0.12965564 0.21948543 648 51357440 2914 12 2189 2914
2.0753415 -0.15329373 0.21687077 418 51552768 1828 12 2209 1828
2.0842216 -0.1796931 0.21782948 228 51750144 1006 12 2036 1006
2.0739286 -0.20447277 0.21713223 281 51943936 1232 12 2023 1232
2.0682929 -0.22957742 0.21687077 341 52141312 1489 12 2108 1489
2.0742178 -0.25604129 0.21765517 632 52335872 2784 12 2140 2784
2.0640101 -0.28053543 0.21704507 913 52531200 3996 12 2245 3996
2.0594265 -0.30569643 0.21695791 881 52727040 3855 12 2160 3855
2.0584707 -0.33142135 0.21721938 811 52920064 3555 12 2089 3555
2.0503228 -0.35597461 0.21687077 910 53114624 3976 12 2168 3976
2.0438414 -0.38074318 0.21669646 971 53311232 4234 12 2295 4234
2.0390153 -0.4057956 0.21669646 909 53504000 3965 12 2227 3965
2.0348566 -0.4309935 0.21678361 951 53699584 4152 12 2153 4152
2.0303862 -0.45615041 0.21687077 893 53895680 3897 12 2129 3897
2.0256047 -0.48126248 0.21695791 817 54088192 3574 12 2209 3574
2.2731774 0.81303585 0.18707781 417 44914944 2446 13 1372 2446
2.2499492 0.77372521 0.18488014 74 45111296 426 13 1304 426
2.2545359 0.74449265 0.18456618 66 45303040 373 13 1276 373
2.2577932 0.71496314 0.18418944 65 45500160 371 13 1291 371
2.2444286 0.68054557 0.18274525 592 45694976 3273 13 1376 3273
2.2372732 0.64850855 0.18174061 473 45887744 2582 13 1316 2582
2.2537205 0.62339818 0.18230572 77 46081792 422 13 1283 422
2.2399678 0.59010464 0.18092433 462 46276352 2494 13 1348 2494
2.2315495 0.55869675 0.17991967 700 46473728 3726 13 1330 3726
2.2275558 0.52873653 0.17922899 732 46668544 3857 13 1411 3857
2.2260857 0.49961403 0.17872666 625 46864128 3271 13 1358 3271
2.1998265 0.46544689 0.17665458 91 47056640 467 13 1288 467
2.1994991 0.43725002 0.17627783 109 47253504 551 13 1229 551
2.2145114 0.41204986 0.17690574 717 47447296 3657 13 1307 3657
2.1820326 0.37837023 0.1745197 277 47643904 1369 13 1296 1369
2.1855261 0.35140657 0.17445691 77 47835904 379 13 1263 379
2.1847374 0.32382956 0.17414296 89 48031744 436 13 1245 436
2.1855798 0.29659298 0.17395458 79 48226304 390 13 1319 390
2.1771684 0.26828757 0.1732011 708 48423680 3425 13 1424 3425
2.1773207 0.24122098 0.17301272 741 48619520 3575 13 1377 3575
2.1612451 0.21263044 0.1718197 491 48815360 2329 13 1409 2329
2.1477818 0.18472709 0.17081505 236 49010688 1106 13 1297 1106
2.1578498 0.15894169 0.17131738 653 49208064 3073 13 1478 3073
2.1596377 0.13244958 0.17131738 684 49402112 3218 13 1507 3218
2.1541226 0.10559672 0.17087784 608 49597952 2843 13 1504 2843
2.1303222 0.078243077 0.16930808 367 49793280 1677 13 1435 1677
2.1261332 0.051973809 0.16899413 91 49987840 413 13 1250 413
2.1196253 0.025795218 0.16855459 98 50182144 446 13 1329 446
2.1247723 -0.00021920229 0.16886854 299 50377984 1360 13 1292 1360
2.1066465 -0.026067864 0.16773832 483 50574592 2156 13 1406 2156
2.1101589 -0.052016798 0.16798948 121 50770176 542 13 1209 542
2.107367 -0.077833742 0.16786391 100 50965504 451 13 1292 451
2.1022661 -0.10349151 0.16761273 134 51160064 596 13 1254 596
2.103826 -0.12946621 0.16780111 448 51357440 2001 13 1436 2001
2.0961072 -0.15483142 0.16742437 732 51552768 3252 13 1419 3252
2.0940492 -0.18054223 0.16742437 758 51750144 3368 13 1428 3368
2.0896897 -0.20602962 0.16729878 854 51943936 3785 13 1450 3785
2.0711334 -0.22989324 0.16629414 547 52141312 2390 13 1388 2390
2.0780611 -0.25651643 0.16692205 909 52335872 4004 13 1396 4004
2.0767348 -0.2822673 0.16704762 858 52531200 3790 13 1379 3790
2.0731144 -0.30773079 0.16704762 947 52727040 4180 13 1432 4180
2.066226 -0.33267143 0.16685925 798 52920064 3513 13 1412 3513
2.0600216 -0.35766035 0.16673367 511 53114624 2248 13 1359 2248
2.0584207 -0.38346192 0.16692205 566 53311232 2496 13 1405 2496
2.0555177 -0.40908301 0.16704762 615 53504000 2718 13 1376 2718
2.0474138 -0.43365565 0.16685925 888 53699584 3908 13 1420 3908
2.0419381 -0.45874789 0.16685925 847 53895680 3728 13 1393 3728
2.2749581 0.81412327 0.12755705 576 44914944 3373 14 1890 3373
2.2772179 0.78354496 0.12725274 521 45111296 3030 14 1933 3030
2.2686331 0.74958736 0.12653001 425 45303040 2434 14 1922 2434
2.263371 0.71716601 0.12595941 389 45500160 2198 14 1940 2198
2.2614822 0.68614733 0.12554099 620 45694976 3472 14 1881 3472
2.2678125 0.65778732 0.1254649 570 45887744 3188 14 1793 3188
2.2429681 0.62085015 0.12417158 412 46081792 2238 14 1910 2238
2.2397888 0.59047842 0.12375315 82 46276352 445 14 1778 445
2.2507436 0.56391907 0.12390531 51 46473728 279 14 1772 279
2.2419381 0.53256398 0.12329669 275 46668544 1467 14 1772 1467
2.2317293 0.50129163 0.12265002 109 46864128 574 14 1869 574
2.2289143 0.47200546 0.12230767 77 47056640 400 14 1707 400
2.2266979 0.44305897 0.12200336 61 47253504 319 14 1765 319
2.1956179 0.40893698 0.12059592 387 47447296 1936 14 1831 1936
2.1985016 0.38162112 0.12051984 703 47643904 3510 14 1835 3510
2.2000594 0.35413748 0.12040572 678 47835904 3376 14 1868 3376
2.1992972 0.32638013 0.12021553 758 48031744 3756 14 1924 3756
2.1932347 0.29802305 0.11983514 714 48226304 3508 14 1831 3508
2.1878009 0.2699863 0.11949278 723 48423680 3522 14 1978 3522
2.1859832 0.24256812 0.11930259 667 48619520 3234 14 1902 3234
2.1878009 0.21562664 0.11926455 600 48815360 2907 14 1987 2907
2.1683788 0.18687895 0.11842769 88 49010688 420 14 1825 420
2.1705089 0.16025552 0.11842769 91 49208064 435 14 1815 435
2.1603432 0.13287397 0.11797123 75 49402112 355 14 1830 355
2.1498342 0.10576615 0.11751476 145 49597952 676 14 1834 676
2.1449788 0.079156376 0.11728653 88 49793280 409 14 1817 409
2.1397946 0.052681744 0.11705829 88 49987840 407 14 1837 407
2.1382816 0.026394898 0.11698221 105 50182144 485 14 1761 485
2.1344473 0.00015334292 0.11683006 371 50377984 1696 14 1926 1696
2.1232975 -0.025903534 0.11641163 775 50574592 3502 14 1996 3502
2.1228197 -0.051957708 0.11641163 728 50770176 3291 14 1922 3291
2.1230206 -0.07804095 0.11644967 720 50965504 3257 14 1916 3257
2.1199071 -0.10398952 0.11637359 547 51160064 2472 14 1866 2472
2.1204662 -0.13011898 0.11644967 705 51357440 3189 14 1985 3189
2.1127303 -0.15568884 0.11622144 721 51552768 3242 14 1987 3242
2.1056828 -0.18117435 0.11603124 788 51750144 3531 14 1787 3531
2.0893786 -0.20562792 0.11549869 557 51943936 2461 14 1958 2461
2.0857048 -0.23114206 0.11546065 200 52141312 884 14 1856 884
2.0817194 -0.25659704 0.11542261 204 52335872 902 14 1833 902
2.0794041 -0.28225821 0.11546065 211 52531200 934 14 1806 934
2.0619454 -0.30570018 0.1149281 405 52727040 1765 14 1901 1765
2.0600119 -0.33129811 0.11500418 352 52920064 1539 14 1739 1539
2.0567758 -0.35672364 0.11504222 334 53114624 1462 14 1747 1462
2.0542083 -0.38230261 0.1151183 393 53311232 1721 14 1840 1721
2.0552423 -0.40865245 0.11534654 424 53504000 1866 14 1920 1866
2.0539832 -0.43467093 0.11549869 744 53699584 3287 14 1950 3287
2.2877884 0.8505227 0.069617763 500 44720640 2983 15 1575 2983
2.2895799 0.81935316 0.069493674 522 44914944 3089 15 1582 3089
2.2918978 0.78859341 0.069383368 524 45111296 3081 15 1625 3081
2.280514 0.75351083 0.06908004 378 45303040 2182 15 1620 2182
2.2752903 0.72094059 0.068873227 53 45500160 305 15 1482 305
2.2724833 0.68948317 0.068707772 55 45694976 313 15 1456 313
2.2577245 0.65486306 0.068376869 96 45887744 533 15 1472 533
2.2453527 0.62150979 0.068087332 401 46081792 2181 15 1520 2181
2.2489429 0.59289008 0.068032183 66 46276352 359 15 1494 359
2.2482893 0.56330466 0.067921877 74 46473728 399 15 1529 399
2.2355754 0.53105366 0.067646123 582 46668544 3077 15 1540 3077
2.2321675 0.50138998 0.06750825 718 46864128 3762 15 1650 3762
2.2332611 0.47292519 0.06743931 715 47056640 3730 15 1573 3730
2.2261472 0.44294947 0.067260072 492 47253504 2538 15 1585 2538
2.2196188 0.41340289 0.067094617 316 47447296 1613 15 1501 1613
2.2176282 0.38493776 0.066998102 646 47643904 3275 15 1603 3275
2.2202106 0.35737759 0.066970527 694 47835904 3514 15 1544 3514
2.1858542 0.32438755 0.066432811 221 48031744 1081 15 1527 1081
2.180753 0.2963292 0.066308722 94 48226304 458 15 1469 458
2.1752934 0.26844507 0.066184632 91 48423680 438 15 1568 438
2.172461 0.24107005 0.066101909 72 48619520 346 15 1487 346
2.187197 0.21556725 0.066267356 654 48815360 3160 15 1642 3160
2.1657681 0.1866544 0.065936454 83 49010688 395 15 1458 395
2.1678956 0.16006304 0.065936454 74 49208064 351 15 1537 351
2.181673 0.13418205 0.066101909 190 49402112 910 15 1553 910
2.1681747 0.10666515 0.065895088 624 49597952 2943 15 1699 2943
2.1663227 0.0799402 0.06585373 608 49793280 2860 15 1691 2860
2.1631422 0.053252347 0.065798581 672 49987840 3148 15 1670 3148
2.150635 0.026545158 0.065619335 446 50182144 2066 15 1542 2066
2.1427996 0.00015243184 0.065509036 245 50377984 1126 15 1610 1126
2.1476393 -0.026204923 0.065577976 722 50574592 3337 15 1725 3337
2.1491551 -0.052607082 0.065605551 693 50770176 3206 15 1695 3206
2.1263647 -0.078164481 0.065302223 486 50965504 2201 15 1670 2201
2.1192534 -0.10395733 0.065219499 99 51160064 447 15 1534 447
2.1158221 -0.12983315 0.065191917 97 51357440 438 15 1490 438
2.1110778 -0.15556677 0.065150559 102 51552768 459 15 1462 459
2.1179757 -0.1822343 0.065274648 318 51750144 1438 15 1586 1438
2.1115997 -0.20781894 0.065219499 667 51943936 3005 15 1637 3005
2.0919957 -0.23184043 0.064985104 185 52141312 821 15 1520 821
2.0909779 -0.25773999 0.065012679 146 52335872 650 15 1482 650
2.0708141 -0.28109062 0.064778291 386 52531200 1689 15 1547 1689
2.0899572 -0.30985847 0.06509541 794 52727040 3546 15 1687 3546
2.0869846 -0.33564109 0.065109193 883 52920064 3947 15 1618 3947
2.0807383 -0.36088422 0.065081619 893 53114624 3985 15 1675 3985
2.07517 -0.38620779 0.065067828 884 53311232 3942 15 1672 3942
2.0702746 -0.41164422 0.065067828 821 53504000 3660 15 1612 3660
2.2937257 0.78967267 0.0092584342 449 45111296 2647 16 1363 2647
2.2918501 0.75770098 0.0093924729 524 45303040 3056 16 1231 3056
2.2904902 0.72619689 0.0095153414 419 45500160 2421 16 1260 2421
2.2714803 0.68961477 0.0098392684 70 45694976 395 16 1195 395
2.2644062 0.65723127 0.010017986 541 45887744 3015 16 1290 3015
2.2655551 0.6275267 0.010096175 541 46081792 2992 16 1271 2992
2.2711513 0.59916776 0.010118515 579 46276352 3197 16 1246 3197
2.2482646 0.56371826 0.010464781 288 46473728 1550 16 1153 1550
2.2238812 0.5286907 0.010822217 79 46668544 414 16 1187 414
2.2380066 0.50311369 0.010732858 442 46864128 2329 16 1195 2329
2.2410774 0.47499052 0.010766367 647 47056640 3398 16 1272 3398
2.2241812 0.44296503 0.011023275 88 47253504 453 16 1234 453
2.2255173 0.41490516 0.011067954 71 47447296 365 16 1154 365
2.2265005 0.38687935 0.011112634 79 47643904 405 16 1136 405
2.2054124 0.35539588 0.01140305 434 47835904 2168 16 1198 2168
2.222466 0.33021355 0.011257842 681 48031744 3440 16 1245 3440
2.1946442 0.29860723 0.011615278 333 48226304 1635 16 1214 1635
2.2130296 0.2734901 0.01144773 82 48423680 409 16 1166 409
2.1933608 0.24377577 0.011704637 610 48619520 2971 16 1276 2971
2.1872311 0.21595882 0.011805166 727 48815360 3515 16 1236 3515
2.1877241 0.18893015 0.011827506 582 49010688 2812 16 1357 2812
2.185889 0.16177469 0.011872185 605 49208064 2909 16 1263 2909
2.1517797 0.13272853 0.012274301 97 49402112 451 16 1244 451
2.1612363 0.10670593 0.012184942 131 49597952 614 16 1211 614
2.1723754 0.080544904 0.012073243 555 49793280 2629 16 1301 2629
2.1612048 0.053585187 0.012207282 447 49987840 2089 16 1279 2089
2.1497014 0.02691181 0.01234132 98 50182144 454 16 1153 454
2.1498697 0.00052964146 0.01234132 87 50377984 403 16 1161 403
2.1487143 -0.0258404 0.01235249 89 50574592 412 16 1146 412
2.1372395 -0.051937267 0.012475358 269 50770176 1231 16 1182 1231
2.135442 -0.078123838 0.012486529 672 50965504 3073 16 1369 3073
2.1333237 -0.10427411 0.012497698 550 51160064 2511 16 1259 2511
2.1328816 -0.13050668 0.012486529 100 51357440 457 16 1231 457
2.0962162 -0.15409827 0.012877474 313 51552768 1385 16 1203 1385
2.1160851 -0.18169646 0.012631737 753 51750144 3403 16 1295 3403
2.1127009 -0.20755245 0.012642907 775 51943936 3496 16 1283 3496
2.1090009 -0.23335275 0.012654076 775 52141312 3495 16 1329 3495
2.1149104 -0.26031691 0.012553548 569 52335872 2589 16 1298 2589
2.0947123 -0.28396389 0.012743436 110 52531200 492 16 1191 492
2.0821676 -0.30832794 0.012843965 265 52727040 1176 16 1204 1176
2.0821762 -0.33449125 0.012799284 824 52920064 3671 16 1330 3671
2.0788999 -0.36018845 0.012788115 904 53114624 4030 16 1300 4030
2.0772724 -0.38622153 0.012754605 782 53311232 3493 16 1216 3493
2.2756827 0.66006869 -0.048069097 522 45887744 2935 17 1276 2935
2.2787955 0.63076067 -0.047890238 546 46081792 3061 17 1304 3061
2.2815323 0.60147589 -0.04771138 400 46276352 2231 17 1204 2231
2.2712917 0.56906372 -0.047067489 76 46473728 418 17 1189 418
2.2771316 0.54091781 -0.047031719 68 46668544 374 17 1180 374
2.2826228 0.51271433 -0.046995949 68 46864128 374 17 1182 374
2.2369239 0.47370023 -0.045100052 671 47056640 3512 17 1265 3512
2.2406082 0.44582433 -0.045028508 666 47253504 3482 17 1209 3482
2.2439454 0.41792944 -0.044956967 629 47447296 3283 17 1174 3283
2.2203498 0.38540968 -0.043919589 448 47643904 2280 17 1237 2280
2.2229388 0.35781625 -0.043848045 661 47835904 3357 17 1222 3357
2.2222197 0.32977781 -0.043669187 704 48031744 3559 17 1205 3559
2.2221379 0.30194536 -0.043526102 674 48226304 3396 17 1204 3396
2.2197249 0.27392024 -0.043311473 128 48423680 642 17 1158 642
2.1931207 0.24335887 -0.042238321 75 48619520 367 17 1159 367
2.1919637 0.2160362 -0.042095236 72 48815360 350 17 1214 350
2.1914628 0.18886426 -0.041987922 393 49010688 1904 17 1245 1904
2.1876354 0.16151696 -0.041773293 69 49208064 333 17 1197 333
2.1864603 0.13447563 -0.041665975 80 49402112 385 17 1187 385
2.1879458 0.10763428 -0.041665975 89 49597952 428 17 1165 428
2.1741216 0.080226593 -0.041129403 189 49793280 897 17 1167 897
2.1749425 0.05354074 -0.041129403 590 49987840 2800 17 1355 2800
2.1724379 0.026810354 -0.041022088 664 50182144 3142 17 1372 3142
2.1686058 0.00014961681 -0.040879 595 50377984 2806 17 1380 2806
2.1504571 -0.026239816 -0.040235113 267 50574592 1237 17 1211 1237
2.1569667 -0.052799698 -0.040485512 580 50770176 2707 17 1344 2707
2.1501644 -0.079043671 -0.040270884 644 50965504 2991 17 1331 2991
2.1470361 -0.10532525 -0.040199339 659 51160064 3054 17 1355 3054
2.1346097 -0.13098946 -0.039805852 467 51357440 2139 17 1218 2139
2.1268618 -0.15673278 -0.039591223 81 51552768 369 17 1224 369
2.1227868 -0.18264915 -0.039519679 78 51750144 355 17 1217 355
2.1213801 -0.20878331 -0.039555453 207 51943936 943 17 1145 943
2.1176651 -0.23468994 -0.039519679 522 52141312 2378 17 1298 2378
2.1047072 -0.25943488 -0.039161965 108 52335872 487 17 1159 487
2.0983944 -0.28483951 -0.039054647 88 52531200 396 17 1152 396
2.0927639 -0.31027511 -0.038983107 105 52727040 470 17 1247 470
2.0986652 -0.33752182 -0.03934082 207 52920064 938 17 1165 938
2.1002731 -0.36427602 -0.039555453 687 53114624 3131 17 1328 3131
2.2618406 0.53728825 -0.10261919 567 46668544 3076 18 1609 3076
2.2565761 0.5068683 -0.10189915 593 46864128 3185 18 1565 3185
2.25579 0.47769207 -0.10147912 651 47056640 3476 18 1590 3476
2.2556081 0.44880629 -0.1011191 620 47253504 3294 18 1477 3294
2.2423 0.41762325 -0.099979043 430 47447296 2249 18 1436 2249
2.2344701 0.38785821 -0.099198997 65 47643904 339 18 1394 339
2.2390616 0.36040863 -0.099198997 86 47835904 447 18 1470 447
2.2294919 0.33085576 -0.098358952 74 48031744 379 18 1508 379
2.2165689 0.30118963 -0.0973389 468 48226304 2353 18 1536 2353
2.2131631 0.27311167 -0.096918873 102 48423680 512 18 1410 512
2.2123797 0.24549252 -0.09667886 56 48619520 281 18 1438 281
2.2122455 0.21803153 -0.096498854 72 48815360 359 18 1490 359
2.1938694 0.18907124 -0.095238782 543 49010688 2644 18 1541 2644
2.1920424 0.16184156 -0.094998769 550 49208064 2669 18 1510 2669
2.1848962 0.13437973 -0.094458744 514 49402112 2474 18 1525 2474
2.1813958 0.10731322 -0.094158724 473 49597952 2267 18 1547 2267
2.1755657 0.080279633 -0.093738705 428 49793280 2037 18 1589 2037
2.1743913 0.05352727 -0.093618698 571 49987840 2713 18 1544 2713
2.1748846 0.026840113 -0.093618698 653 50182144 3102 18 1584 3102
2.1720555 0.00014924051 -0.093438685 514 50377984 2435 18 1595 2435
2.1539276 -0.026282784 -0.092358626 88 50574592 412 18 1473 412
2.1484535 -0.052589782 -0.092058614 76 50770176 354 18 1484 354
2.1436563 -0.078803249 -0.091818601 61 50965504 284 18 1424 284
2.1285698 -0.10441604 -0.090978555 162 51160064 741 18 1488 741
2.1380877 -0.13120352 -0.091638587 83 51357440 385 18 1412 385
2.1393032 -0.15765189 -0.091818601 64 51552768 298 18 1450 298
2.138202 -0.1839783 -0.0918786 59 51750144 275 18 1447 275
2.1377699 -0.21039937 -0.091998607 209 51943936 970 18 1543 970
2.1241138 -0.2354058 -0.091338575 626 52141312 2871 18 1639 2871
2.1200745 -0.26133192 -0.091278568 674 52335872 3090 18 1590 3090
2.116708 -0.28732884 -0.091278568 591 52531200 2708 18 1559 2708
2.1130226 -0.31328246 -0.091278568 617 52727040 2826 18 1627 2826
2.109019 -0.3391889 -0.091278568 582 52920064 2666 18 1571 2666
2.2467079 0.44703695 -0.15646109 445 47253504 2356 19 1384 2356
2.2441876 0.41797447 -0.1557861 472 47447296 2479 19 1264 2479
2.2412934 0.38904142 -0.1551111 481 47643904 2512 19 1332 2512
2.2468827 0.36166617 -0.15519547 61 47835904 318 19 1261 318
2.2511518 0.33406624 -0.15519547 303 48031744 1586 19 1307 1586
2.2264476 0.3025302 -0.15274864 517 48226304 2634 19 1306 2634
2.2270255 0.27481988 -0.15249553 532 48423680 2702 19 1334 2702
2.224288 0.24681184 -0.15198928 504 48619520 2549 19 1304 2549
2.2063248 0.21744905 -0.15021744 89 48815360 441 19 1255 441
2.2038631 0.18993077 -0.14979558 108 49010688 533 19 1233 533
2.2010593 0.16250572 -0.14937371 425 49208064 2090 19 1307 2090
2.1979151 0.13517812 -0.14895184 457 49402112 2236 19 1320 2236
2.1884606 0.10765952 -0.14802374 81 49597952 392 19 1226 392
2.1856339 0.080649361 -0.14768624 65 49793280 313 19 1243 313
2.1834707 0.053749166 -0.14743312 50 49987840 240 19 1242 240
2.1640387 0.026708191 -0.14574565 129 50182144 613 19 1291 613
2.1632071 0.00015020573 -0.14566128 479 50377984 2261 19 1374 2261
2.1620495 -0.026383348 -0.14557689 152 50574592 716 19 1250 716
2.1595707 -0.052863911 -0.14540815 63 50770176 296 19 1273 296
2.1557722 -0.079250835 -0.14515503 128 50965504 604 19 1309 604
2.1526468 -0.1056015 -0.14498629 475 51160064 2227 19 1389 2227
2.1501944 -0.13194863 -0.14490192 489 51357440 2291 19 1375 2291
2.1464257 -0.15817806 -0.14473316 451 51552768 2108 19 1383 2108
2.1363811 -0.18382131 -0.14405818 348 51750144 1615 19 1375 1615
2.1141319 -0.20806862 -0.1423707 118 51943936 537 19 1220 537
2.124294 -0.2354258 -0.14346756 515 52141312 2374 19 1383 2374
2.1192672 -0.26123226 -0.14329882 537 52335872 2470 19 1382 2470
2.1139271 -0.28695083 -0.14313006 540 52531200 2478 19 1388 2478
2.1181316 -0.3140409 -0.14380506 449 52727040 2077 19 1418 2077
2.2299941 0.33133072 -0.20861857 401 48031744 2067 20 1470 2067
2.2368469 0.30434185 -0.20894465 475 48226304 2453 20 1454 2453
2.2354803 0.27626064 -0.20840119 435 48423680 2237 20 1454 2237
2.223882 0.24716254 -0.20677079 97 48619520 495 20 1406 495
2.2079513 0.21800095 -0.20470561 45 48815360 227 20 1443 227
2.207489 0.19063352 -0.20437953 47 49010688 237 20 1402 237
2.2066882 0.16331029 -0.20405345 47 49208064 236 20 1386 236
2.1876898 0.13493708 -0.20177089 336 49402112 1637 20 1519 1637
2.1941452 0.1083248 -0.20231436 428 49597952 2093 20 1496 2093
2.1943159 0.081354454 -0.20220566 297 49793280 1452 20 1482 1452
2.2110496 0.05481207 -0.20394476 111 49987840 552 20 1481 552
2.1847177 0.027343838 -0.20101003 386 50182144 1867 20 1501 1867
2.1779301 0.00053147803 -0.20024918 441 50377984 2121 20 1426 2121
2.1737967 -0.02614658 -0.19981441 451 50574592 2159 20 1532 2159
2.1663556 -0.052650124 -0.19905356 341 50770176 1623 20 1454 1623
2.1466718 -0.078536719 -0.19698839 62 50965504 293 20 1402 293
2.1435606 -0.10477635 -0.196771 61 51160064 287 20 1420 287
2.1440978 -0.13119502 -0.19698839 379 51357440 1772 20 1526 1772
2.1433179 -0.15756959 -0.19709708 344 51552768 1610 20 1502 1610
2.1293378 -0.18283685 -0.19579275 63 51750144 294 20 1421 294
2.1130836 -0.20759012 -0.19427104 41 51943936 190 20 1370 190
2.1172934 -0.23427181 -0.1950319 54 52141312 250 20 1482 250
2.1260984 -0.26169607 -0.19633622 127 52335872 592 20 1466 592
2.106966 -0.28562737 -0.19459713 328 52531200 1503 20 1523 1503
2.1739619 -0.079922788 -0.25316328 26 50965504 128 21 1415 128
2.1708376 -0.10649715 -0.25289774 12 51160064 60 21 1503 60
2.1723351 -0.1333113 -0.25329608 42 51357440 205 21 1477 205
2.1497781 -0.15842572 -0.25050777 246 51552768 1165 21 1563 1165
2.1466846 -0.18470973 -0.250375 356 51750144 1684 21 1574 1684
2.146229 -0.21123345 -0.25064057 357 51943936 1691 21 1582 1691
