# .PCD v0.7 - Point Cloud Data file format
VERSION 0.7
FIELDS x y z intensity t reflectivity ring noise range
SIZE 4 4 4 4 4 2 2 2 4
TYPE F F F F U U U U U
COUNT 1 1 1 1 1 1 1 1 1
WIDTH 817
HEIGHT 1
VIEWPOINT 0 0 0 1 0 0 0
POINTS 817
DATA ascii
-0 -0 -0 5 76577024 0 20 1782 0
-0 -0 -0 5 76771328 0 20 1730 0
-0.024628753 -0.25419846 0.0099638095 701 76964864 46 20 1158 46
-0 -0 -0 6 77160192 0 20 1939 0
-0.030616436 -0.25154427 0.010181196 827 77354752 54 20 1165 54
-0.033834685 -0.25213465 0.010072503 823 77551104 54 20 1148 54
-0 -0 -0 6 77742848 0 20 1911 0
-0.040485747 -0.25417277 0.009746423 738 77939200 49 20 1126 49
-0.043941561 -0.25561571 0.0095290355 708 78134016 48 20 1117 48
-0.047075048 -0.25505722 0.0095290355 772 78330368 52 20 1126 52
-0.050007578 -0.25348535 0.0096377293 683 78524160 46 20 1257 46
-0.053114466 -0.25285259 0.0096377293 580 78720256 39 20 1187 39
-0.057737537 -0.2589713 0.008876876 623 78916096 44 20 1121 44
-0.062748171 -0.26598081 0.008007329 584 79113472 44 20 1146 44
-0.067456305 -0.27097657 0.0073551685 553 79310336 43 20 1107 43
-0.070269942 -0.26820585 0.007572555 428 79506176 33 20 1159 33
-0.07514637 -0.27307183 0.006920395 328 79702016 26 20 1116 26
-0.079875752 -0.27690288 0.0063769282 267 79899648 22 20 1141 22
-0.083844766 -0.27780443 0.0061595412 270 80095232 23 20 1118 23
-0.087847851 -0.27864996 0.0059421547 222 80292864 19 20 1081 19
-0.091260701 -0.27755094 0.0059421547 198 80489728 17 20 1133 17
-0.093043201 -0.27171001 0.0064856214 217 80684032 18 20 1069 18
-0.097040161 -0.27241975 0.0062682345 215 80879872 18 20 1102 18
-0.098990686 -0.26748115 0.006703008 355 81076736 29 20 1060 29
-0.10047713 -0.26160881 0.0072464752 458 81272064 36 20 1093 36
-0.10404896 -0.26127914 0.0071377815 536 81467136 43 20 1137 43
-0.10686707 -0.2590642 0.0072464752 558 81662976 44 20 1119 44
-0.11121293 -0.26047432 0.006920395 622 81858048 50 20 1052 50
-0.11480376 -0.2599988 0.0068117017 679 82054144 55 20 1139 55
-0.12129693 -0.26580086 0.0059421547 671 82247680 58 20 1061 58
-0.12454958 -0.26429236 0.0059421547 650 82443520 56 20 1134 56
-0.12865539 -0.26453078 0.0057247677 573 82638080 50 20 1153 50
-0.13099812 -0.26115614 0.0059421547 580 82833920 50 20 1138 50
-0.14609461 -0.2824716 0.0031161266 364 83026176 37 20 1152 37
-0.15142415 -0.28416446 0.0026813531 404 83222784 42 20 1085 42
-0.15537916 -0.28315574 0.0025726599 419 83417600 44 20 1172 44
-0.15786238 -0.27949777 0.0027900466 401 83611136 41 20 1126 41
-0.16378285 -0.28183395 0.0022465796 422 83804928 45 20 1189 45
-0.17438307 -0.29174036 0.0007248724 500 84002048 58 20 1087 58
-0.18264288 -0.29719555 -0.00025336802 522 84193792 64 20 1163 64
-0.18787149 -0.29745153 -0.00057944818 466 84389376 58 20 1092 58
-0.19855404 -0.30595648 -0.001992462 375 84585216 50 20 1142 50
-0.20726368 -0.31093609 -0.0029707025 304 84778752 43 20 1117 43
-0.21331303 -0.31164819 -0.003405476 329 84973312 47 20 1156 47
-0.22055544 -0.31388372 -0.004057636 344 85167616 51 20 1048 51
-0.24593481 -0.3409642 -0.0080792913 174 85364736 31 20 1115 31
-0.25069258 -0.33871901 -0.008187985 174 85560832 31 20 1197 31
-0.25422844 -0.33482596 -0.0080792913 196 85759232 35 20 1140 35
-0.25342584 -0.32541126 -0.0072097443 303 85952768 52 20 1162 52
-0.25864226 -0.32382911 -0.0074271308 98 86151168 17 20 1124 17
-1.4449425 -1.7615156 -0.21122721 89 86346752 469 20 1123 469
-0.45402193 -0.54026222 -0.03927429 15 86545664 7 20 1136 7
-1.4273564 -1.6555172 -0.20111872 39 86737920 190 20 1077 190
-1.4633673 -1.6557505 -0.20372736 171 86934784 847 20 1110 847
-1.4715601 -1.6244092 -0.20177089 155 87129088 755 20 1115 755
-1.4954425 -1.6105987 -0.20242305 202 87324928 989 20 1189 989
-1.4780823 -1.553246 -0.1965536 33 87519744 155 20 1130 155
-0.47032174 -0.48262927 -0.035796102 25 87715584 11 20 1130 11
-0 -0 -0 9 87910400 0 20 1103 0
-0.67838323 -0.66256434 -0.065795474 37 88107008 34 20 1062 34
-0.69726151 -0.66447216 -0.067425877 17 88300288 16 20 1116 16
-1.4656762 -1.3622531 -0.18090177 26 88495872 107 20 1102 107
-1.4601872 -1.3241355 -0.17764096 101 88692736 398 20 1140 398
-1.464412 -1.2955805 -0.17590186 43 88887296 167 20 1158 167
-1.4749317 -1.2729669 -0.17514101 41 89081856 159 20 1083 159
-1.5360774 -1.2931753 -0.18166262 17 89276928 71 20 1105 71
-0 -0 -0 9 89475840 0 20 1115 0
-0 -0 -0 7 89671168 0 20 1090 0
-0 -0 -0 7 89867264 0 20 1009 0
-0 -0 -0 10 90061312 0 20 1053 0
-0 -0 -0 15 90257920 0 20 1090 0
-1.221016 -0.88315111 -0.12688115 71 90455296 164 20 1062 164
-1.2106315 -0.85321718 -0.12405512 103 90652672 229 20 1093 229
-1.2119943 -0.83210981 -0.1228595 132 90847488 290 20 1087 290
-1.2171552 -0.81386012 -0.12220734 149 91044096 324 20 1132 324
-1.2220516 -0.79560959 -0.12155518 165 91236352 355 20 1143 355
-1.2241646 -0.77576631 -0.12057694 203 91430912 432 20 1155 432
-1.2285146 -0.75755626 -0.11992478 235 91626496 496 20 1162 496
-1.2351606 -0.74089015 -0.11959869 260 91820032 547 20 1160 547
-1.2433007 -0.72517639 -0.11949001 200 92013312 420 20 1126 420
-1.2685392 -0.71917528 -0.12155518 140 92208896 301 20 1151 301
-1.2781398 -0.70403355 -0.12166387 51 92401664 111 20 1054 111
-0 -0 -0 6 92596224 0 20 1124 0
-0 -0 -0 8 92791296 0 20 1094 0
-0 -0 -0 9 92984064 0 20 1109 0
-0 -0 -0 7 93178624 0 20 1106 0
-0.87229943 -0.41306701 -0.067643262 26 93372672 24 20 1131 24
-0 -0 -0 9 93568768 0 20 1091 0
-1.5110407 -0.67034203 -0.14285909 24 93763328 67 20 1104 67
-0 -0 -0 6 93959424 0 20 1063 0
-0 -0 -0 7 94152448 0 20 1125 0
-0 -0 -0 8 94349568 0 20 1154 0
-0 -0 -0 9 94544896 0 20 1041 0
-1.3806539 -0.51372123 -0.12318558 8 94742016 18 20 1085 18
-1.2736048 -0.4562102 -0.11003368 36 94935296 67 20 1063 67
-1.2546678 -0.43213722 -0.10720765 43 95131648 77 20 1066 77
-1.2513813 -0.413901 -0.10622941 124 95327232 218 20 1082 218
-1.2563663 -0.39851347 -0.10622941 122 95524608 215 20 1152 215
-1.2630645 -0.38364315 -0.1064468 133 95720960 235 20 1094 235
-1.2676773 -0.36811453 -0.1064468 138 95917312 244 20 1053 244
-1.2644348 -0.35040888 -0.10557725 90 96112640 157 20 1089 157
-1.332081 -0.35159159 -0.11275101 23 96308736 44 20 1121 44
-0 -0 -0 8 96503296 0 20 1141 0
-1.5114956 -0.35946098 -0.13198975 11 96700160 27 20 1180 27
-1.5633184 -0.35156098 -0.13731572 23 96896000 60 20 1138 60
-1.5441747 -0.32740745 -0.13470708 14 97090048 36 20 1132 36
-0.54581553 -0.10900316 -0.022970283 82 97284352 25 20 1105 25
-0.55199844 -0.10320704 -0.023513751 117 97478912 37 20 1149 37
-0.56105876 -0.09778551 -0.024383297 131 97675264 43 20 1129 43
-0.50529289 -0.081730187 -0.018079082 46 97870592 12 20 1168 12
-0.54067355 -0.080630705 -0.02188335 80 98066176 24 20 1087 24
-0.50222135 -0.068635821 -0.017535616 153 98258432 39 20 1278 39
-0.4823074 -0.059910875 -0.015253054 154 98454528 36 20 1227 36
-0 -0 -0 5 98650624 0 20 1589 0
-0 -0 -0 3 98847232 0 20 2286 0
-0 -0 -0 1 99040768 0 20 3176 0
-0 -0 -0 4 99235840 0 20 4136 0
-0 -0 -0 3 99429376 0 20 3813 0
-0 -0 -0 1 99624704 0 20 3871 0
-0 -0 -0 1 99821312 0 20 3733 0
-0 -0 -0 2 0 0 21 3878 0
-0 -0 -0 1 196352 0 21 3748 0
-0 0 -0 2 394496 0 21 3627 0
-0 0 -0 3 586240 0 21 3002 0
-0 0 -0 4 781312 0 21 2207 0
-0 0 -0 3 975872 0 21 2478 0
-0 0 -0 4 1172224 0 21 2670 0
-0 0 -0 4 1366016 0 21 3152 0
-0 0 -0 2 1561344 0 21 3420 0
-0.42945316 0.036641881 -0.01947864 831 1756928 157 21 1384 157
-0.37965304 0.037046328 -0.012839871 330 1952768 49 21 1183 49
-0.43827555 0.048263691 -0.020806393 500 2145536 99 21 1294 99
-0.47306272 0.058010004 -0.025586305 676 2342400 157 21 1453 157
-0.47722581 0.064478323 -0.026250184 1076 2536960 254 21 1543 254
-0.49208507 0.072658375 -0.028374588 1394 2729216 352 21 1569 352
-0.50192034 0.080424689 -0.029835118 2154 2923776 567 21 1820 567
-0.4921068 0.085051976 -0.02864014 1642 3118080 417 21 1632 417
-0.48323098 0.089632273 -0.027577937 1347 3314432 331 21 1537 331
-0.49181548 0.097490206 -0.02890569 1178 3510272 302 21 1451 302
-0.48767319 0.10290205 -0.028507365 1219 3706624 309 21 1524 309
-0.49411002 0.11061693 -0.029569568 1047 3900672 273 21 1456 273
-0.50042975 0.11850503 -0.030631769 1205 4097792 325 21 1538 325
-0.51432049 0.12849209 -0.032756176 1065 4294144 305 21 1462 305
-0.49545401 0.13024507 -0.03036622 638 4489216 170 21 1422 170
-0.53966868 0.14900911 -0.036739439 1117 4683520 357 21 1385 357
-0.5282805 0.15285888 -0.035411682 607 4879616 187 21 1346 187
-0.48653057 0.14724183 -0.029835118 484 5074176 127 21 1256 127
-0.42516258 0.13433681 -0.021470269 298 5270272 60 21 1232 60
-0.40936574 0.13487899 -0.01947864 634 5467136 120 21 1333 120
-0.42267495 0.14505289 -0.021603044 189 5662464 38 21 1176 38
-0.51324707 0.18329573 -0.034747805 66 5858304 20 21 1236 20
-0.50817209 0.18854395 -0.034349479 66 6056192 19 21 1179 19
-0.50027192 0.19262496 -0.033552829 122 6249984 35 21 1249 35
-0.51167417 0.2042715 -0.035544459 153 6447104 47 21 1223 47
-0.50821322 0.21015576 -0.035411682 187 6643200 57 21 1197 57
-0.45367283 0.19411211 -0.027843487 112 6837760 27 21 1193 27
-0.44672623 0.19765601 -0.02717961 46 7032576 11 21 1165 11
-0.38479623 0.17587563 -0.018416436 82 7226112 15 21 1246 15
-0.3557308 0.16786842 -0.014433175 3496 7422720 553 21 1613 553
-0.41064692 0.20005026 -0.022930799 7504 7615744 1598 21 3418 1598
-0.38691467 0.19437702 -0.019744189 6986 7809280 1337 21 3328 1337
-0.3809813 0.19728419 -0.019213088 6867 8002304 1292 21 2780 1292
-0.39426476 0.2103563 -0.021603044 7174 8195840 1459 21 3088 1459
-0.39252192 0.2156567 -0.021735821 7293 8389376 1493 21 3636 1493
-0.3631137 0.20530982 -0.017619783 5339 8583680 949 21 2964 949
-0.3708421 0.21574041 -0.019213088 5151 8773888 969 21 1957 969
-0.38856861 0.23250642 -0.022399697 213 8970240 44 21 1182 44
-0.36206084 0.22269621 -0.018681986 15 9163776 2 21 1149 2
-1.7090534 1.0820502 -0.23271589 48 9360384 200 21 1218 200
-1.7230608 1.1207808 -0.23709747 260 9555712 1119 21 1242 1119
-1.7207141 1.1495514 -0.23895633 277 9753088 1208 21 1244 1208
-1.722005 1.181236 -0.24147905 250 9948928 1114 21 1317 1114
-1.7203443 1.2114116 -0.24360347 225 10146304 1014 21 1254 1014
-1.7230197 1.245207 -0.24652453 213 10340352 984 21 1296 984
-1.7251221 1.2792486 -0.24944559 195 10537216 916 21 1250 916
-1.725857 1.3129271 -0.25223386 217 10733056 1039 21 1265 1039
-1.7283666 1.348644 -0.25542048 212 10927872 1038 21 1251 1038
-1.7318043 1.3858569 -0.25887263 252 11124224 1263 21 1233 1263
-1.7315214 1.4208394 -0.2617937 211 11319296 1077 21 1265 1077
-1.7367048 1.4611273 -0.26577696 220 11514880 1154 21 1214 1154
-1.7329021 1.4946313 -0.2682997 252 11709952 1344 21 1239 1344
-1.7315061 1.5308867 -0.27135351 239 11905792 1300 21 1267 1300
-1.7118551 1.5513539 -0.27122074 164 12099072 892 21 1176 892
-1.7006756 1.5796653 -0.27268127 178 12294400 977 21 1248 977
-1.7105908 1.6284404 -0.27812505 207 12488704 1176 21 1242 1176
-1.7096301 1.6680006 -0.28171 205 12684288 1192 21 1148 1192
-1.7163625 1.7161908 -0.28688824 244 12877312 1465 21 1166 1465
-1.7450052 1.7882057 -0.29644805 250 13073664 1589 21 1270 1589
-1.7721316 1.8611745 -0.30600789 219 13269248 1478 21 1341 1478
-1.7572526 1.8914961 -0.30760118 1228 13466112 8337 21 1444 8337
-1.719267 1.8967596 -0.30468014 368 13661952 2461 21 1347 2461
-1.6912661 1.9125168 -0.30375072 425 13857280 2821 21 1268 2821
-1.6793208 1.9466376 -0.30614066 942 14053888 6346 21 1354 6346
-1.6457354 1.955722 -0.30414903 355 14252544 2363 21 1220 2363
-1.6008649 1.9504846 -0.29976743 447 14447616 2899 21 1260 2899
-1.5613278 1.9506356 -0.29644805 417 14646272 2652 21 1253 2652
-1.5275178 1.9571456 -0.29432365 470 14844672 2951 21 1208 2951
-1.4949846 1.9646993 -0.29246479 407 15040512 2526 21 1240 2526
-1.4601361 1.9685662 -0.29007486 430 15235840 2631 21 1202 2631
-1.4242584 1.9702692 -0.28741935 444 15431168 2673 21 1210 2673
-1.3897017 1.9730113 -0.28502938 437 15627520 2592 21 1277 2592
-1.3547331 1.9743868 -0.28250664 421 15822336 2459 21 1270 2459
-1.3204923 1.9760278 -0.28011671 389 16018688 2237 21 1251 2237
-1.289659 1.9821131 -0.27852339 387 16210944 2210 21 1309 2210
-1.2562255 1.9835536 -0.27626622 378 16405760 2127 21 1313 2127
-1.223472 1.9853182 -0.27414179 437 16598784 2421 21 1257 2421
-1.191375 1.9874297 -0.27215016 477 16795648 2607 21 1272 2607
-1.1594118 1.9890544 -0.27015853 504 16986112 2721 21 1281 2721
-1.1280775 1.9910582 -0.2682997 467 17180672 2491 21 1252 2491
-1.0963919 1.9917262 -0.26630807 469 17373440 2470 21 1207 2470
-1.0671966 1.9962889 -0.26498029 478 17568256 2495 21 1169 2495
-1.0385114 2.0013163 -0.26378533 478 17763328 2476 21 1249 2476
-0.85838258 1.7049176 -0.21744671 331 17958144 1228 21 1257 1228
-0.87825173 1.7990547 -0.2299276 201 18152192 821 21 1196 821
-0.87475002 1.8491222 -0.23576972 214 18348800 912 21 1216 912
-0.87716389 1.9146885 -0.24386902 199 18542592 899 21 1249 899
-0.86805761 1.9579301 -0.24864893 242 18737920 1131 21 1183 1131
-0.85216391 1.9875665 -0.25143722 1081 18934272 5149 21 1485 5149
-0.82126296 1.9823066 -0.24918003 390 19131136 1829 21 1221 1829
-0.79650724 1.9913152 -0.24904725 402 19325696 1882 21 1269 1882
-0.52951747 1.3720952 -0.15876 89 19520512 196 21 1261 196
-0.50780666 1.3654828 -0.15690115 176 19718144 380 21 1186 380
-0.48533714 1.3557464 -0.15464397 235 19913728 497 21 1174 497
-0.46576256 1.3531648 -0.15344898 181 20111616 378 21 1160 378
-0.44290605 1.3399553 -0.15079348 251 20305920 511 21 1289 511
-0.41715327 1.3159977 -0.14667745 258 20502784 501 21 1210 501
-0.39924687 1.3153268 -0.14588079 184 20700160 354 21 1216 354
-0.37590104 1.2953763 -0.14242864 209 20896768 387 21 1163 387
-0.35257757 1.273144 -0.13871092 244 21090560 434 21 1226 434
-0.32985744 1.2505383 -0.13499321 259 21287680 441 21 1266 441
-0.3087092 1.2314168 -0.1318066 241 21482240 395 21 1206 395
-0.28968316 1.2187185 -0.12954943 220 21677824 352 21 1235 352
-0.27231818 1.2115437 -0.12808889 232 21873920 364 21 1217 364
-0.2543526 1.200249 -0.12609726 214 22068480 328 21 1201 328
-0.22549678 1.1323149 -0.11640466 82 22263552 111 21 1220 111
-0.21104062 1.1320736 -0.11600634 93 22460160 126 21 1191 126
-0.35004798 2.0164232 -0.23590249 78 22653696 334 21 1144 334
-0.32464764 2.0166528 -0.2353714 367 22851072 1559 21 1227 1559
-0.29943979 2.0175436 -0.23497307 372 23047424 1576 21 1229 1576
-0.27479216 2.0220482 -0.23510584 396 23241984 1680 21 1207 1680
-0.24971539 2.0233009 -0.23484029 402 23435776 1702 21 1224 1702
-0.22486757 2.0262129 -0.23484029 408 23630592 1727 21 1260 1727
-0.19969477 2.0258605 -0.23444197 416 23827200 1756 21 1241 1756
-0.17464943 2.0261836 -0.23417641 449 24022016 1891 21 1225 1891
-0.14991751 2.0301511 -0.23444197 469 24216832 1979 21 1284 1979
-0.10970433 1.7825376 -0.20098257 486 24410624 1579 21 1214 1579
-0.10155424 2.0639076 -0.23855799 506 24608256 2200 21 1280 2200
-0.076728493 2.0788651 -0.24041685 592 24801280 2609 21 1261 2609
-0.048354372 1.9627298 -0.22474936 485 24998912 1903 21 1226 1903
-0.025458442 2.0612917 -0.23789412 518 25192960 2243 21 1252 2243
-0.00015762984 2.0951478 -0.24240848 872 25388288 3902 21 1341 3902
0.02176133 1.7887512 -0.20138089 54 25582592 177 21 1151 177
0.044687703 1.8279834 -0.20669191 122 25780736 416 21 1118 416
0.067848295 1.8471067 -0.20934743 187 25975552 651 21 1175 651
0.090217575 1.8401953 -0.20855077 151 26170880 522 21 1202 522
0.11224484 1.8300462 -0.20735578 140 26365184 480 21 1138 480
0.13418272 1.8216118 -0.20642637 149 26560768 507 21 1177 507
0.15601572 1.8139031 -0.20562971 173 26754048 584 21 1163 584
0.17816611 1.8108656 -0.20549694 217 26949632 732 21 1159 732
0.2005935 1.8105131 -0.20576249 183 27144704 619 21 1179 619
0.22279617 1.8079152 -0.20576249 185 27337984 626 21 1118 626
0.2449653 1.805045 -0.20576249 163 27530240 551 21 1189 551
0.26695201 1.8009225 -0.20562971 170 27725568 575 21 1159 575
0.25436914 1.5822316 -0.17641912 58 27921408 152 21 1201 152
0.24409433 1.4080973 -0.15318345 49 28118016 102 21 1160 102
0.2588141 1.3913544 -0.15132459 56 28314112 114 21 1174 114
0.2714189 1.3657159 -0.14827076 71 28508416 140 21 1156 140
0.28692558 1.3564644 -0.1474741 81 28705280 158 21 1204 158
0.32114848 1.4311715 -0.1582289 35 28901376 77 21 1152 77
0.35564169 1.498481 -0.16805428 28 29098240 68 21 1150 68
0.36942583 1.475737 -0.16553155 12 29292800 28 21 1170 28
0.39256185 1.4902602 -0.16818705 64 29488896 155 21 1164 155
0.41505137 1.500614 -0.17031147 72 29683456 178 21 1168 178
0.42818797 1.4773217 -0.16778873 28 29880576 68 21 1175 68
0.43880147 1.4472966 -0.16433656 88 30077184 205 21 1235 205
0.45862502 1.4484167 -0.16526599 47 30273280 111 21 1131 111
0.47418773 1.436092 -0.16433656 46 30468608 107 21 1162 107
0.50274122 1.4620296 -0.16885093 13 30664704 32 21 1119 32
0.50194019 1.4034926 -0.16141552 64 30859264 146 21 1066 146
0.51221669 1.3786472 -0.15876 100 31055872 221 21 1117 221
0.54158461 1.404622 -0.16340715 68 31252224 157 21 1181 157
0.55878067 1.3978702 -0.16340715 74 31446784 171 21 1233 171
0.58613628 1.4156306 -0.16699208 62 31642624 148 21 1145 148
0.60385472 1.4092422 -0.16712485 67 31838464 160 21 1203 160
0.64962721 1.4660568 -0.17655191 32 32034560 84 21 1197 84
1.0032088 2.1905472 -0.28449827 46 32229120 273 21 1187 273
0.53578526 1.1334062 -0.1296822 136 32425472 217 21 1255 217
0.53834796 1.1035885 -0.12623003 356 32617728 546 21 1236 546
0.55140442 1.0960137 -0.12609726 598 32813056 918 21 1325 918
0.56526923 1.0900444 -0.12623003 457 33006848 702 21 1199 702
0.57907051 1.0838996 -0.12636282 424 33203456 652 21 1235 652
0.60236621 1.0949453 -0.12915109 303 33394432 482 21 1174 482
1.2387586 2.1869419 -0.29843968 44 33589248 283 21 1243 283
1.2679982 2.1758571 -0.29910356 59 33783296 383 21 1150 383
0.80483627 1.3432071 -0.17150643 50 33977856 125 21 1219 125
0.84206039 1.3669798 -0.17681745 39 34172160 102 21 1192 102
0.87680387 1.3850123 -0.18133181 39 34367232 107 21 1209 107
0.92616934 1.4239929 -0.18929833 21 34561280 62 21 1203 62
0 0 -0 9 34759936 0 21 1130 0
1.0404723 1.516881 -0.20815244 9 34952704 32 21 1127 32
1.0709951 1.5210145 -0.21094072 16 35149056 57 21 1123 57
1.0686746 1.4788414 -0.20616081 8 35346688 28 21 1059 28
1.1056381 1.4910887 -0.21040963 9 35541760 32 21 1122 32
1.11665 1.4679439 -0.20881632 24 35738624 84 21 1179 84
1.124212 1.4408482 -0.20655914 47 35933952 161 21 1143 161
1.1238458 1.404505 -0.20270865 68 36132608 225 21 1153 225
1.1265329 1.3729876 -0.19965482 82 36330240 264 21 1173 264
1.1458496 1.3620933 -0.20018592 75 36526848 243 21 1118 243
1.17996 1.3681911 -0.20377086 34 36721664 113 21 1204 113
1.9701734 2.228193 -0.36018023 29 36919040 263 21 1201 263
2.0492923 2.2611251 -0.37053671 225 37115136 2133 21 1266 2133
2.107245 2.268481 -0.3765116 240 37311232 2343 21 1247 2343
2.1690998 2.2783391 -0.38315037 187 37505536 1885 21 1214 1885
2.2225091 2.2777941 -0.38806307 259 37701120 2672 21 1193 2672
2.2846391 2.2846868 -0.39456907 243 37894656 2587 21 1138 2587
2.3543622 2.2973135 -0.40240282 226 38091264 2492 21 1187 2492
2.4161184 2.3003666 -0.40864325 260 38286592 2949 21 1182 2949
2.4797513 2.3035944 -0.41514924 233 38480640 2718 21 1275 2718
2.5430875 2.3049359 -0.42152247 234 38676480 2809 21 1174 2809
2.6276169 2.3234465 -0.43161339 355 38872832 4448 21 1261 4448
2.5823748 2.2275906 -0.41860139 177 39067136 2096 21 1255 2096
1.5150554 1.2750292 -0.22700654 308 39262720 1230 21 1251 1230
1.5474451 1.2701724 -0.2299276 35 39459584 143 21 1233 143
1.5544027 1.2442756 -0.22846708 18 39654656 73 21 1176 73
1.5781506 1.2318137 -0.2299276 13 39849472 54 21 1167 54
0.21817173 0.16644318 0.0014998696 35 40044800 2 21 1275 2
0.23452871 0.17437944 -0.00089008705 198 40240384 17 21 1353 17
0.22219074 0.16103886 0.0014998696 1244 40435456 96 21 1296 96
0.2241502 0.1583001 0.0014998696 4484 40631808 346 21 1805 346
0 0 -0 0 40824320 0 21 4992 0
0 0 -0 0 41019648 0 21 5187 0
0 0 -0 0 41214720 0 21 5218 0
0 0 -0 0 41411328 0 21 5224 0
0 0 -0 0 41602816 0 21 4541 0
0.24539042 0.14749518 -9.3434799e-05 1442 41798144 121 21 1209 121
0.25146383 0.14696768 -0.00075731165 778 41992192 67 21 1212 67
0.27739662 0.15754709 -0.0044750222 87 42188288 9 21 1188 9
0 0 -0 7 42383872 0 21 1181 0
0 0 -0 6 42579200 0 21 1146 0
2.9321768 1.5213457 -0.40426168 48 42773760 535 21 1185 535
2.9302619 1.4750016 -0.40120783 208 42970624 2280 21 1222 2280
2.9436879 1.4367585 -0.40054396 234 43164928 2558 21 1232 2558
2.9467611 1.393748 -0.39841956 222 43360000 2404 21 1195 2404
2.9402122 1.346753 -0.39496738 205 43555840 2185 21 1194 2185
2.9066789 1.2884852 -0.38766474 189 43749376 1945 21 1248 1945
0.26300803 0.11312854 -9.3434799e-05 479 43942656 40 21 1424 40
0.27536535 0.11444286 -0.0016867393 1395 44136192 127 21 1364 127
2.4321511 0.9727453 -0.31264666 166 44332544 1166 21 1285 1166
0.28641394 0.11086005 -0.0028817176 67 44527104 6 21 1219 6
0.29425633 0.10975359 -0.0038111452 77 44722176 7 21 1264 7
2.7108171 0.97002244 -0.34743381 114 44916480 962 21 1269 962
0.28186488 0.09734188 -0.0016867393 586 45113344 53 21 1340 53
0.26045045 0.086416386 0.0014998696 2916 45307904 225 21 1363 225
0.2728301 0.086804502 -9.3434799e-05 861 45506048 72 21 1292 72
2.9457967 0.89365035 -0.37412167 66 45699328 646 21 1300 646
2.9508297 0.85577786 -0.37332499 66 45895168 634 21 1268 634
0.28730351 0.07987453 -0.0016867393 44 46089984 4 21 1230 4
2.941231 0.77527553 -0.36920896 83 46286336 785 21 1134 785
2.9236023 0.73238343 -0.36549127 93 46483456 861 21 1215 861
2.4656239 0.5856601 -0.30122799 131 46679040 859 21 1154 859
2.8904068 0.64912713 -0.35858694 238 46874880 2128 21 1255 2128
1.6763608 0.35509199 -0.19128998 234 47071232 702 21 1399 702
1.6825364 0.33488023 -0.19155551 381 47266048 1144 21 1317 1144
0.26971102 0.05057862 0.0014998696 612 47462144 47 21 1530 47
0.27031139 0.047265042 0.0014998696 1466 47659008 113 21 1499 113
1.7054652 0.27461195 -0.19314882 405 47853312 1233 21 1354 1233
1.7126285 0.25424391 -0.19367993 405 48048640 1239 21 1358 1239
1.7156194 0.23320816 -0.19367993 205 48244224 625 21 1273 625
0.2772235 0.034550656 0.0008359928 236 48441856 18 21 1263 18
0.28353733 0.031800926 3.9340572e-05 433 48637184 35 21 1238 35
0.27897432 0.027833885 0.0007032174 386 48832512 31 21 1163 31
0.27633238 0.024153555 0.0011015435 360 49025536 28 21 1238 28
0.27561951 0.020687908 0.0012343189 372 49222400 29 21 1156 29
0.27980977 0.017546754 0.0007032174 390 49416704 31 21 1239 31
0.27901408 0.014063212 0.0008359928 367 49612032 29 21 1224 29
0.27817515 0.010601847 0.00096876814 366 49803520 29 21 1217 29
0.27729347 0.0071631963 0.0011015435 355 49998848 27 21 1153 27
0.27438727 0.0037236754 0.0014998696 329 50191616 25 21 1144 25
0.27837688 0.00035580879 0.00096876814 359 50387456 28 21 1321 28
0.27836028 -0.0030603306 0.00096876814 276 50582528 21 21 1242 21
0.27929261 -0.0065004411 0.0008359928 184 50777088 14 21 1351 14
1.8461162 -0.067811705 -0.20921464 121 50970624 421 21 1209 421
1.846135 -0.090510026 -0.20934743 125 51167232 435 21 1219 435
1.8577459 -0.11394964 -0.2110735 68 51360768 240 21 1226 240
2.9939167 -0.22078569 -0.36389795 126 51556352 1158 21 1194 1158
2.9919693 -0.25759417 -0.36403072 214 51752704 1967 21 1191 1967
3.0023921 -0.29565245 -0.36588958 117 51946240 1085 21 1217 1085
0.29642186 -0.032516748 -0.0016867393 333 52141568 30 21 1396 30
0.27239221 -0.033237431 0.0014998696 1416 52337408 109 21 1320 109
0.26705325 -0.035910118 0.0021637466 763 52532736 56 21 1392 56
3.0430927 -0.45134902 -0.3738561 294 52728832 2841 21 1372 2841
3.0539601 -0.49133694 -0.3761133 587 52923648 5726 21 1454 5726
3.0252402 -0.52487695 -0.37305945 408 53117952 3917 21 1267 3917
0.28055963 -0.051874954 3.9340572e-05 95 53315328 7 21 1248 7
3.0095038 -0.59857506 -0.37279391 93 53510656 900 21 1294 900
0.29762509 -0.062646896 -0.0024833914 115 53707520 10 21 1251 10
0.30263615 -0.067598097 -0.0032800436 110 53901568 10 21 1295 10
0.30756962 -0.072681524 -0.004076696 125 54097664 12 21 1336 12
0.3037703 -0.075727604 -0.0036783698 143 54290944 14 21 1288 14
0.31144363 -0.081724048 -0.0048733484 1013 54487808 107 21 1308 107
0.25310445 -0.069672458 0.0030931742 4513 54684160 318 21 1553 318
0.29221007 -0.084371813 -0.0024833914 423 54879488 39 21 1348 39
0.29020426 -0.087663509 -0.002350616 109 55075072 10 21 1344 10
0.29194114 -0.09211646 -0.0027489422 104 55271936 9 21 1259 9
2.7790236 -0.91799492 -0.35380703 81 55466240 707 21 1241 707
0.28022057 -0.096027993 -0.0014211885 308 55662336 27 21 1253 27
0.25849128 -0.092111304 0.0014998696 1443 55858688 111 21 1255 111
0.28149554 -0.10425777 -0.00195229 411 56053504 37 21 1300 37
2.6529579 -1.0232774 -0.3426539 126 56248576 1038 21 1222 1038
0.26872945 -0.10708518 -0.0004917609 210 56445440 17 21 1325 17
0.2564072 -0.1058221 0.0011015435 309 56641280 24 21 1302 24
0.26328769 -0.11247607 -9.3434799e-05 251 56837120 21 21 1428 21
2.4989786 -1.1076248 -0.32791582 254 57033472 1934 21 1227 1934
2.4671767 -1.1299509 -0.32526031 181 57225728 1358 21 1207 1358
4.868577 -2.3028882 -0.68322271 50 57422592 1483 21 1177 1483
0.3002038 -0.14613134 -0.0064666527 554 57617920 62 21 1222 62
0.27094465 -0.13598676 -0.002350616 2000 57814272 187 21 1247 187
0.26837575 -0.13884488 -0.0022178406 2107 58006016 196 21 1276 196
0.26839983 -0.14306244 -0.0024833914 2263 58201856 213 21 1225 213
0.23015705 -0.12626895 0.0030931742 3029 58397184 214 21 1236 214
0.23893817 -0.13494736 0.0014998696 4488 58592512 346 21 1446 346
0.25182074 -0.14635529 -0.00075731165 2828 58786560 244 21 1249 244
0.24915569 -0.14892486 -0.0006245363 2866 58982400 247 21 1314 247
0.24646562 -0.15145113 -0.0004917609 2880 59176448 246 21 1198 246
0.2320288 -0.14650896 0.0014998696 1829 59373056 141 21 1250 141
0.25015131 -0.16231938 -0.0016867393 93 59565312 8 21 1180 8
3.4067159 -2.2763679 -0.51061475 21 59761152 365 21 1129 365
3.3417497 -2.2927656 -0.50463986 17 59956736 286 21 1218 286
3.327137 -2.3433049 -0.50689703 17 60149760 291 21 1169 291
0 -0 -0 16 60342016 0 21 1116 0
3.4692273 -2.5730603 -0.5403564 9 60538624 175 21 1174 175
0.83459753 -0.63466048 -0.10219769 15 60734976 17 21 1125 17
0.81346434 -0.63448668 -0.099940516 13 60929280 14 21 1135 14
0 -0 -0 8 61125376 0 21 1164 0
0 -0 -0 8 61319680 0 21 1195 0
0.74709332 -0.62825811 -0.09250509 158 61517056 153 21 1181 153
0.77534825 -0.66845745 -0.098878309 47 61711360 50 21 1171 50
0.75298065 -0.6654458 -0.09635558 26 61908224 27 21 1115 27
2.3558521 -2.1351669 -0.38766474 28 62101760 291 21 1135 291
2.3309252 -2.1652653 -0.3879303 22 62298880 228 21 1220 228
3.3147848 -3.1560936 -0.57487804 25 62493696 537 21 1190 537
3.2233155 -3.1453054 -0.56505263 19 62691328 398 21 1154 398
3.1501374 -3.1502786 -0.55854666 15 62886656 309 21 1152 309
3.0676382 -3.1440017 -0.55018181 20 63083520 399 21 1148 399
3.0158415 -3.1677694 -0.54765904 23 63280128 453 21 1161 453
2.9585297 -3.1849313 -0.54407412 13 63476992 256 21 1137 256
2.9039156 -3.2041047 -0.54102027 16 63671808 309 21 1183 309
2.8230202 -3.1927166 -0.53265548 17 63870208 321 21 1131 321
2.7318435 -3.167073 -0.52203339 23 64068608 413 21 1181 413
2.6774597 -3.1821554 -0.51884681 18 64264704 321 21 1171 321
2.6149464 -3.1864216 -0.51393414 13 64460032 228 21 1192 228
2.5719318 -3.2136276 -0.51313746 23 64657152 398 21 1244 398
2.5268147 -3.2379143 -0.51194251 9 64854784 156 21 1244 156
2.4616876 -3.2355466 -0.50636595 25 65051392 424 21 1195 424
2.3999546 -3.2360537 -0.50145322 26 65247488 432 21 1216 432
2.336261 -3.2323239 -0.49600944 9 65442816 150 21 1164 150
2.2890015 -3.2502148 -0.49428338 18 65639424 294 21 1166 294
2.2338068 -3.2559912 -0.49069843 22 65833984 356 21 1091 356
2.175514 -3.2559607 -0.48631683 26 66029824 409 21 1188 409
2.1208036 -3.2599792 -0.48273191 16 66223104 249 21 1200 249
2.0631435 -3.2581239 -0.47835031 23 66419200 350 21 1232 350
2.0089698 -3.260412 -0.47476539 24 66612224 362 21 1162 362
1.9616759 -3.272917 -0.47290653 20 66807296 300 21 1163 300
1.8954171 -3.2522116 -0.46600223 55 67002368 797 21 1172 797
1.8470613 -3.260565 -0.46374503 47 67197696 677 21 1117 677
1.8054767 -3.2803807 -0.46334672 40 67391488 575 21 1146 575
1.7576113 -3.2883031 -0.46122229 26 67586048 373 21 1126 373
1.6997845 -3.2761905 -0.45617685 16 67778816 225 21 1182 225
1.6483144 -3.2746687 -0.45285746 31 67974400 427 21 1178 427
1.0490636 -2.1491253 -0.28210834 25 68170496 147 21 1182 147
0 -0 -0 8 68365056 0 21 1170 0
0 -0 -0 9 68557824 0 21 1145 0
0 -0 -0 8 68753152 0 21 1174 0
0 -0 -0 8 68949248 0 21 1182 0
0 -0 -0 6 69144832 0 21 1111 0
0 -0 -0 8 69341696 0 21 1093 0
0.88648182 -2.2977912 -0.29166815 18 69536512 112 21 1166 112
0.85407484 -2.2973478 -0.29007486 38 69733120 234 21 1144 234
0.82748759 -2.3123217 -0.29073873 50 69928704 309 21 1104 309
0.79647088 -2.3148041 -0.28967652 59 70125568 365 21 1314 365
0.76707232 -2.3215802 -0.28927818 27 70320384 168 21 1389 168
0.73942286 -2.3336532 -0.28967652 15 70516224 96 21 1351 96
0 -0 -0 9 70711808 0 21 1229 0
0 -0 -0 89 70908672 0 21 1222 0
0.81474578 -2.9439144 -0.37093505 99 71105024 941 21 1231 941
0.8737523 -3.3150237 -0.42099136 269 71300864 3222 21 1158 3222
0.83396894 -3.3293421 -0.42152247 362 71497472 4353 21 1287 4353
0.79785705 -3.3595769 -0.42431074 312 71693056 3788 21 1254 3788
0.75505042 -3.3623452 -0.42338133 139 71888128 1683 21 1184 1683
0.71086001 -3.3577824 -0.42152247 171 72084480 2052 21 1205 2052
0.66631597 -3.3497267 -0.41926527 267 72279040 3176 21 1101 3176
0.62534082 -3.3586257 -0.41939807 269 72472832 3197 21 1247 3197
0.51752692 -2.9822536 -0.36721733 24 72667136 226 21 1158 226
0.54319972 -3.3758965 -0.41979638 486 72862208 5787 21 1233 5787
0.50158602 -3.3813276 -0.41966361 583 73057536 6938 21 1227 6938
0.45858806 -3.3764248 -0.41820309 572 73253888 6765 21 1178 6765
0.41542253 -3.3680263 -0.41634423 490 73449472 5749 21 1210 5749
0.37493351 -3.3807514 -0.41740644 487 73644800 5737 21 1267 5737
0.3326419 -3.3772068 -0.41634423 415 73841664 4869 21 1221 4869
0.29117334 -3.3810346 -0.41634423 417 74036736 4892 21 1165 4892
0.24856883 -3.3695261 -0.4143526 428 74233344 4979 21 1170 4979
0.20768622 -3.3802369 -0.41541481 442 74428160 5162 21 1238 5162
0.16682069 -3.3954005 -0.41714087 464 74623488 5466 21 1083 5466
0.12532322 -3.4021444 -0.41780475 557 74819840 6575 21 1205 6575
0.083709531 -3.4093711 -0.41860139 624 75016704 7390 21 1240 7390
0.041816775 -3.4061775 -0.41807032 628 75211008 7421 21 1261 7421
1.3617632e-05 -3.4153545 -0.41926527 641 75406592 7621 21 1440 7621
-0.0025694908 -0.23871748 0.0062797829 169 75601408 9 21 1165 9
-0.081946544 -3.3390219 -0.40917435 17 75795712 197 21 1537 197
-0.12412276 -3.3704505 -0.41355595 8 75989504 95 21 1595 95
-0 -0 -0 13 76185600 0 21 1508 0
-0 -0 -0 10 76382720 0 21 1449 0
-0.018298304 -0.25293747 0.0042881523 322 76577024 21 21 1115 21
-0 -0 -0 8 76771328 0 21 1546 0
-0 -0 -0 25 76964864 0 21 1557 0
-0.029017428 -0.26489881 0.0025620726 364 77160192 26 21 1165 26
-0 -0 -0 15 77354752 0 21 1579 0
-0.035376135 -0.26312479 0.002694848 297 77551104 21 21 1159 21
-0.039039031 -0.26561207 0.0022965218 270 77742848 19 21 1224 19
-0.043240912 -0.27098423 0.0014998696 237 77939200 18 21 1213 18
-0.046563048 -0.27043322 0.0014998696 256 78134016 19 21 1204 19
-0.05133038 -0.2776365 0.00043766669 140 78330368 11 21 1134 11
-0.053379256 -0.27018112 0.0013670942 148 78524160 11 21 1151 11
-0.055663858 -0.26465756 0.0020309712 125 78720256 9 21 1150 9
-0.058907423 -0.26395455 0.0020309712 124 78916096 9 21 1150 9
-0.063745938 -0.26996189 0.0011015435 119 79113472 9 21 1181 9
-0.071872659 -0.28838766 -0.0015539639 93 79310336 8 21 1144 8
-0 -0 -0 26 79506176 0 21 1197 0
-0.081837416 -0.29704431 -0.003014493 76 79702016 7 21 1182 7
-0.087685704 -0.30363283 -0.004076696 55 79899648 5 21 1237 5
-0.091980778 -0.30443081 -0.0043422468 36 80095232 3 21 1207 3
-0.10319556 -0.32689998 -0.0076616309 38 80292864 4 21 1177 4
-0.11186446 -0.33972529 -0.0096532619 45 80489728 5 21 1162 5
-0.11796018 -0.34395015 -0.010449913 40 80684032 5 21 1204 5
-0.13620047 -0.38166991 -0.01602648 29 80879872 4 21 1141 4
-0.14329194 -0.38647279 -0.016955907 46 81076736 8 21 1144 8
-0.14909419 -0.38745937 -0.017354233 36 81272064 6 21 1196 6
-0 -0 -0 27 81467136 0 21 1157 0
-0.15552285 -0.37635845 -0.01629203 23 81662976 3 21 1180 3
-0.436286 -1.0184516 -0.11016422 24 81858048 30 21 1106 30
-0.45437565 -1.0257061 -0.11202307 23 82054144 29 21 1165 29
-0.47394672 -1.0353712 -0.11428025 35 82247680 46 21 1142 46
-0.48534504 -1.0267893 -0.11388193 23 82443520 30 21 1190 30
-0.49312565 -1.0109587 -0.1124214 21 82638080 27 21 1154 27
-0.51173472 -1.0172249 -0.11428025 21 82833920 27 21 1208 27
-0.52600533 -1.0143875 -0.11481135 21 83026176 28 21 1144 28
-0.21175824 -0.39688691 -0.022001371 128 83222784 26 21 1198 26
-0.21231063 -0.38644409 -0.020806393 608 83417600 120 21 1259 120
-0.21605965 -0.38208497 -0.020540843 192 83611136 37 21 1196 37
-0.22272885 -0.38282987 -0.021071944 434 83804928 86 21 1181 86
-0.22740999 -0.38006783 -0.021071944 240 84002048 48 21 1250 48
-0.23153684 -0.37640476 -0.020939168 220 84193792 43 21 1261 43
-0.23295636 -0.36851123 -0.020142516 212 84389376 41 21 1241 41
-0.23043339 -0.35482508 -0.018416436 236 84585216 43 21 1187 43
-0.2430314 -0.36433131 -0.020408066 120 84778752 23 21 1157 23
-0.24860562 -0.36295596 -0.020673618 159 84973312 31 21 1221 31
-0.23477538 -0.33394876 -0.016424805 327 85167616 55 21 1160 55
-0.26847142 -0.37200668 -0.023196349 62 85364736 13 21 1097 13
-0.28010243 -0.3782365 -0.024789654 25 85560832 5 21 1173 5
-0.28472289 -0.37477073 -0.024789654 23 85759232 5 21 1170 5
-0.2746636 -0.35249734 -0.021603044 169 85952768 34 21 1148 34
-0.29011801 -0.36302787 -0.023993002 42 86151168 9 21 1129 9
-1.3982004 -1.7039419 -0.25701377 125 86346752 619 21 1138 619
-1.4087937 -1.6745224 -0.25488937 15 86545664 74 21 1189 74
-1.4007479 -1.6240891 -0.24904725 81 86737920 380 21 1155 380
-1.4258255 -1.6127169 -0.25010946 16 86934784 76 21 1158 76
-1.4282006 -1.5760062 -0.2466573 130 87129088 599 21 1209 599
-1.4373133 -1.5474699 -0.24466567 53 87324928 241 21 1187 241
-0.44664508 -0.46958354 -0.048556447 23 87519744 9 21 1174 9
-1.425706 -1.4613688 -0.23523861 12 87715584 52 21 1119 52
-0.74120748 -0.74159187 -0.10219769 83 87910400 93 21 1198 93
-0.6672442 -0.65146273 -0.086662978 16 88107008 14 21 1142 14
-0.72831368 -0.69379401 -0.096488357 29 88300288 30 21 1201 30
-1.4840748 -1.3788605 -0.23311421 19 88495872 80 21 1126 80
-1.4700364 -1.3325924 -0.22753765 60 88692736 241 21 1179 241
-1.4840509 -1.312483 -0.22713932 31 88887296 125 21 1151 125
-1.4850339 -1.2812264 -0.22448382 56 89081856 220 21 1122 220
-1.49306 -1.2565259 -0.22315606 63 89276928 244 21 1209 244
-1.5030035 -1.2337083 -0.22222663 51 89475840 197 21 1156 197
-1.5048736 -1.204644 -0.21996945 73 89671168 277 21 1154 277
-1.5171988 -1.1842571 -0.21957113 51 89867264 194 21 1107 194
-1.5213621 -1.1577487 -0.21784504 61 90061312 228 21 1158 228
-1.5314741 -1.1360404 -0.21718116 62 90257920 230 21 1193 230
-1.2255685 -0.88611293 -0.16433656 89 90455296 208 21 1076 208
-1.2193316 -0.85902351 -0.16154829 113 90652672 256 21 1204 256
-1.2150691 -0.83390439 -0.15915833 143 90847488 316 21 1203 316
-1.2144966 -0.81177348 -0.15743224 171 91044096 372 21 1163 372
-1.21772 -0.79248542 -0.15637004 189 91236352 407 21 1176 407
-1.2231661 -0.77483159 -0.15570617 195 91430912 416 21 1238 416
-1.2275192 -0.75664395 -0.15490952 224 91626496 474 21 1218 474
-1.2290603 -0.73693836 -0.15371454 285 91820032 596 21 1201 596
-1.2397238 -0.72279835 -0.15398009 227 92013312 476 21 1265 476
-1.2674739 -0.71827632 -0.15690115 134 92208896 289 21 1258 289
-1.28835 -0.70935786 -0.15876 61 92401664 134 21 1252 134
-0.8397702 -0.44918659 -0.089318484 95 92596224 88 21 1176 88
-0.74051934 -0.38454005 -0.073518217 13 92791296 9 21 1136 9
-0 -0 -0 7 92984064 0 21 1208 0
-0 -0 -0 6 93178624 0 21 1163 0
-0 -0 -0 10 93372672 0 21 1163 0
-0 -0 -0 9 93568768 0 21 1124 0
-1.4640733 -0.64921039 -0.17628635 18 93763328 47 21 1177 47
-0 -0 -0 6 93959424 0 21 1144 0
-0 -0 -0 8 94152448 0 21 1156 0
-0 -0 -0 7 94349568 0 21 1116 0
-1.4303558 -0.55198377 -0.16712485 18 94544896 43 21 1160 43
-1.3989296 -0.520235 -0.16168106 24 94742016 54 21 1189 54
-1.3417478 -0.48033008 -0.15265234 26 94935296 54 21 1195 54
-1.3194231 -0.45415875 -0.14866908 32 95131648 63 21 1223 63
-1.2712511 -0.42021751 -0.14110088 60 95327232 110 21 1179 110
-1.2800916 -0.40578258 -0.14163198 53 95524608 97 21 1208 97
-1.2811809 -0.38889289 -0.14110088 64 95720960 117 21 1137 117
-1.2858567 -0.37314156 -0.14110088 46 95917312 84 21 1145 84
-1.2912941 -0.35759825 -0.14123365 45 96112640 82 21 1150 82
-1.3530917 -0.35687545 -0.14920017 18 96308736 36 21 1130 36
-0 -0 -0 10 96503296 0 21 1162 0
-0 -0 -0 12 96700160 0 21 1152 0
-0 -0 -0 14 96896000 0 21 1231 0
-0.53214091 -0.11298917 -0.034615032 43 97090048 13 21 1140 13
-0.56653959 -0.11302122 -0.039129395 172 97284352 58 21 1120 58
-0.56788385 -0.10606039 -0.039129395 170 97478912 58 21 1204 58
-0.56816608 -0.098914258 -0.038996618 206 97675264 69 21 1205 69
-0.52921546 -0.085483395 -0.033552829 62 97870592 18 21 1219 18
-0 -0 -0 7 98066176 0 21 1156 0
-0 -0 -0 8 98258432 0 21 1202 0
-0 -0 -0 65 98454528 0 21 1738 0
-0 -0 -0 17 98650624 0 21 2518 0
-0 -0 -0 2 98847232 0 21 3194 0
-0 -0 -0 0 99040768 0 21 3892 0
-0 -0 -0 1 99235840 0 21 3977 0
-0 -0 -0 2 99429376 0 21 3377 0
-0 -0 -0 3 99624704 0 21 2919 0
-0 -0 -0 2 99821312 0 21 3083 0
-0 -0 -0 10 0 0 22 2980 0
-0 -0 -0 2 196352 0 22 2920 0
-0 0 -0 1 394496 0 22 3561 0
-0 0 -0 2 586240 0 22 3112 0
-0 0 -0 1 781312 0 22 2737 0
-0 0 -0 2 975872 0 22 2149 0
-0 0 -0 1 1172224 0 22 2759 0
-0 0 -0 3 1366016 0 22 3074 0
-0 0 -0 1 1561344 0 22 3117 0
-0 0 -0 4 1756928 0 22 2137 0
-0 0 -0 3 1952768 0 22 1833 0
-0 0 -0 3 2145536 0 22 1718 0
-0 0 -0 4 2342400 0 22 1827 0
-0 0 -0 3 2536960 0 22 1715 0
-0 0 -0 4 2729216 0 22 1837 0
-0 0 -0 3 2923776 0 22 1744 0
-0 0 -0 4 3118080 0 22 1803 0
-0.25912869 0.047882404 -0.0031587002 923 3314432 66 22 849 66
-0.25852159 0.051058706 -0.0031587002 929 3510272 66 22 926 66
-0.26077422 0.054841302 -0.0036285208 863 3706624 63 22 882 63
-0.26200888 0.058470283 -0.0039417343 757 3900672 56 22 960 56
-0.26415434 0.062366065 -0.0044115549 685 4097792 51 22 856 51
-0.26720127 0.066563293 -0.0050379825 638 4294144 49 22 921 49
-0.26827437 0.070340902 -0.005351196 538 4489216 42 22 908 42
-0.2645354 0.072837174 -0.0048813755 458 4683520 35 22 830 35
-0.2873354 0.082957603 -0.0087965466 286 4879616 26 22 847 26
-0.28629574 0.086477406 -0.0087965466 143 5074176 13 22 929 13
-0.42549807 0.13444313 -0.032130968 22 5270272 4 22 840 4
-0 0 -0 5 5467136 0 22 889 0
-0 0 -0 5 5662464 0 22 898 0
-0 0 -0 6 5858304 0 22 1053 0
-0 0 -0 6 6056192 0 22 1065 0
-0 0 -0 5 6249984 0 22 1024 0
-0.24022315 0.095681682 -0.0023756661 180 6447104 12 22 904 12
-0 0 -0 6 6643200 0 22 1119 0
-0.2505109 0.10699745 -0.0045681619 247 6837760 18 22 823 18
-0.21938378 0.09685234 0.00059986406 354 7032576 20 22 842 20
-0.2505033 0.11434723 -0.0050379825 443 7226112 34 22 875 34
-0.25622353 0.1207917 -0.0062908372 594 7422720 49 22 908 49
-0.28401071 0.13822579 -0.011458864 790 7615744 81 22 933 81
-0.31052202 0.15591376 -0.016470281 980 7809280 122 22 972 122
-0.34452748 0.17836562 -0.022891164 1218 8002304 188 22 1062 188
-0.34231272 0.18258007 -0.022891164 1266 8195840 196 22 1097 196
-0.37638515 0.20677282 -0.02946865 2164 8389376 410 22 1209 410
-0.38327166 0.21673208 -0.031191327 2659 8583680 528 22 1274 528
-0.37119734 0.21594749 -0.02946865 1954 8773888 370 22 1215 370
-0.33717707 0.20169589 -0.023674197 283 8970240 44 22 992 44
-0.30440798 0.18716288 -0.018036351 63 9163776 8 22 952 8
-0.30792886 0.19458374 -0.019132599 36 9360384 5 22 906 5
-1.6598364 1.0796391 -0.27534139 120 9555712 485 22 924 485
-1.6423569 1.0971825 -0.27455837 118 9753088 475 22 944 475
-1.6580858 1.1373724 -0.28019622 190 9948928 790 22 939 790
-1.652078 1.1633219 -0.28176227 203 10146304 853 22 965 853
-1.6536858 1.195081 -0.28489441 241 10340352 1033 22 923 1033
-1.6523807 1.2252877 -0.28755674 256 10537216 1113 22 1003 1113
-1.6568689 1.2604258 -0.2914719 211 10733056 941 22 971 941
-1.6607406 1.2958564 -0.29538709 240 10927872 1096 22 914 1096
-1.6663024 1.3334211 -0.29977205 219 11124224 1026 22 940 1026
-1.6681355 1.3688084 -0.30353063 212 11319296 1016 22 963 1016
-1.667837 1.4031672 -0.30697599 242 11514880 1182 22 990 1182
-1.6661961 1.4370776 -0.31026474 227 11709952 1131 22 957 1131
-1.6676708 1.4744285 -0.31433651 203 11905792 1035 22 918 1035
-1.6684769 1.5120296 -0.31840828 221 12099072 1154 22 865 1154
-1.6816322 1.5619709 -0.32529899 215 12294400 1165 22 921 1165
-1.6902319 1.6090529 -0.33140665 206 12488704 1154 22 959 1154
-1.6936843 1.652438 -0.33657467 176 12684288 1015 22 934 1015
-1.6984178 1.6982422 -0.34221253 209 12877312 1240 22 953 1240
-1.7250379 1.7677377 -0.3530184 250 13073664 1568 22 985 1568
-1.7740344 1.8631736 -0.36930552 326 13269248 2217 22 981 2217
-1.7557417 1.8898692 -0.37040177 759 13466112 5180 22 1122 5180
-1.7184908 1.8959031 -0.36711302 380 13661952 2555 22 984 2555
-1.6931334 1.914629 -0.36664319 344 13857280 2311 22 893 2311
-1.6740257 1.9404976 -0.36773944 899 14053888 6059 22 1075 6059
-1.6380063 1.9465343 -0.36476392 423 14252544 2812 22 949 2812
-1.6033459 1.9535084 -0.36210158 407 14447616 2671 22 926 2671
-1.5669112 1.9576135 -0.35896945 379 14646272 2448 22 946 2448
-1.5312268 1.9618994 -0.35599393 377 14844672 2400 22 916 2400
-1.493881 1.9632484 -0.35254857 396 15040512 2477 22 938 2477
-1.4579111 1.9655656 -0.34941643 412 15235840 2535 22 972 2535
-1.4261606 1.9729016 -0.34738055 396 15431168 2411 22 934 2411
-1.3916076 1.9757181 -0.34456164 388 15627520 2329 22 957 2329
-1.3572018 1.977986 -0.34174269 396 15822336 2340 22 1012 2340
-1.3224028 1.9788879 -0.33876717 368 16018688 2141 22 987 2141
-1.2899417 1.9825476 -0.33641806 337 16210944 1937 22 977 1937
-1.257591 1.9857106 -0.33406895 365 16405760 2071 22 1010 2071
-1.2238041 1.9858574 -0.33125004 409 16598784 2286 22 948 2286
-1.1917275 1.9880178 -0.32890093 370 16795648 2042 22 957 2042
-1.1597832 1.989692 -0.32655182 390 16986112 2125 22 948 2125
-1.1279784 1.9908834 -0.32420275 426 17180672 2291 22 937 2291
-1.0963203 1.9915959 -0.32185364 470 17373440 2495 22 945 2495
-1.0666775 1.9953175 -0.32013094 463 17568256 2433 22 976 2433
-1.0393829 2.0029964 -0.31919131 440 17763328 2303 22 898 2303
-0.85622847 1.7006369 -0.26328269 346 17958144 1289 22 1005 1289
-0.87167555 1.7855772 -0.27643764 166 18152192 675 22 948 675
-0.86405236 1.8264976 -0.28176227 187 18348800 786 22 934 786
-0.85925466 1.875577 -0.28849638 190 18542592 833 22 892 833
-0.84577715 1.9076515 -0.29225492 224 18737920 1004 22 916 1004
-0.81335592 1.8970071 -0.28865299 102 18934272 449 22 886 449
-0.81193149 1.9597716 -0.29773617 258 19131136 1194 22 967 1194
-0.8035863 2.0090225 -0.30447027 355 19325696 1707 22 981 1707
-0.53580999 1.3884132 -0.19735119 93 19520512 213 22 928 213
-0.50118673 1.3476676 -0.18936424 175 19718144 373 22 900 373
-0.48095208 1.3434868 -0.18764156 227 19913728 475 22 928 475
-0.45864773 1.3324761 -0.18482265 212 20111616 433 22 946 433
-0.43575779 1.3183093 -0.1815339 198 20305920 393 22 951 393
-0.41328555 1.3037844 -0.17824516 175 20502784 337 22 905 337
-0.39094982 1.2879642 -0.1747998 189 20700160 353 22 909 353
-0.36989045 1.2746413 -0.17182428 205 20896768 372 22 925 372
-0.34737453 1.2543347 -0.16775249 195 21090560 340 22 955 340
-0.32692343 1.2394016 -0.16462035 201 21287680 340 22 995 340
-0.30713177 1.2251165 -0.16164483 222 21482240 364 22 974 364
-0.28751254 1.209574 -0.1585127 230 21677824 366 22 941 366
-0.26918685 1.1975921 -0.15600698 200 21873920 310 22 951 310
-0.24915458 1.1756823 -0.1519352 153 22068480 227 22 984 227
-0.22739045 1.1418406 -0.14598414 91 22263552 127 22 862 127
-0.21119308 1.1328931 -0.14410487 75 22460160 103 22 929 103
-0.35454634 2.0423646 -0.29006246 206 22653696 911 22 937 911
-0.32616407 2.0260839 -0.28677371 327 22851072 1414 22 990 1414
-0.30026266 2.0230949 -0.28567746 293 23047424 1260 22 922 1260
-0.27514791 2.0246699 -0.28536424 331 23241984 1420 22 1039 1420
-0.25040218 2.0288742 -0.28552085 345 23435776 1482 22 939 1482
-0.22581218 2.0347393 -0.28599066 364 23630592 1568 22 934 1568
-0.2009225 2.0383401 -0.28614727 333 23827200 1435 22 974 1435
-0.17597844 2.0416362 -0.28630388 341 24022016 1471 22 965 1471
-0.15047587 2.0377321 -0.28536424 380 24216832 1630 22 932 1630
-0.10889333 1.7693135 -0.24245396 430 24410624 1388 22 964 1388
-0.10114743 2.0556083 -0.28771335 460 24608256 2000 22 1011 2000
-0.077327907 2.0951877 -0.29382101 590 24801280 2663 22 1051 2663
-0.048039563 1.9498485 -0.2706432 508 24998912 1986 22 956 1986
-0.025417654 2.0579383 -0.28771335 496 25192960 2158 22 966 2158
-0.00015876273 2.0847621 -0.29194173 890 25388288 3967 22 1134 3967
0.021902867 1.8001826 -0.24683896 72 25582592 239 22 848 239
0.044430457 1.8175507 -0.24965788 56 25780736 192 22 905 192
0.066257268 1.8040378 -0.24762198 58 25975552 197 22 860 197
0.088244885 1.8001294 -0.24715216 49 26170880 166 22 916 166
0.10929718 1.7821525 -0.24448985 54 26365184 179 22 884 179
0.13035829 1.7698423 -0.24276717 38 26560768 125 22 940 125
0.14892787 1.731701 -0.23697272 47 26754048 147 22 969 147
0.16774441 1.7051706 -0.23305756 49 26949632 150 22 917 150
0.18440704 1.6647002 -0.22694989 56 27144704 163 22 915 163
0.20058635 1.6280041 -0.22146864 34 27337984 96 22 892 96
0.21469617 1.582359 -0.21457794 28 27530240 75 22 880 75
0.22974719 1.5502964 -0.20987974 40 27725568 103 22 904 103
0.24420129 1.5190824 -0.20533814 28 27921408 70 22 922 70
0.26451397 1.5257024 -0.2069042 21 28118016 53 22 881 53
0.28104612 1.51069 -0.20502493 35 28314112 84 22 853 84
0.27681437 1.3928252 -0.18654531 99 28508416 206 22 956 206
0.31128183 1.4714524 -0.19985691 42 28705280 99 22 899 99
0.3303979 1.4723399 -0.20063993 40 28901376 95 22 864 95
0.34592944 1.4576045 -0.19891725 41 29098240 96 22 907 96
0.36331028 1.4513336 -0.19860405 36 29292800 82 22 845 82
0.38008574 1.4429458 -0.19797762 47 29488896 109 22 888 109
0.40250772 1.4553064 -0.20079654 70 29683456 165 22 905 165
0.41015437 1.4151611 -0.19500209 33 29880576 75 22 929 75
0.4188855 1.3816682 -0.19030388 29 30077184 63 22 901 63
0.43491402 1.3735993 -0.18983406 7 30273280 16 22 878 16
0.44987798 1.3625321 -0.18889442 25 30468608 54 22 860 54
0.46945703 1.365314 -0.19030388 31 30664704 68 22 892 68
0.48784035 1.3640997 -0.19108692 41 30859264 89 22 969 89
0.50901812 1.3700449 -0.1931228 69 31055872 153 22 868 153
0.53183675 1.37936 -0.19578512 85 31252224 192 22 859 192
0.54028636 1.3516383 -0.19218317 44 31446784 97 22 881 97
0.56136912 1.3558557 -0.19406244 61 31642624 136 22 933 136
0.58341449 1.361573 -0.19625494 77 31838464 175 22 945 175
0.59567541 1.3443793 -0.19453226 62 32034560 139 22 913 139
0.61130536 1.3351724 -0.19421905 55 32229120 123 22 942 123
0.52585113 1.1124082 -0.15647681 260 32425472 405 22 929 405
0.54379553 1.1147467 -0.15804288 392 32617728 619 22 889 619
0.55476928 1.1026967 -0.15710323 480 32813056 751 22 936 751
0.56598449 1.0914226 -0.1563202 526 33006848 817 22 981 817
0.58073235 1.0870079 -0.15679002 387 33203456 604 22 991 604
0.59498054 1.08153 -0.15710323 320 33394432 501 22 962 501
0.66225481 1.1695292 -0.17448659 56 33589248 105 22 929 105
0.68153101 1.1698469 -0.17605266 49 33783296 93 22 963 93
0.70142192 1.1707133 -0.17777534 38 33977856 74 22 903 74
0.71573555 1.1620177 -0.17777534 40 34172160 78 22 924 78
0.73258382 1.1573188 -0.17855836 35 34367232 69 22 870 69
0.7478081 1.1498975 -0.17887159 51 34561280 100 22 913 100
0.77229011 1.1562359 -0.18184711 40 34759936 81 22 885 81
0.79368567 1.1572583 -0.183883 24 34952704 50 22 946 50
0.80270815 1.1401645 -0.18247354 41 35149056 83 22 933 83
1.6256018 2.2491789 -0.40140992 106 35346688 843 22 970 843
1.6601415 2.2385795 -0.4032892 283 35541760 2259 22 963 2259
1.700646 2.2353294 -0.40673456 284 35738624 2304 22 924 2304
1.7504348 2.243098 -0.41252899 241 35933952 2005 22 1039 2005
