# .PCD v0.7 - Point Cloud Data file format
VERSION 0.7
FIELDS x y z intensity t reflectivity ring noise range
SIZE 4 4 4 4 4 2 2 2 4
TYPE F F F F U U U U U
COUNT 1 1 1 1 1 1 1 1 1
WIDTH 833
HEIGHT 1
VIEWPOINT 0 0 0 1 0 0 0
POINTS 833
DATA ascii
2.5160568 -2.2255559 0.32869157 302 61896192 3437 12 1615 3437
2.4959357 -2.2629564 0.32956314 298 62090240 3411 12 1620 3411
2.5197847 -2.3415685 0.33575121 96 62287360 1147 12 1625 1147
2.9395065 -2.7997031 0.38996208 355 62483712 5900 12 1648 5900
2.9020772 -2.8327808 0.38961345 355 62679552 5884 12 1706 5884
2.8692088 -2.8702943 0.38987491 332 62874112 5527 12 1718 5527
2.8261192 -2.8974426 0.38891619 353 63070720 5829 12 1663 5829
3.0066645 -3.1592364 0.41637027 605 63268352 11599 12 1651 11599
2.9161563 -3.1404104 0.40974641 116 63464448 2154 12 1547 2154
2.6821113 -2.9603698 0.38429695 80 63661312 1290 12 1607 1290
2.616555 -2.9602158 0.38046208 77 63857408 1213 12 1654 1213
2.5585659 -2.9672031 0.37758595 86 64056064 1335 12 1566 1335
2.4988792 -2.9709294 0.37444836 81 64253184 1233 12 1635 1233
2.4514933 -2.9882767 0.37296671 84 64450048 1267 12 1632 1267
2.3903697 -2.9877954 0.36956763 88 64645120 1301 12 1646 1301
2.3314688 -2.9886253 0.36643001 54 64842496 786 12 1588 786
2.2771318 -2.9940145 0.36390251 48 65038080 686 12 1649 686
2.2040336 -2.9729135 0.35858601 31 65234432 431 12 1600 431
0 -0 0 8 65431552 0 12 1566 0
0 -0 0 9 65627136 0 12 1566 0
1.8086256 -2.6371098 0.31457236 13 65821952 136 12 1614 136
0 -0 0 9 66017792 0 12 1573 0
0 -0 0 8 66211584 0 12 1596 0
0 -0 0 9 66407680 0 12 1513 0
1.9168102 -3.1120312 0.35457683 13 66602496 178 12 1590 178
1.8928097 -3.1592481 0.35701719 12 66795008 166 12 1632 166
1.89451 -3.251965 0.36407682 795 66989056 11354 12 1663 11354
1.8500438 -3.2671664 0.3632924 748 67184640 10631 12 1708 10631
1.7814853 -3.2381239 0.35815021 362 67379712 4986 12 1639 4986
1.5613825 -2.9223213 0.32468241 194 67572992 2150 12 1587 2150
1.5290719 -2.9483371 0.32537967 170 67768064 1892 12 1639 1892
1.4945667 -2.970439 0.3257283 184 67961344 2052 12 1661 2052
1.4597491 -2.9921374 0.32607689 170 68157440 1900 12 1667 1900
1.4259008 -3.0161302 0.32668701 176 68353024 1975 12 1648 1975
1.3995601 -3.0569525 0.32895306 191 68548096 2177 12 1674 2177
1.0646052 -2.4026041 0.26471928 86 68740864 604 12 1780 604
0.99424922 -2.3202519 0.25565508 256 68936704 1646 12 1609 1646
0.94817686 -2.2899363 0.25164589 526 69131008 3256 12 1694 3256
0.92665797 -2.3180509 0.25321472 743 69328384 4668 12 1629 4668
0.89420128 -2.3190229 0.25225601 539 69524992 3357 12 1695 3357
1.2274176 -3.3038485 0.34315944 149 69720064 1866 12 1660 1866
1.1706854 -3.2736354 0.33897597 277 69915648 3374 12 1711 3374
1.0902729 -3.1709344 0.32816866 43 70112512 490 12 1594 490
1.0494052 -3.1783991 0.32764572 49 70307328 556 12 1591 556
1.0076171 -3.1824896 0.32686132 68 70503424 767 12 1581 767
0.96444243 -3.1812677 0.32564113 53 70700544 594 12 1567 594
0.92034137 -3.1756399 0.32407233 66 70895616 731 12 1562 731
0.87572813 -3.1665308 0.32224205 79 71090944 862 12 1604 862
0.83274603 -3.1616251 0.32084757 74 71287040 800 12 1573 800
0.7892915 -3.1532445 0.3191916 69 71484672 735 12 1691 735
0.7450192 -3.1394296 0.31709987 65 71679232 684 12 1612 684
0.70316756 -3.133755 0.31579253 72 71876096 751 12 1577 751
0.66136187 -3.1265533 0.31439805 68 72070400 702 12 1618 702
0.62178004 -3.1285713 0.31387511 80 72265216 822 12 1633 822
0.58079195 -3.1222541 0.31265491 85 72459776 866 12 1600 866
0.53002095 -3.0574911 0.30629256 15 72655872 149 12 1537 149
0 -0 0 11 72849152 0 12 1556 0
0 -0 0 8 73043968 0 12 1662 0
0 -0 0 8 73239296 0 12 1517 0
0 -0 0 8 73435136 0 12 1600 0
0 -0 0 10 73632000 0 12 1544 0
0 -0 0 8 73828096 0 12 1609 0
0.063587748 -0.7363807 0.099471979 9 74023168 5 12 1578 5
0.054546438 -0.73710561 0.099471979 10 74219776 5 12 1647 5
0.045132078 -0.73175341 0.098949045 14 74414848 7 12 1507 7
0.036732126 -0.74419224 0.099994913 15 74610176 8 12 1615 8
0.027669745 -0.74657804 0.10016923 21 74808576 11 12 1612 11
0.018795984 -0.75881219 0.10121509 24 75002880 14 12 1576 14
0.0040012491 -0.3017652 0.061210606 207 75196416 19 12 1677 19
0.00031279869 -0.24899328 0.056591351 1570 75392256 98 12 2047 98
-0.0027427555 -0.24897836 0.056591351 893 75588096 55 12 1802 55
-0 -0 0 11 75781120 0 12 3286 0
-0 -0 0 8 75977472 0 12 3033 0
-0 -0 0 5 76171008 0 12 2799 0
-0.014956241 -0.24854389 0.056591351 1767 76368384 110 12 2140 110
-0.019770725 -0.27218503 0.05868309 2116 76563712 159 12 2302 159
-0.023109365 -0.2719219 0.05868309 2399 76760064 180 12 2354 180
-0.026444525 -0.27161786 0.05868309 2452 76951296 184 12 2307 184
-0.029775701 -0.27127287 0.05868309 2508 77146368 188 12 2288 188
-0.033102397 -0.27088705 0.05868309 2484 77339392 187 12 2302 187
-0.036558453 -0.27144754 0.058770247 2530 77536256 192 12 2308 192
-0.040326133 -0.27393457 0.059031714 2433 77729792 189 12 2286 189
-0.044001762 -0.2753861 0.059206024 2480 77924864 195 12 2283 195
-0.048571985 -0.28169575 0.059816115 2395 78119936 198 12 2183 198
-0.052390411 -0.2830371 0.059990425 2340 78316032 196 12 2131 196
-0.056638267 -0.28628087 0.060339049 2232 78510080 192 12 2120 192
-0.059527311 -0.28264067 0.060077582 2196 78706176 185 12 2081 185
-0.06342835 -0.28383276 0.060251892 2096 78903552 178 12 2021 178
-0.066445731 -0.28109467 0.060077582 2059 79099136 174 12 2085 174
-0.069890194 -0.28025812 0.060077582 1863 79294976 157 12 2037 157
-0.073832467 -0.28130579 0.060251892 1799 79491072 154 12 1981 154
-0.077544928 -0.2813386 0.060339049 1741 79687936 150 12 1909 150
-0.081547014 -0.28227922 0.060513362 1729 79884544 150 12 1914 150
-0.085873224 -0.28411692 0.060774829 1674 80082176 149 12 1871 149
-0.092063442 -0.29158807 0.06155923 1487 80277504 141 12 1896 141
-0.095634744 -0.29043636 0.06155923 1497 80474880 141 12 1871 141
-0.097894289 -0.28547323 0.061210606 1437 80669952 132 12 1789 132
-0.10172599 -0.28518829 0.061297763 1342 80867584 124 12 1678 124
-0.10521802 -0.28391847 0.061297763 1333 81062400 124 12 1758 124
-0.10977059 -0.28539392 0.06155923 1254 81257472 118 12 1787 118
-0.11437504 -0.2868 0.061820697 1157 81451520 111 12 1778 111
-0.11826739 -0.28629509 0.061907854 1173 81647872 114 12 1807 114
-0.12255727 -0.28665322 0.062082164 1156 81844224 113 12 1822 113
-0.12646969 -0.28603828 0.062169321 1115 82039296 110 12 1773 110
-0.13080049 -0.28627595 0.062343631 1109 82233088 110 12 1830 110
-0.13558224 -0.28735057 0.062605098 1069 82428928 109 12 1777 109
-0.14084707 -0.28924564 0.062953718 1012 82623488 106 12 1752 106
-0.14707486 -0.29283366 0.063476659 927 82819328 100 12 1702 100
-0.15157539 -0.29277503 0.063650966 908 83013888 100 12 1652 100
-0.15656634 -0.2935282 0.063912436 908 83207936 101 12 1717 101
-0.16207898 -0.29507521 0.064261056 807 83401728 92 12 1707 92
-0.16667032 -0.2947973 0.06443537 784 83595520 90 12 1700 90
-0.17077726 -0.29359034 0.064522527 723 83790592 84 12 1731 84
-0.17692915 -0.29574412 0.064958304 723 83986176 86 12 1682 86
-0.18368207 -0.29863846 0.065481238 687 84180480 85 12 1652 85
-0.19053219 -0.30141085 0.066004172 668 84373504 85 12 1643 85
-0.19802102 -0.30489421 0.066614263 637 84569600 85 12 1670 85
-0.2045161 -0.30658197 0.06705004 564 84764416 77 12 1681 77
-0.21108198 -0.3081556 0.067485817 536 84961024 75 12 1679 75
-0.21714303 -0.30879936 0.067834444 454 85152768 65 12 1660 65
-0.22149992 -0.30691862 0.067921601 492 85349632 71 12 1635 71
-0.22999887 -0.31057724 0.068618841 425 85544704 64 12 1608 64
-0.24224086 -0.31882831 0.069839023 356 85743104 57 12 1641 57
-0.25655806 -0.32917958 0.071320675 317 85938688 55 12 1686 55
-0.26555991 -0.33222717 0.072017916 272 86135552 49 12 1628 49
-0.27151343 -0.33125299 0.072279386 273 86331392 50 12 1678 50
-0.28325716 -0.33704102 0.073325254 213 86530304 41 12 1666 41
-0.29453173 -0.34183523 0.074283965 178 86722816 36 12 1687 36
-0.30530548 -0.34565613 0.075155526 143 86919680 30 12 1626 30
-0.31153187 -0.34409735 0.07541699 135 87115776 29 12 1609 29
-0.32047853 -0.34535617 0.07602708 115 87309824 25 12 1636 25
-0.33087653 -0.34788907 0.076811485 85 87503872 19 12 1644 19
-0.34068814 -0.34950501 0.077508733 76 87699712 18 12 1696 18
-0.35199758 -0.35234007 0.078380287 59 87895552 14 12 1632 14
-0.36057407 -0.3521671 0.078903221 50 88091136 12 12 1613 12
-0.37064204 -0.35320947 0.079600468 43 88286464 11 12 1581 11
-0.38078904 -0.35405695 0.080297716 35 88480000 9 12 1663 9
-0.40577817 -0.36808366 0.082738072 11 88677120 3 12 1644 3
-0 -0 0 10 88872448 0 12 1630 0
-0.41468918 -0.35801449 0.082738072 8 89068800 2 12 1596 2
-0.41676405 -0.35097519 0.082476608 19 89261824 5 12 1629 5
-0.43028265 -0.35341555 0.083522476 8 89460480 2 12 1588 2
-0 -0 0 9 89654784 0 12 1595 0
-0 -0 0 11 89851136 0 12 1614 0
-0 -0 0 7 90046720 0 12 1654 0
-0 -0 0 8 90242304 0 12 1561 0
-0 -0 0 8 90439936 0 12 1542 0
-0.57894033 -0.40795907 0.096770152 16 90636800 8 12 1682 8
-0.60526496 -0.41547087 0.099036202 21 90832128 11 12 1597 11
-0.61363167 -0.41022494 0.099384822 21 91028480 11 12 1677 11
-0.63699371 -0.41461012 0.10130225 36 91223040 21 12 1590 21
-0.64876801 -0.4110238 0.10199949 27 91415040 16 12 1628 16
-0.66818351 -0.41191146 0.10348114 28 91609600 17 12 1560 17
-0.69113481 -0.4144308 0.10531141 21 91803392 14 12 1528 14
-0.72457576 -0.42246377 0.10818755 15 91997952 10 12 1580 10
-0.73490697 -0.41648498 0.10871048 21 92192256 15 12 1604 15
-0 -0 0 11 92387328 0 12 1504 0
-0.76599544 -0.40958852 0.11080223 11 92579584 8 12 1615 8
-0 -0 0 7 92774912 0 12 1573 0
-0 -0 0 9 92968704 0 12 1556 0
-0 -0 0 8 93165568 0 12 1633 0
-0 -0 0 8 93357312 0 12 1616 0
-0 -0 0 8 93552896 0 12 1560 0
-0 -0 0 8 93746176 0 12 1668 0
-0 -0 0 9 93942784 0 12 1654 0
-0 -0 0 7 94137600 0 12 1589 0
-0 -0 0 7 94333440 0 12 1531 0
-0 -0 0 6 94529024 0 12 1656 0
-0 -0 0 9 94725888 0 12 1591 0
-0 -0 0 7 94919424 0 12 1586 0
-0 -0 0 9 95116032 0 12 1636 0
-0 -0 0 8 95313408 0 12 1539 0
-0 -0 0 8 95508736 0 12 1585 0
-0 -0 0 9 95704320 0 12 1675 0
-0 -0 0 7 95900928 0 12 1556 0
-1.1789502 -0.32629731 0.14182967 10 96097024 15 12 1689 15
-1.408294 -0.37115291 0.16222411 155 96292096 332 12 1922 332
-6.2273903 -1.5583984 0.596434 25 96488448 1072 12 2213 1072
-6.2838478 -1.4908277 0.59983307 29 96683520 1222 12 2101 1222
-6.3590207 -1.4264644 0.60497528 24 96879616 1033 12 2076 1033
-6.428678 -1.3594486 0.60968167 18 97074432 791 12 2057 791
-0 -0 0 10 97270528 0 12 1955 0
-0 -0 0 9 97463296 0 12 1944 0
-6.43117 -1.1144241 0.60584682 35 97659136 1538 12 1780 1538
-6.4571481 -1.0374736 0.60697985 22 97853440 984 12 1783 984
-9.5853977 -1.4194689 0.88256633 9 98049536 857 12 1684 857
-0 -0 0 9 98243328 0 12 1698 0
-0 -0 0 9 98438144 0 12 1664 0
-0 -0 0 9 98634496 0 12 1695 0
-0 -0 0 7 98830848 0 12 1770 0
-0 -0 0 6 99024384 0 12 1948 0
-0 -0 0 7 99219456 0 12 2162 0
-0 -0 0 6 99415296 0 12 2252 0
-0 -0 0 6 99608064 0 12 2378 0
-0 -0 0 6 99803904 0 12 2153 0
-0 -0 0 5 0 0 13 1642 0
-0 -0 0 5 196352 0 13 2488 0
-0 0 0 1 394496 0 13 2599 0
-0 0 0 4 586496 0 13 2081 0
-0 0 0 7 781824 0 13 1731 0
-0 0 0 4 978432 0 13 1615 0
-0 0 0 5 1172224 0 13 1445 0
-0 0 0 6 1364992 0 13 1397 0
-0 0 0 5 1560320 0 13 1348 0
-0.52003711 0.044546664 0.068026975 196 1757184 53 13 1152 53
-0.52640367 0.051611703 0.068466507 244 1951744 68 13 1193 68
-0.53664172 0.059280746 0.069157206 617 2146816 181 13 1149 181
-0.55667406 0.068433151 0.070475802 913 2341632 289 13 1150 289
-0.54194766 0.073374905 0.069596738 1626 2536192 489 13 1198 489
-0.54495513 0.080606796 0.069847897 1795 2729728 548 13 1197 548
-0.54392493 0.087288164 0.069847897 1744 2925824 531 13 1198 531
-0.54182953 0.093785487 0.069785111 1880 3116544 571 13 1203 571
-0.54161894 0.10061046 0.069847897 1680 3311616 513 13 1190 513
-0.54915267 0.10900423 0.070413016 982 3506432 310 13 1113 310
-0.56241864 0.11883967 0.071354873 93 3703040 31 13 1007 31
-0.55215448 0.12376195 0.070789754 194 3898624 62 13 1090 62
-0.53991365 0.12798877 0.070099063 1301 4094464 403 13 1251 403
-0.53346217 0.13339083 0.069785111 803 4291072 244 13 1045 244
-0.49801019 0.1310149 0.067587443 20 4485888 5 13 1028 5
-1.7303528 0.47898361 0.14814767 109 4680704 354 13 1069 354
-0.52148169 0.150988 0.069345579 534 4877056 158 13 1097 158
-0.48043585 0.14548673 0.066771165 1222 5073152 309 13 1187 309
-0.51857054 0.16404201 0.069408365 455 5267200 135 13 1041 135
-0.56105405 0.1851199 0.072359517 261 5463296 91 13 1042 91
-0.48230451 0.16567114 0.06727349 62 5658880 16 13 1039 16
-0.47271845 0.16888535 0.066771165 47 5855744 12 13 1031 12
-0.46032107 0.17084566 0.066080466 170 6052352 41 13 976 41
-0.44887936 0.17288715 0.065452561 74 6248192 17 13 1060 17
-1.5558268 0.6222868 0.14061281 16 6443008 47 13 963 47
-1.6310486 0.67572939 0.14626396 66 6639616 208 13 1029 208
-1.5841116 0.67916805 0.14362676 433 6834944 1293 13 1106 1293
-0.45901361 0.20320307 0.066771165 394 7032064 100 13 1367 100
-0.43471128 0.19883981 0.065264195 1156 7224832 265 13 1319 265
-0.4430635 0.20928302 0.06601768 1915 7421696 462 13 1501 462
-0.43508124 0.21207631 0.065640934 2809 7613696 662 13 1808 662
-0.43422866 0.21829741 0.065766513 4874 7807488 1159 13 1956 1159
-0.42885983 0.22222997 0.065578148 5002 8002304 1175 13 1904 1175
-0.40057907 0.21382524 0.063757218 4578 8194816 949 13 2097 949
-0.39617652 0.2177619 0.063631639 5340 8388352 1100 13 2139 1100
-0.39086974 0.22113068 0.063443266 5768 8582400 1169 13 2277 1169
-0.40278283 0.23445803 0.064510703 2958 8773120 646 13 1571 646
-0.46064356 0.27582964 0.068968832 920 8969728 267 13 1132 267
-0.4504278 0.2772713 0.068466507 1564 9165312 440 13 1212 440
-0.45289257 0.28651714 0.068906039 1588 9359360 458 13 1235 458
-0.44181472 0.28715289 0.068340927 1190 9553920 332 13 1168 332
-0.42747194 0.2853418 0.067524649 68 9751296 18 13 1011 18
-0.38362086 0.26288843 0.064447917 26 9948416 5 13 980 5
-0 0 0 13 10144768 0 13 1008 0
-2.1553676 1.5583558 0.20252427 34 10340864 244 13 1088 244
-2.1424935 1.5894462 0.20302659 39 10535424 283 13 983 283
-2.1355329 1.6252908 0.20403124 37 10731520 272 13 988 272
-2.1272264 1.6605883 0.2049731 24 10927104 180 13 1009 180
-2.1199317 1.697173 0.20604053 20 11125504 152 13 1034 152
-1.5929687 1.3075757 0.16484995 261 11316992 1116 13 1039 1116
-1.5813836 1.3308821 0.1652267 661 11511040 2839 13 1016 2839
-1.5815542 1.364534 0.1666081 459 11705344 2013 13 1089 2013
-1.6013162 1.4162441 0.16968483 336 11901440 1545 13 1077 1545
-1.6089523 1.4585832 0.1718197 261 12096256 1239 13 1046 1239
-1.6040905 1.490448 0.17294994 369 12290304 1780 13 1035 1780
-1.6196429 1.5423746 0.17590109 481 12484864 2419 13 1018 2419
-1.6248736 1.5858388 0.17803596 414 12680448 2145 13 1059 2145
-1.6574985 1.6578965 0.18268247 338 12873728 1867 13 1112 1867
-1.6579325 1.6995472 0.18456618 350 13070080 1983 13 1145 1983
-1.6596549 1.7436241 0.18663827 342 13267456 1993 13 1109 1993
-1.6578254 1.7850699 0.18845919 376 13462272 2244 13 1020 2244
-1.6558957 1.8274699 0.1903429 410 13657344 2507 13 1052 2507
-1.6525111 1.8693403 0.19216383 443 13852672 2773 13 1062 2773
-1.6815807 1.9499503 0.19718707 667 14050048 4445 13 1145 4445
-1.649817 1.961273 0.19643359 622 14247680 4105 13 1115 4105
-1.6047385 1.9559062 0.19436149 697 14444800 4482 13 1097 4482
-1.5712646 1.9637609 0.19341964 767 14641664 4874 13 1110 4874
-1.5384548 1.9718773 0.19254057 681 14840064 4281 13 1114 4281
-1.5014551 1.9739249 0.19122197 697 15036928 4309 13 1060 4309
-1.4664216 1.9777691 0.19009174 689 15234048 4195 13 1105 4195
-1.4315214 1.9810531 0.18896152 738 15428096 4432 13 1049 4432
-1.3961887 1.9829643 0.18776849 754 15624960 4458 13 1132 4458
-1.3638482 1.9884247 0.18688942 700 15819008 4090 13 1151 4090
-1.331031 1.9925617 0.18594757 675 16015872 3892 13 1193 3892
-1.2972307 1.9945211 0.18488014 757 16209920 4305 13 1175 4305
-1.2625169 1.9942665 0.18368711 814 16403200 4557 13 1151 4557
-1.232716 2.0011113 0.1830592 793 16596480 4400 13 1148 4400
-1.1972966 1.998108 0.18174061 877 16793088 4780 13 1102 4780
-1.1646498 1.9988517 0.18073596 900 16984064 4840 13 1110 4840
-1.1326579 1.9999655 0.1797941 890 17178880 4723 13 1195 4723
-1.1027392 2.0040951 0.1791034 872 17373440 4587 13 1077 4587
-1.0752414 2.0121946 0.17872666 911 17565696 4765 13 1013 4765
-0.98339856 1.8958793 0.16955924 584 17760000 2680 13 1285 2680
-0.85735923 1.7036304 0.15518022 645 17954816 2359 13 1139 2359
-0.83376348 1.7086412 0.15480347 584 18150144 2121 13 1065 2121
-0.8093214 1.7115254 0.15430115 572 18345728 2060 13 1176 2060
-0.78534997 1.7149757 0.15386161 607 18541568 2170 13 1064 2170
-0.78243369 1.7655475 0.15668719 444 18734592 1664 13 1115 1664
-0.76581717 1.7869426 0.15750347 436 18931200 1656 13 1210 1656
-0.76978433 1.8589129 0.16177322 400 19129088 1628 13 1129 1628
-0.79579711 1.9905543 0.17006157 345 19325440 1594 13 1088 1594
-0.77669382 2.0141389 0.17100343 250 19516928 1171 13 1102 1171
-0.74844408 2.0141625 0.17037553 254 19713280 1180 13 1052 1180
-0.72165513 2.0175567 0.16999878 210 19908096 971 13 1048 971
-0.69424707 2.0187099 0.16949646 221 20105984 1014 13 1033 1014
-0.66066384 2.0005407 0.16773832 111 20301824 497 13 995 497
-0.44032332 1.3900156 0.12692448 95 20497664 204 13 974 204
-0.42033812 1.385763 0.12629658 134 20695040 283 13 962 283
-0.39497006 1.3620585 0.12441286 227 20891648 459 13 1039 459
-0.37530074 1.3562214 0.12372217 253 21085696 504 13 1037 504
-0.35507229 1.3472128 0.1228431 279 21282816 545 13 1002 545
-0.33124641 1.3224231 0.12095939 327 21478912 612 13 1006 612
-0.30854416 1.299198 0.11920125 384 21672448 688 13 980 688
-0.28842831 1.2843835 0.11800823 420 21867776 732 13 1004 732
-0.26934239 1.2722032 0.11700358 367 22062336 624 13 984 624
-0.24982168 1.2558346 0.11574777 240 22258432 396 13 1042 396
-0.22308302 1.1979702 0.11185475 104 22454016 156 13 979 156
-0.20836529 1.2006176 0.11185475 108 22649600 162 13 931 162
-0.19266658 1.1971717 0.11147802 92 22844672 136 13 1030 136
-0.30088228 2.0297368 0.16428484 476 23041280 2016 13 1019 2016
-0.27380708 2.0174525 0.16328019 1259 23236864 5241 13 1155 5241
-0.24890733 2.01967 0.1632174 1077 23432704 4481 13 1094 4481
-0.22388469 2.0205884 0.16309182 1132 23626752 4703 13 1106 4703
-0.19868194 2.0192106 0.16284066 1186 23823360 4905 13 1145 4905
-0.17499764 2.0344236 0.16365694 1355 24017408 5679 13 1098 5679
-0.1429978 1.9408649 0.15762904 949 24212480 3612 13 1326 3612
-0.12026615 1.9604045 0.15875928 777 24408064 3012 13 1274 3012
-0.10262675 2.0933154 0.16704762 1257 24604160 5545 13 1178 5545
-0.077040173 2.0974092 0.167236 1246 24797440 5512 13 1209 5512
-0.048826531 1.996428 0.16083136 745 24995072 2986 13 1028 2986
-0.02552004 2.0966723 0.16711041 1078 25189632 4763 13 1113 4763
0.0001388143 1.8413328 0.15103604 254 25384704 867 13 950 867
0.023348777 1.8900919 0.15411277 125 25581056 450 13 985 450
0.04480705 1.8198227 0.14971744 146 25776640 488 13 960 488
0.067357808 1.8251199 0.15009418 118 25970432 397 13 960 397
0.089109465 1.8111973 0.14927791 127 26166016 422 13 919 422
0.1114519 1.8119597 0.14940348 141 26361600 469 13 996 469
0.13382645 1.8124462 0.14952907 140 26555648 467 13 941 467
0.15614378 1.8116617 0.14959186 124 26751488 414 13 987 414
0.178462 1.8106024 0.14965466 122 26944512 408 13 959 408
0.20099831 1.8112519 0.14984302 110 27140096 369 13 937 369
0.22333246 1.8096393 0.14990582 105 27334144 353 13 937 353
0.24592648 1.8097292 0.15009418 91 27528704 307 13 948 307
0.26884973 1.8115109 0.15040813 99 27721216 336 13 954 336
0.2921713 1.8149725 0.15084767 90 27915520 308 13 937 308
0.31544721 1.8171501 0.15122442 84 28110848 289 13 934 289
0.33900338 1.8200101 0.15166394 80 28307200 278 13 935 278
0.36267707 1.8225646 0.15210348 83 28503040 289 13 1030 289
0.40136683 1.8951067 0.15706393 25 28698880 96 13 996 96
0.41846201 1.8627745 0.1553058 43 28894976 160 13 978 160
0.43551767 1.8332253 0.15373604 90 29091840 323 13 958 323
0.45943803 1.833551 0.15411277 76 29286400 275 13 1010 275
0.4831771 1.8325999 0.15442672 88 29482752 319 13 998 319
0.50722831 1.8323034 0.15480347 71 29679104 260 13 996 260
0.53106648 1.8307332 0.15511742 68 29873920 251 13 939 251
0.55523229 1.8298082 0.15549417 74 30069760 273 13 1030 273
0.58005852 1.8304676 0.15599649 59 30265856 221 13 984 221
0.60467082 1.8298445 0.15643603 82 30462208 308 13 989 308
0.63032961 1.831723 0.15706393 68 30657536 259 13 917 259
0.65646166 1.8341855 0.15775463 86 30853888 330 13 982 330
0.68274844 1.8362808 0.15844533 50 31048448 195 13 950 195
0.70702827 1.8324194 0.15875928 69 31245056 269 13 994 269
0.73279929 1.8319442 0.15932439 71 31440384 280 13 973 280
0.76592618 1.8486283 0.16108252 13 31638016 55 13 894 55
0.92036808 2.1463482 0.18211734 197 31831808 1082 13 997 1082
0.97132444 2.190542 0.18594757 720 32028416 4154 13 1209 4154
1.0027071 2.1884372 0.18663827 744 32222976 4330 13 1177 4330
1.0363187 2.1904011 0.18764292 773 32419584 4562 13 1117 4562
1.0714422 2.1945577 0.18883593 701 32613632 4202 13 1062 4202
1.1045779 2.1937227 0.189715 700 32807680 4244 13 1115 4244
1.1387732 2.1941748 0.19071965 730 33001728 4484 13 1056 4484
1.1736155 2.1949959 0.19178709 707 33198080 4400 13 1063 4400
1.2057594 2.1900449 0.19247778 675 33389568 4239 13 1061 4239
1.2414029 2.1907115 0.19360802 445 33584128 2839 13 988 2839
1.1540596 1.9796102 0.17935456 9 33780224 51 13 981 51
1.1828856 1.9730021 0.17991967 11 33972224 62 13 929 62
1.2143414 1.9702311 0.18079875 20 34165504 111 13 935 111
1.2416328 1.9602391 0.18117549 8 34360832 47 13 972 47
1.2759397 1.9607466 0.18236852 18 34556160 103 13 933 103
1.3226482 1.9789578 0.18494292 13 34753536 77 13 986 77
1.3649086 1.9889076 0.18695222 14 34948608 86 13 942 86
1.3926622 1.9769031 0.18732896 8 35142400 51 13 964 51
1.47121 2.0348725 0.19316848 6 35340288 41 13 1022 41
1.5162917 2.0439148 0.19530335 15 35536384 103 13 918 103
0 0 0 9 35735296 0 13 972 0
0 0 0 14 35928320 0 13 942 0
1.6784576 2.096561 0.20415682 38 36126464 280 13 992 280
1.731927 2.1097434 0.20691961 72 36323072 544 13 981 544
1.7653998 2.0974927 0.20767309 67 36519424 512 13 894 512
1.8001357 2.0862482 0.20855215 76 36715264 585 13 979 585
1.8414733 2.0819399 0.21005914 80 36911104 626 13 979 626
1.8843148 2.078407 0.21169168 58 37107456 463 13 1030 463
1.9348184 2.0821748 0.21401493 61 37303552 500 13 971 500
1.9746803 2.0734499 0.21533354 50 37498112 417 13 978 417
2.0139201 2.0633438 0.21658935 43 37693952 365 13 961 365
2.0475597 2.0469406 0.21734282 64 37889024 545 13 959 545
2.0875294 2.0362926 0.21866143 52 38083584 450 13 972 450
2.1318822 2.0290973 0.22035678 58 38278144 511 13 941 511
2.1771009 2.0217965 0.22211491 42 38472192 379 13 940 379
2.2165411 2.0083284 0.22337072 40 38668800 366 13 936 366
2.2544808 1.992873 0.22450095 41 38864384 379 13 971 379
2.7164323 2.3423736 0.26085666 242 39060480 3134 13 1004 3134
2.7747622 2.3339138 0.26330549 274 39254016 3624 13 1033 3624
2.8325171 2.3237386 0.26569152 145 39451136 1964 13 982 1964
1.4821081 1.186 0.1546151 27 39646976 100 13 970 100
1.4949766 1.1664953 0.15448952 29 39843584 107 13 927 107
1.5155343 1.1528946 0.15499185 48 40036864 177 13 951 177
1.5816844 1.1728392 0.15907323 316 40232192 1233 13 999 1233
1.6194195 1.170289 0.16089416 485 40427008 1947 13 1069 1947
1.6442685 1.1577959 0.16171043 439 40624128 1785 13 1035 1785
1.6690532 1.144868 0.16252671 494 40818432 2035 13 985 2035
1.7078764 1.1409271 0.16441043 417 41012480 1769 13 1010 1769
1.7418302 1.1329392 0.1659174 398 41207808 1729 13 1042 1729
1.7699387 1.1205519 0.16698483 192 41404160 849 13 1015 849
1.8099009 1.1149703 0.16893134 18 41596416 83 13 1085 83
1.8191661 1.090112 0.16861738 28 41791488 129 13 1017 129
2.8819599 1.6790051 0.24503344 290 41987584 3246 13 1021 3246
2.8867137 1.6346625 0.24390322 302 42181376 3343 13 1047 3343
2.8934391 1.5919002 0.24296136 323 42375680 3544 13 995 3544
2.9048333 1.5520414 0.24239625 339 42571264 3699 13 1001 3699
2.9440391 1.5268435 0.24384043 17 42767104 196 13 964 196
2.8555634 1.4367841 0.23630556 55 42962688 572 13 956 572
2.8963027 1.4130087 0.23793812 117 43159296 1226 13 1019 1226
2.8944755 1.3684046 0.23661952 405 43351808 4176 13 990 4176
2.8892701 1.3228135 0.23511255 388 43547904 3941 13 1008 3941
2.8742599 1.2735158 0.23297767 283 43742720 2814 13 1035 2814
2.8814147 1.2346117 0.23241256 327 43938048 3231 13 1062 3231
2.8926597 1.1976328 0.23216139 255 44129280 2517 13 985 2517
2.8997245 1.1590827 0.23165907 290 44324864 2844 13 1056 2844
2.8774109 1.1094134 0.22921024 217 44517888 2077 13 1069 2077
2.8618052 1.0632482 0.22726373 227 44712704 2132 13 954 2132
2.8445644 1.0172987 0.22525443 306 44908544 2810 13 1008 2810
2.8653286 0.9852345 0.22581954 355 45104384 3280 13 1003 3280
2.8819418 0.95156229 0.2261335 322 45298944 2984 13 1013 2984
2.9000626 0.91823274 0.22657304 295 45497088 2748 13 992 2748
2.914933 0.88373315 0.22682419 303 45690624 2830 13 996 2830
2.9217236 0.84678507 0.22657304 321 45886464 2989 13 1043 2989
2.9203517 0.80767632 0.22581954 308 46082816 2844 13 1036 2844
2.915566 0.76796699 0.22487769 360 46277376 3291 13 1007 3291
2.9344525 0.73455292 0.22550559 190 46473472 1750 13 1081 1750
6.1050997 1.4484313 0.42995152 192 46669312 7608 13 1084 7608
6.1341009 1.376024 0.43070501 53 46866176 2123 13 1063 2123
2.6939077 0.56989831 0.20842658 173 47061504 1322 13 993 1322
2.7075508 0.538158 0.2088661 207 47258368 1589 13 998 1589
0 0 0 207 47452160 0 13 1034 0
2.7081418 0.46950516 0.20811263 258 47649280 1962 13 1009 1962
2.6870937 0.43196356 0.20641728 346 47844352 2579 13 1022 2579
2.7129247 0.40202564 0.20773588 562 48041472 4248 13 1045 4248
2.6860065 0.36441451 0.20572658 911 48235264 6726 13 1118 6726
2.6952288 0.33203506 0.20604053 918 48432384 6800 13 1138 6800
2.419363 0.26799348 0.18833362 411 48627200 2447 13 1165 2447
2.363868 0.23252901 0.18462896 514 48823296 2915 13 1144 2915
2.3327348 0.20060144 0.18249409 341 49018112 1881 13 1055 1881
2.3439789 0.17261833 0.1830592 74 49213440 414 13 969 414
2.3429322 0.14365835 0.18287084 76 49408256 425 13 901 425
2.2797241 0.11173142 0.17878945 536 49603328 2808 13 1019 2808
2.2779317 0.083637938 0.17860109 587 49795072 3067 13 975 3067
2.2688091 0.055435814 0.17797318 614 49990656 3179 13 1006 3179
2.2274044 0.027087362 0.17533597 328 50185472 1639 13 969 1639
2.2315612 -0.00024948933 0.17558713 653 50378752 3267 13 1058 3267
2.2194147 -0.027483795 0.17483366 593 50572800 2937 13 1077 2937
2.2099309 -0.054494377 0.17426853 623 50767360 3060 13 1137 3060
2.1791756 -0.080499001 0.17238481 136 50962176 652 13 1003 652
2.1730397 -0.10698851 0.17207086 107 51157504 512 13 975 512
2.1576173 -0.13278624 0.1711918 532 51353600 2497 13 1150 2497
2.1458724 -0.15851651 0.17056389 501 51546624 2331 13 1135 2331
2.123879 -0.18311952 0.16930808 82 51742976 377 13 967 377
2.1135263 -0.20838416 0.16880576 70 51937536 320 13 943 320
2.1058505 -0.23375325 0.16849181 85 52134912 386 13 1018 386
2.0948994 -0.25859809 0.16798948 86 52328448 388 13 967 388
2.0826681 -0.28307489 0.16742437 77 52523520 344 13 994 344
2.0691657 -0.3071439 0.16679646 81 52717824 358 13 1027 358
2.0612996 -0.33187732 0.1665453 82 52912640 362 13 929 362
2.0551052 -0.35680583 0.16641971 92 53108480 405 13 957 405
2.0201573 -0.37632662 0.16447321 735 53304576 3117 13 1100 3117
2.010493 -0.40011379 0.16415925 751 53500160 3172 13 1072 3172
2.0025027 -0.42413458 0.16397089 478 53696768 2014 13 980 2014
2.0010421 -0.44955221 0.16422205 95 53891328 404 13 1012 404
1.9808103 -0.47061107 0.16328019 597 54087168 2487 13 1035 2487
1.955525 -0.4900277 0.16202438 772 54282240 3154 13 1015 3154
1.9493644 -0.51398814 0.16202438 791 54477056 3230 13 1021 3230
1.9409866 -0.5373382 0.16189881 780 54672640 3180 13 1056 3180
1.9265789 -0.5588907 0.16139647 630 54867968 2549 13 1094 2549
1.9128906 -0.58046079 0.16095695 522 55064832 2097 13 1062 2097
1.8951586 -0.60057271 0.16026625 907 55260672 3601 13 1148 3601
1.8848033 -0.62284404 0.16007787 830 55456768 3285 13 1127 3285
1.8789054 -0.64657646 0.16020346 840 55650816 3333 13 1052 3333
1.8811649 -0.6732862 0.16089416 208 55847424 836 13 1018 836
1.8409578 -0.68448842 0.15875928 78 56043264 305 13 960 305
1.8305573 -0.70630938 0.15863369 75 56239872 292 13 1040 292
1.8115597 -0.72464061 0.157943 398 56434688 1524 13 991 1524
1.8025309 -0.74681669 0.157943 670 56630272 2563 13 1077 2563
1.7941477 -0.76927376 0.15800579 91 56825600 350 13 1027 350
1.7836602 -0.79082811 0.157943 98 57022464 377 13 969 377
1.7747284 -0.81307262 0.15800579 74 57216512 286 13 969 286
1.7646172 -0.83479005 0.15800579 83 57412096 320 13 911 320
1.7533433 -0.8559438 0.157943 473 57607424 1810 13 1052 1810
1.7427076 -0.87739557 0.157943 543 57803776 2078 13 1099 2078
5.402389 -2.8044627 0.41814691 737 57996032 27438 13 1039 27438
5.3341255 -2.8526599 0.41576087 417 58191616 15336 13 1119 15336
3.475126 -1.9135354 0.28477985 199 58388992 3156 13 955 3156
3.4861116 -1.9757233 0.28729147 209 58581760 3381 13 988 3381
3.502986 -2.0424883 0.29030541 134 58775040 2222 13 1038 2222
3.4853606 -2.0899415 0.29087052 148 58970880 2464 13 1033 2464
3.5138211 -2.1660779 0.29488912 206 59166208 3535 13 1013 3535
3.501307 -2.2181158 0.29595655 198 59361536 3426 13 1005 3426
3.5114625 -2.2854171 0.29878214 279 59556096 4931 13 978 4931
3.4524546 -2.3078117 0.29645887 382 59749376 6625 13 1073 6625
3.2510858 -2.2313867 0.28327286 1225 59945216 19140 13 1060 19140
3.2259059 -2.2728393 0.28346124 705 60139264 11034 13 968 11034
2.6050005 -1.8835442 0.2374358 22 60333824 236 13 939 236
2.5736759 -1.9094223 0.2368079 26 60528128 276 13 935 276
2.5500505 -1.9408615 0.2368079 13 60724224 142 13 947 142
2.4969363 -1.9492815 0.23448464 16 60916480 169 13 939 169
2.4408877 -1.9541981 0.23191023 40 61113088 401 13 903 401
2.5385892 -2.0840755 0.24183114 239 61308928 2597 13 945 2597
2.4685416 -2.0777898 0.23818928 336 61505280 3520 13 975 3520
2.4368138 -2.1027093 0.23768696 372 61699584 3880 13 927 3880
2.4452105 -2.1628752 0.24057533 261 61896192 2799 13 1015 2799
2.9892235 -2.7103012 0.2890496 145 62090240 2377 13 1110 2377
2.9784002 -2.767843 0.2909961 424 62287360 7046 13 1081 7046
2.9377067 -2.7979887 0.29043099 501 62483712 8285 13 1131 8285
2.8945804 -2.8254616 0.2896775 547 62679552 8996 13 1034 8996
2.8745055 -2.8755939 0.2909961 502 62874112 8339 13 1121 8339
2.8271556 -2.8985052 0.28992867 463 63070720 7630 13 1097 7630
3.0108376 -3.1636217 0.30995885 575 63268352 11023 13 1052 11023
2.7925189 -3.0072412 0.29338214 69 63464448 1177 13 1007 1177
2.6870627 -2.965836 0.28697753 69 63661312 1123 13 921 1123
2.6220465 -2.9664297 0.28427753 64 63857408 1021 13 903 1021
2.5554695 -2.9636116 0.28138915 47 64056064 734 13 961 734
2.498354 -2.9703052 0.27937987 66 64253184 1009 13 963 1009
2.4300697 -2.9621568 0.27624035 74 64450048 1101 13 963 1101
2.3873024 -2.9839609 0.27561244 46 64645120 685 13 967 685
2.3406842 -3.0004406 0.27460778 65 64842496 954 13 1014 954
2.2903979 -3.0114608 0.27322638 64 65038080 930 13 967 930
2.1415424 -2.8886039 0.26142177 25 65234432 335 13 908 335
1.841779 -2.5489876 0.23304047 7 65431552 77 13 945 77
1.828168 -2.5966973 0.23498696 10 65627136 108 13 971 108
1.8018087 -2.6271675 0.23561487 9 65821952 100 13 935 100
0 -0 0 6 66017792 0 13 941 0
0 -0 0 7 66211584 0 13 881 0
0 -0 0 7 66407680 0 13 947 0
1.8811014 -3.0540428 0.26085666 9 66602496 125 13 993 125
1.8804067 -3.1385419 0.26537758 26 66795008 359 13 957 359
1.9040357 -3.2683198 0.27316362 698 66989056 10036 13 1084 10036
1.8505096 -3.2679894 0.27146825 619 67184640 8773 13 1024 8773
1.7741933 -3.2248662 0.26675898 325 67379712 4429 13 1067 4429
1.5478095 -2.8969107 0.24183114 232 67572992 2521 13 942 2521
1.519034 -2.9289768 0.242773 215 67768064 2358 13 954 2358
1.4879098 -2.9572046 0.24346368 183 67961344 2020 13 1030 2020
1.4510708 -2.9743438 0.2434009 202 68157440 2227 13 1026 2227
1.4242703 -3.0126803 0.24484508 181 68353024 2027 13 969 2027
1.3863621 -3.0281165 0.24471949 202 68548096 2258 13 957 2258
1.0112011 -2.2820342 0.19222662 313 68740864 1962 13 998 1962
0.97015351 -2.2639966 0.19015454 535 68936704 3264 13 962 3264
0.93962604 -2.2692764 0.189715 536 69131008 3252 13 1005 3252
0.90763426 -2.2704415 0.1890243 534 69328384 3210 13 1034 3210
0.87790948 -2.2767525 0.18871035 496 69524992 2969 13 1010 2969
0.85129398 -2.2910967 0.18896152 498 69720064 2989 13 1057 2989
0.82714611 -2.3126481 0.189715 403 69915648 2444 13 1029 2444
0.79416245 -2.3094106 0.18883593 126 70112512 759 13 951 759
1.0438365 -3.1615262 0.24465671 38 70307328 431 13 943 431
1.0004441 -3.1598248 0.24371485 54 70503424 603 13 974 603
0.95956665 -3.1651781 0.24327531 72 70700544 797 13 1020 797
0.91398805 -3.1537082 0.24176835 79 70895616 863 13 978 863
0.8717615 -3.1521816 0.24095206 71 71090944 769 13 993 769
0.83148921 -3.1568513 0.24057533 67 71287040 726 13 905 726
0.78856933 -3.150358 0.23950788 79 71484672 845 13 944 845
0.74340105 -3.1326072 0.23774976 79 71679232 830 13 959 830
0.6994434 -3.1171482 0.23617999 90 71876096 929 13 999 929
0.65866137 -3.1137793 0.2354265 81 72070400 831 13 973 831
0.61903995 -3.1147754 0.23498696 89 72265216 908 13 978 908
0.58004063 -3.1182125 0.2347358 114 72459776 1159 13 954 1159
0.53576958 -3.0906773 0.23253813 11 72655872 116 13 928 116
0 -0 0 8 72849152 0 13 913 0
0 -0 0 6 73043968 0 13 972 0
0 -0 0 5 73239296 0 13 880 0
0 -0 0 6 73435136 0 13 953 0
0 -0 0 14 73632000 0 13 937 0
0.067878075 -0.6872642 0.078638576 7 73828096 3 13 972 3
0.057732251 -0.66815799 0.077382766 12 74023168 5 13 960 5
0.051064458 -0.68971837 0.078701362 16 74219776 8 13 916 8
0.042962212 -0.69627005 0.079078108 17 74414848 8 13 962 8
0.035437122 -0.71767843 0.080396704 20 74610176 10 13 913 10
0.026809694 -0.72304606 0.080710657 20 74808576 10 13 962 10
0.017837947 -0.71932971 0.080459498 28 75002880 14 13 956 14
0.0041278936 -0.31232879 0.054840967 242 75196416 23 13 1063 23
0.00031237752 -0.25047827 0.050947953 1065 75392256 67 13 1267 67
-0 -0 0 3 75588096 0 13 2372 0
-0 -0 0 1 75781120 0 13 2895 0
-0 -0 0 2 75977472 0 13 2577 0
-0 -0 0 3 76171008 0 13 2420 0
-0 -0 0 0 76368384 0 13 3713 0
-0 -0 0 0 76563712 0 13 4190 0
-0.022811428 -0.2684736 0.052140974 2759 76760064 201 13 1745 201
-0.026300505 -0.27015981 0.052266553 2784 76951296 206 13 1762 206
-0.029724086 -0.27080864 0.052329347 2767 77146368 207 13 1783 207
-0.033045087 -0.2704235 0.052329347 2739 77339392 205 13 1755 205
-0.036361109 -0.26999763 0.052329347 2770 77536256 207 13 1709 207
-0.03981838 -0.27051827 0.052392136 2783 77729792 210 13 1745 210
-0.043452706 -0.27197987 0.052517716 2708 77924864 207 13 1669 207
-0.047470659 -0.2753593 0.052768879 2690 78119936 212 13 1589 212
-0.051395036 -0.27769938 0.052957252 2573 78316032 207 13 1644 207
-0.055188932 -0.27900535 0.053082831 2586 78510080 210 13 1524 210
-0.059022561 -0.28025976 0.053208411 2441 78706176 201 13 1524 201
-0.062457334 -0.27951434 0.053208411 2333 78903552 192 13 1492 192
-0.065882705 -0.27872685 0.053208411 2160 79099136 178 13 1364 178
-0.070026472 -0.28080153 0.053396784 2113 79294976 178 13 1339 178
-0.073467068 -0.27992105 0.053396784 1994 79491072 168 13 1366 168
-0.077695973 -0.28188384 0.053585157 1919 79687936 165 13 1362 165
-0.081427515 -0.28186759 0.053647947 1855 79884544 161 13 1325 161
-0.085460298 -0.28275707 0.053773526 1808 80082176 159 13 1324 159
-0.091337167 -0.28929776 0.054275852 1692 80277504 157 13 1261 157
-0.095507085 -0.29005027 0.054401431 1602 80474880 151 13 1296 151
-0.10003406 -0.29168737 0.054589804 1539 80669952 147 13 1243 147
-0.10360598 -0.29043782 0.054589804 1435 80867584 137 13 1184 137
-0.1068143 -0.28820917 0.054527014 1448 81062400 137 13 1268 137
-0.11034303 -0.28687668 0.054527014 1365 81257472 129 13 1227 129
-0.11459684 -0.28735414 0.054652594 1354 81451520 130 13 1134 130
-0.11849667 -0.28684819 0.054715384 1337 81647872 129 13 1127 129
-0.12240129 -0.28628963 0.054778174 1279 81844224 125 13 1147 125
-0.12711939 -0.28750288 0.054966547 1269 82039296 126 13 1122 126
-0.13146965 -0.28773579 0.055092126 1170 82233088 117 13 1121 117
-0.13541768 -0.28700289 0.05515492 1227 82428928 124 13 1108 124
-0.13980547 -0.28711304 0.055280499 1158 82623488 118 13 1111 118
-0.14421621 -0.28715846 0.055406079 1112 82819328 115 13 1162 115
-0.14956875 -0.28891012 0.055657241 1073 83013888 114 13 1062 114
-0.15592715 -0.29233322 0.056033984 1032 83207936 114 13 1157 114
-0.16239168 -0.29564297 0.05641073 910 83401728 104 13 1094 104
-0.16649961 -0.29449615 0.05647352 889 83595520 102 13 1075 102
-0.17060378 -0.29329288 0.056536309 875 83790592 101 13 1118 101
-0.17727008 -0.29631257 0.056913052 801 83986176 96 13 1044 96
-0.18298812 -0.29751298 0.057164215 799 84180480 98 13 1018 98
-0.19036455 -0.3011463 0.05760375 725 84373504 92 13 1131 92
-0.19622369 -0.3021332 0.057854909 691 84569600 90 13 996 90
-0.20102598 -0.30136183 0.057980493 649 84764416 86 13 1053 86
-0.20979266 -0.30627745 0.058545608 578 84961024 80 13 1046 80
-0.21928439 -0.311838 0.059173513 511 85152768 74 13 1017 74
-0.22484922 -0.31154963 0.059361883 489 85349632 72 13 1008 72
-0.23222399 -0.31357566 0.059738625 451 85544704 69 13 982 69
-0.24451815 -0.32181963 0.060617693 398 85743104 65 13 1063 65
-0.2552056 -0.32744756 0.061308388 370 85938688 64 13 1080 64
-0.26232392 -0.32818624 0.06162234 294 86135552 52 13 1060 52
-0.26949829 -0.32879895 0.061936293 269 86331392 49 13 974 49
-0.27801234 -0.33081135 0.062375829 243 86530304 45 13 1023 45
-0.28857192 -0.33493012 0.063003734 202 86722816 39 13 1078 39
-0.29927352 -0.33883837 0.063631639 167 86919680 34 13 1042 34
-0.30542037 -0.33735821 0.063820012 150 87115776 31 13 976 31
-0.31361407 -0.33797091 0.064196751 118 87309824 25 13 1064 25
-0.32255659 -0.33915532 0.06463629 98 87503872 21 13 1000 21
-0.33854666 -0.34731156 0.065703727 65 87699712 15 13 1012 15
-0.34560686 -0.34595296 0.065954886 67 87895552 16 13 1035 16
-0.36911815 -0.36049926 0.067650229 49 88091136 13 13 969 13
-0.4096649 -0.39034122 0.070789754 24 88286464 7 13 1002 7
-0.40199032 -0.37374073 0.069722317 37 88480000 11 13 978 11
-0.42060032 -0.38151002 0.070915341 22 88677120 7 13 987 7
-0.42151114 -0.3730154 0.070601389 15 88872448 4 13 1001 4
-0 -0 0 6 89068800 0 13 976 0
-0 -0 0 7 89261824 0 13 927 0
-0 -0 0 5 89460480 0 13 918 0
-0.43618891 -0.34938988 0.070350222 12 89654784 4 13 906 4
-0 -0 0 13 89851136 0 13 987 0
-0 -0 0 6 90046720 0 13 988 0
-0 -0 0 7 90242304 0 13 960 0
-0.5733518 -0.41464373 0.079706013 13 90439936 6 13 1012 6
-0.6134907 -0.43227753 0.082406007 24 90636800 13 13 989 13
-0.63027292 -0.43261787 0.083285071 24 90832128 14 13 946 14
-0.64549422 -0.43150172 0.084038556 29 91028480 18 13 936 18
-0.65576112 -0.42681211 0.084415302 40 91223040 25 13 983 25
-0.6626361 -0.41980016 0.084540881 18 91415040 11 13 959 11
-0.68473423 -0.42210326 0.085796691 10 91609600 7 13 956 7
-0.70099288 -0.42033574 0.08661297 23 91803392 15 13 959 15
-0.71385998 -0.41622251 0.087178081 13 91997952 9 13 883 9
-0.72846752 -0.4128395 0.08786878 11 92192256 8 13 983 8
-0.7474705 -0.41156474 0.088873424 12 92387328 9 13 964 9
-0 -0 0 7 92579584 0 13 925 0
-0 -0 0 6 92774912 0 13 1015 0
-0 -0 0 6 92968704 0 13 978 0
-0 -0 0 6 93165568 0 13 940 0
-0 -0 0 14 93357312 0 13 977 0
-0 -0 0 6 93552896 0 13 929 0
-0 -0 0 7 93746176 0 13 976 0
-0 -0 0 6 93942784 0 13 971 0
-0 -0 0 6 94137600 0 13 965 0
-0 -0 0 5 94333440 0 13 979 0
-0 -0 0 6 94529024 0 13 934 0
-0 -0 0 6 94725888 0 13 977 0
-0 -0 0 5 94919424 0 13 927 0
-0 -0 0 7 95116032 0 13 921 0
-0 -0 0 7 95313408 0 13 904 0
-0 -0 0 6 95508736 0 13 961 0
-0 -0 0 8 95704320 0 13 972 0
-0 -0 0 7 95900928 0 13 1009 0
-0 -0 0 8 96097024 0 13 1026 0
-1.4195983 -0.37412897 0.12755239 218 96292096 472 13 1176 472
-1.4715236 -0.36854923 0.13062912 20 96488448 46 13 1279 46
-6.2595024 -1.4850533 0.43993521 28 96683520 1167 13 1247 1167
-6.3084178 -1.4151163 0.44194451 28 96879616 1175 13 1282 1175
-0 -0 0 7 97074432 0 13 1322 0
-0 -0 0 9 97270528 0 13 1321 0
-0 -0 0 10 97463296 0 13 1300 0
-5.7222071 -0.99161452 0.40056556 17 97659136 579 13 1237 579
-5.7300034 -0.92068654 0.40031439 18 97853440 612 13 1233 612
-0 -0 0 10 98049536 0 13 1170 0
-0 -0 0 8 98243328 0 13 1154 0
-0 -0 0 6 98438144 0 13 1030 0
-0 -0 0 7 98634496 0 13 1076 0
-0 -0 0 5 98830848 0 13 1232 0
-0 -0 0 5 99024384 0 13 1518 0
-0 -0 0 3 99219456 0 13 1727 0
-0 -0 0 3 99415296 0 13 1969 0
-0 -0 0 3 99608064 0 13 2305 0
-0 -0 0 4 99803904 0 13 1933 0
-0 -0 0 4 0 0 14 2441 0
-0 -0 0 3 196352 0 14 2805 0
-0 0 0 5 394496 0 14 2876 0
-0 0 0 4 586496 0 14 2386 0
-0 0 0 8 781824 0 14 2138 0
-0 0 0 6 978432 0 14 1920 0
-0 0 0 5 1172224 0 14 1940 0
-0 0 0 7 1364992 0 14 1813 0
-0 0 0 6 1560320 0 14 1836 0
-0.5077734 0.043395024 0.054978646 246 1757184 64 14 1527 64
-0.54499185 0.053348992 0.056424126 506 1951744 152 14 1534 152
-0.57210511 0.063119888 0.05748922 547 2146816 181 14 1637 181
-0.64864373 0.079685301 0.060456261 395 2341632 169 14 1559 169
-0.60602987 0.081986323 0.058858622 771 2536192 289 14 1537 289
-0.54764837 0.080906607 0.05665236 1873 2729728 575 14 1766 575
-0.54562771 0.087462157 0.056614321 1991 2925824 610 14 1704 610
-0.54648244 0.094493151 0.056690399 1866 3116544 574 14 1698 574
-0.54626405 0.10137523 0.056728438 2012 3311616 623 14 1695 623
-0.54595894 0.10826615 0.056766476 2065 3506432 641 14 1726 641
-0.54165649 0.11433655 0.05665236 1572 3703040 483 14 1652 483
-0.53728771 0.12031776 0.056538243 476 3898624 144 14 1417 144
-0.54257625 0.12851901 0.056804515 694 4094464 216 14 1458 216
-0.5458048 0.13638213 0.05699471 1524 4291072 483 14 1625 483
-0.53346133 0.14026707 0.056576282 376 4485888 115 14 1438 115
-0.54036731 0.14920253 0.056918632 126 4680704 39 14 1455 39
-0.51930159 0.15025398 0.056157853 905 4877056 265 14 1514 265
-0.51072508 0.15458405 0.055891581 949 5073152 270 14 1575 270
-0.54403526 0.17200977 0.057299025 360 5267200 117 14 1483 117
-0.5238561 0.17271535 0.056576282 196 5463296 59 14 1444 59
-0.48673636 0.16709928 0.055168841 76 5658880 20 14 1437 20
-0.46959594 0.16767173 0.054560214 63 5855744 15 14 1392 15
-0 0 0 15 6052352 0 14 1443 0
-0.45694911 0.17590806 0.054217864 61 6248192 14 14 1424 14
-0.45661163 0.18224458 0.054293942 222 6443008 54 14 1441 54
-0.44326282 0.18324411 0.053837474 428 6639616 99 14 1585 99
-0.44465438 0.19024505 0.05398963 714 6834944 167 14 1587 167
-0.44959432 0.1989277 0.054293942 1028 7032064 249 14 1601 249
-0.45257011 0.2069273 0.054522175 1446 7224832 358 14 1757 358
-0.44728684 0.21118341 0.054408059 2037 7421696 500 14 1900 500
-0.44555959 0.21709481 0.054446097 1931 7613696 476 14 1810 476
-0.45089471 0.22659062 0.054788448 2431 7807488 621 14 2118 621
-0.40461975 0.20955192 0.05292454 4123 8002304 860 14 2259 860
-0.40201774 0.21450146 0.05292454 5452 8194816 1137 14 2755 1137
-0.43086901 0.23676816 0.054293942 2850 8388352 692 14 2220 692
-0.47487888 0.26864013 0.056348048 1139 8582400 339 14 1583 339
-0.47240978 0.27495065 0.056386087 1100 8773120 329 14 1527 329
-0.4715713 0.28226861 0.056500204 1774 8969728 537 14 1639 537
-0.46807191 0.28803426 0.056500204 1620 9165312 491 14 1653 491
-0.46365786 0.29322183 0.056462165 1635 9359360 494 14 1599 494
-0.44243592 0.28744411 0.055663347 724 9553920 202 14 1505 202
-0.40813535 0.27230725 0.054255903 45 9751296 10 14 1472 10
-0.42948094 0.29425755 0.055397075 21 9948416 5 14 1517 5
-2.1364896 1.5045621 0.13505073 27 10144768 189 14 1440 189
-2.1316323 1.5406197 0.13569739 22 10340864 155 14 1496 155
-2.1286173 1.5785692 0.13645817 27 10535424 195 14 1385 195
-2.1194229 1.6124388 0.13695268 46 10731520 331 14 1461 331
-2.1120796 1.6481639 0.13756131 35 10927104 256 14 1393 256
-2.1033967 1.6833256 0.1381319 18 11125504 136 14 1389 136
-1.578216 1.2949969 0.11329243 193 11316992 808 14 1426 808
-1.5790254 1.3284223 0.11412929 575 11511040 2455 14 1443 2455
-1.5784931 1.3614079 0.1149281 424 11705344 1848 14 1504 1848
-1.5833749 1.3998743 0.11603124 378 11901440 1693 14 1481 1693
-1.5882872 1.439334 0.11717241 313 12096256 1443 14 1543 1443
-1.6078393 1.4934059 0.11911239 385 12290304 1859 14 1493 1859
-1.6111013 1.5336978 0.12025356 445 12484864 2208 14 1452 2208
-1.6000257 1.5610304 0.12067199 439 12680448 2200 14 1487 2200
-1.6591724 1.6589882 0.12489432 346 12873728 1910 14 1516 1910
-1.6582273 1.699252 0.12595941 350 13070080 1979 14 1504 1979
-1.6592969 1.7426347 0.12717666 331 13267456 1921 14 1573 1921
-1.656148 1.7826349 0.12820372 321 13462272 1906 14 1504 1906
-1.6549482 1.8257793 0.12938292 379 13657344 2307 14 1497 2307
-1.6602165 1.8773946 0.13098057 403 13852672 2537 14 1558 2537
-1.6801257 1.9475709 0.13349114 646 14050048 4282 14 1533 4282
-1.6541697 1.965748 0.13337702 553 14247680 3657 14 1574 3657
-1.6121745 1.9642686 0.13231193 686 14444800 4440 14 1517 4440
-1.5754621 1.9682997 0.13155115 717 14641664 4567 14 1493 4567
-1.5388954 1.971728 0.13079037 664 14840064 4164 14 1532 4164
-1.5049036 1.9777389 0.13018174 691 15036928 4277 14 1487 4277
-1.4709975 1.9832144 0.12957312 629 15234048 3844 14 1513 3844
-1.4330881 1.982488 0.12869823 749 15428096 4490 14 1587 4490
-1.3988719 1.986035 0.12805156 696 15624960 4117 14 1558 4117
-1.3647859 1.9890428 0.1274049 679 15819008 3958 14 1656 3958
-1.3336135 1.99567 0.12694843 673 16015872 3885 14 1573 3885
-1.299216 1.996807 0.12626372 764 16209920 4344 14 1611 4344
-1.2644585 1.9965582 0.12554099 784 16403200 4389 14 1503 4389
-1.2262354 1.989804 0.12455197 825 16596480 4516 14 1599 4516
-1.1929933 1.9901302 0.12390531 815 16793088 4398 14 1579 4398
-1.1629477 1.9951228 0.12348688 831 16984064 4442 14 1529 4442
-1.1319751 1.9979401 0.12299237 852 17178880 4504 14 1519 4504
-1.1015911 2.0011749 0.12253591 908 17373440 4747 14 1518 4747
-1.0722411 2.005729 0.12215552 925 17565696 4795 14 1529 4795
-1.0038366 1.9344666 0.11854181 641 17760000 3053 14 1736 3053
-0.87491208 1.7377648 0.10964069 420 17954816 1593 14 1542 1593
-0.88068956 1.804051 0.1119991 329 18150144 1330 14 1491 1330
-0.890948 1.8833796 0.11489007 352 18345728 1532 14 1492 1532
-0.88524216 1.9323304 0.1164877 403 18541568 1825 14 1528 1825
-0.88453919 1.9951229 0.11865593 625 18734592 2983 14 1516 2983
-0.85802132 2.0012348 0.11846573 927 18931200 4405 14 1563 4405
-0.83225155 2.0088437 0.11835162 846 19129088 4008 14 1658 4008
-0.80494064 2.0124104 0.11808534 816 19325440 3840 14 1610 3840
-0.77694887 2.0137453 0.11774299 706 19516928 3294 14 1650 3294
-0.74800187 2.0118878 0.11728653 645 19713280 2979 14 1577 2979
-0.7212373 2.01527 0.11705829 608 19908096 2793 14 1524 2793
-0.63210815 1.8368672 0.10952657 102 20105984 386 14 1576 386
-0.46287099 1.4004122 0.091724314 176 20301824 385 14 1446 385
-0.44022059 1.3888392 0.091039613 293 20497664 624 14 1520 624
-0.42053452 1.3855304 0.090697266 293 20695040 617 14 1475 617
-0.39765781 1.3704315 0.089898445 324 20891648 662 14 1535 662
-0.37361735 1.3492043 0.08887139 365 21085696 717 14 1599 717
-0.35168633 1.3333952 0.088072576 380 21282816 725 14 1408 725
-0.32728797 1.3056217 0.086817287 313 21478912 568 14 1491 568
-0.30685642 1.2910669 0.086094543 279 21672448 492 14 1533 492
-0.28420603 1.2645096 0.08491534 381 21867776 642 14 1446 642
-0.26390949 1.2454165 0.084040441 314 22062336 511 14 1405 511
-0.24704769 1.2407205 0.083736129 380 22258432 609 14 1490 609
-0.22705074 1.218116 0.082747117 293 22454016 451 14 1442 451
-0.20303676 1.1686276 0.080731049 107 22649600 151 14 1433 151
-0.18852197 1.1700447 0.080693007 110 22844672 155 14 1408 155
-0.31158197 2.0994611 0.11637359 108 23041280 489 14 1489 489
-0.27531362 2.0258908 0.11340655 1015 23236864 4250 14 1545 4250
-0.25030988 2.028125 0.1133685 1016 23432704 4252 14 1511 4252
-0.22485264 2.026078 0.11317831 1117 23626752 4654 14 1486 4654
-0.19938558 2.022718 0.11295008 1198 23823360 4957 14 1604 4957
-0.17446308 2.0240169 0.11291204 1411 24017408 5834 14 1586 5834
-0.14630903 1.9811593 0.11120028 1085 24212480 4293 14 1743 4293
-0.11819375 1.9209667 0.10884187 682 24408064 2534 14 1840 2534
