# .PCD v0.7 - Point Cloud Data file format
VERSION 0.7
FIELDS x y z intensity t reflectivity ring noise range
SIZE 4 4 4 4 4 2 2 2 4
TYPE F F F F U U U U U
COUNT 1 1 1 1 1 1 1 1 1
WIDTH 676
HEIGHT 1
VIEWPOINT 0 0 0 1 0 0 0
POINTS 676
DATA ascii
2.1846018 0.46182716 0.77725554 217 47045632 1207 2 1008 1207
2.1500995 0.42704552 0.76363277 66 47241472 356 2 1001 356
2.1561108 0.40080154 0.76394957 50 47436544 272 2 914 272
2.1711473 0.37609157 0.76743448 274 47633920 1484 2 1022 1484
2.1718531 0.34881893 0.76616728 295 47827456 1591 2 1036 1591
2.1656489 0.32061452 0.76268238 237 48024064 1268 2 1003 1268
2.1619346 0.48442933 0.71754873 289 46850304 1557 3 1181 1557
2.1321983 0.4503668 0.70631182 50 47045632 263 3 1058 263
2.1366274 0.42398176 0.70601612 30 47241472 159 3 1044 159
2.1397908 0.3973816 0.70542467 39 47436544 205 3 1028 205
2.1209733 0.36702514 0.69803196 72 47633920 368 3 1065 368
2.1649337 0.3473185 0.71045172 344 47827456 1815 3 1144 1815
2.1605277 0.31946912 0.70779037 363 48024064 1900 3 1156 1900
2.1614454 0.29254818 0.70690322 322 48220416 1680 3 1210 1680
2.1525464 0.26448953 0.70305902 301 48415744 1554 3 1161 1554
2.1613271 0.2386827 0.70483327 347 48610304 1801 3 1163 1801
2.1764531 0.21335134 0.70867747 110 48805120 578 3 1148 578
2.1266379 0.53244936 0.65609676 206 46458624 1075 4 920 1075
2.132076 0.50609016 0.65582293 433 46653440 2254 4 939 2254
2.1390643 0.48009869 0.65609676 419 46850304 2183 4 888 2183
2.1457357 0.45401186 0.65637052 433 47045632 2257 4 888 2257
2.1483157 0.42708409 0.65554917 433 47241472 2248 4 852 2248
2.1335375 0.39699745 0.64979953 190 47436544 968 4 833 968
2.1477253 0.37242737 0.65253747 411 47633920 2118 4 864 2118
2.1454866 0.34497583 0.65062094 421 47827456 2150 4 849 2150
2.1428983 0.31763545 0.64870441 441 48024064 2244 4 886 2244
2.147588 0.29144403 0.64897817 230 48220416 1169 4 780 1169
2.1471844 0.26459804 0.647883 37 48415744 187 4 817 187
2.1531377 0.23854607 0.64870441 47 48610304 239 4 827 239
2.1578171 0.21229379 0.649252 73 48805120 371 4 837 371
2.1439693 0.18439987 0.64459753 403 49000704 2023 4 899 2023
2.1460707 0.15807618 0.64459753 451 49196288 2259 4 844 2259
2.1344092 0.13090682 0.64076442 363 49391360 1801 4 904 1801
2.1371238 0.56302929 0.60677284 504 46261248 2633 5 1038 2633
2.1091328 0.52806979 0.59746504 71 46458624 362 5 967 362
2.1267548 0.50482804 0.60048378 47 46653440 243 5 981 243
2.1290121 0.47784436 0.59947753 208 46850304 1061 5 957 1061
2.1157773 0.44767848 0.5944463 510 47045632 2553 5 1002 2553
2.1268075 0.42281219 0.59595567 63 47241472 320 5 966 320
2.1280298 0.39597362 0.59494942 56 47436544 284 5 891 284
2.1279607 0.36900365 0.59369159 64 47633920 322 5 939 322
2.126595 0.34194165 0.59218222 40 47827456 201 5 985 201
2.1392477 0.31709495 0.5944463 474 48024064 2372 5 1036 2372
2.1199601 0.2876997 0.58840877 322 48220416 1578 5 994 1578
2.1204493 0.26130825 0.58765411 53 48415744 262 5 932 262
2.1206102 0.23494819 0.5868994 57 48610304 280 5 960 280
2.1252601 0.20909654 0.58740252 437 48805120 2132 5 1055 2132
2.1228447 0.18258674 0.58614475 505 49000704 2453 5 1016 2453
2.12396 0.15645151 0.58589315 513 49196288 2489 5 1005 2489
2.1295843 0.13061176 0.5868994 496 49391360 2416 5 1036 2416
2.1310267 0.10446866 0.5868994 487 49583616 2371 5 987 2371
2.1292467 0.078203768 0.58614475 533 49778432 2589 5 1000 2589
2.1281109 0.052021794 0.58564156 509 49972736 2467 5 1051 2467
2.1078706 0.61102229 0.54902375 162 45870848 826 6 1077 826
2.0983219 0.580441 0.54490119 405 46067456 2032 6 947 2032
2.1090522 0.55563897 0.54581732 119 46261248 598 6 805 598
2.1185448 0.53042459 0.54650438 66 46458624 333 6 814 333
2.1230001 0.50393754 0.54604632 51 46653440 261 6 868 261
2.1214256 0.47614306 0.54421407 251 46850304 1257 6 941 1257
2.1137757 0.44725534 0.54100764 519 47045632 2562 6 1017 2562
2.1152861 0.42052385 0.54009151 487 47241472 2397 6 921 2397
2.1155021 0.39364484 0.53894639 465 47436544 2277 6 986 2277
2.1019499 0.36449796 0.53459477 249 47633920 1200 6 922 1200
2.11972 0.34083745 0.53780121 519 47827456 2530 6 952 2530
2.1160395 0.3136591 0.53596896 449 48024064 2173 6 1000 2173
2.1235878 0.28819135 0.53688508 500 48220416 2429 6 983 2429
2.1202016 0.26127777 0.5352819 430 48415744 2077 6 944 2077
2.1193781 0.23481189 0.53436577 65 48610304 316 6 881 316
2.1201625 0.20859592 0.53390771 72 48805120 345 6 812 345
2.1245024 0.18272904 0.53436577 481 49000704 2313 6 981 2313
2.1246431 0.1565017 0.53390771 490 49196288 2352 6 1036 2352
2.120574 0.13006078 0.53253353 73 49391360 352 6 885 352
2.1229827 0.10407577 0.53276259 53 49583616 257 6 879 257
2.1260455 0.078086771 0.53322059 47 49778432 224 6 849 224
2.1239243 0.051920205 0.53253353 44 49972736 214 6 878 214
2.1214814 0.025817471 0.53184646 320 50167808 1524 6 987 1524
2.1245587 -0.0002191417 0.53253353 481 50360320 2297 6 990 2297
2.1214762 -0.026254065 0.53184646 488 50555648 2322 6 1016 2322
2.1287792 -0.052479181 0.53367865 299 50749184 1434 6 1050 1434
2.0803378 0.63121933 0.49072966 458 45675776 2262 7 1233 2262
2.0916867 0.60673261 0.49155378 537 45870848 2663 7 1188 2663
2.0999179 0.58127964 0.49175981 545 46067456 2704 7 1237 2704
2.110678 0.55646378 0.49258396 615 46261248 3061 7 1251 3061
2.1116521 0.52909464 0.49134776 636 46458624 3149 7 1225 3149
2.0932317 0.49726567 0.48599088 129 46653440 626 7 1116 626
2.0953572 0.47068387 0.48516676 300 46850304 1447 7 1129 1447
2.1115062 0.44716337 0.48743311 571 47045632 2779 7 1276 2779
2.1149151 0.42083666 0.48702106 567 47241472 2757 7 1217 2757
2.1160719 0.39413568 0.48619691 171 47436544 829 7 1110 829
2.100502 0.3646276 0.4818702 75 47633920 357 7 1168 357
2.1057844 0.3389791 0.48207626 76 47827456 362 7 1188 362
2.1088178 0.31296888 0.4818702 77 48024064 367 7 1107 367
2.1105604 0.28680369 0.48145816 178 48220416 844 7 1181 844
2.10518 0.25980517 0.47960386 71 48415744 335 7 1139 335
2.1043193 0.23352081 0.4787797 63 48610304 296 7 1176 296
2.104105 0.20739256 0.4781616 70 48805120 328 7 1120 328
2.1191659 0.18264639 0.48084006 242 49000704 1145 7 1214 1145
2.0997779 0.15504585 0.4763073 522 49196288 2422 7 1352 2422
2.1015224 0.12926668 0.4763073 542 49391360 2514 7 1342 2514
2.1137016 0.10399502 0.47857368 275 49583616 1288 7 1182 1288
2.1099293 0.077869259 0.4775435 70 49778432 327 7 1128 327
2.1117041 0.051995229 0.47774956 486 49972736 2268 7 1217 2268
2.1160972 0.02612506 0.47857368 554 50167808 2593 7 1246 2593
2.1211512 0.00015479332 0.47960386 584 50360320 2751 7 1292 2751
2.1190364 -0.025850775 0.47919178 550 50555648 2586 7 1299 2586
2.1146467 -0.051756177 0.47836766 179 50749184 838 7 1219 838
2.107985 -0.077485502 0.47713146 426 50943744 1982 7 1212 1982
2.1293547 -0.10445468 0.4818702 572 51139072 2717 7 1234 2717
2.1113086 -0.12955537 0.47836766 492 51334144 2300 7 1273 2300
2.0757184 0.65774047 0.43808344 469 45479936 2304 8 1079 2304
2.0742252 0.6293658 0.43625593 75 45675776 368 8 967 368
2.0666838 0.59948486 0.43333194 57 45870848 276 8 990 276
2.0672517 0.57224351 0.43205267 58 46067456 279 8 1007 279
2.0855269 0.54983765 0.43424568 438 46261248 2111 8 1124 2111
2.0711353 0.5189504 0.43022516 50 46458624 239 8 962 239
2.0735214 0.49258706 0.42949417 55 46653440 262 8 974 262
2.0784507 0.46688935 0.42931142 50 46850304 238 8 944 238
2.0917187 0.44297656 0.43077341 109 47045632 519 8 982 519
2.0883186 0.41554931 0.42912868 566 47241472 2659 8 1084 2659
2.0903611 0.38935158 0.4285804 556 47436544 2605 8 1076 2605
2.0959504 0.36383829 0.42876315 89 47633920 420 8 924 420
2.0924919 0.33684176 0.42730117 54 47827456 254 8 953 254
2.0954952 0.31099415 0.42711842 508 48024064 2363 8 1070 2363
2.1011024 0.2855202 0.42748392 520 48220416 2420 8 1187 2420
2.1044478 0.25971493 0.42748392 507 48415744 2361 8 1083 2361
2.1064992 0.23376231 0.42730117 554 48610304 2578 8 1107 2578
2.0906191 0.20606577 0.4238289 178 48805120 816 8 964 816
2.1027858 0.18123761 0.42565641 526 49000704 2427 8 1083 2427
2.1019101 0.1552029 0.42510816 531 49196288 2443 8 1129 2443
2.0987496 0.12909663 0.4241944 456 49391360 2089 8 1119 2089
2.1109776 0.1038615 0.42620465 334 49583616 1547 8 1012 1547
2.0894959 0.077118888 0.42200139 56 49778432 257 8 927 257
2.0932336 0.051543813 0.42254966 49 49972736 225 8 980 225
2.0789621 0.025673375 0.41980839 102 50167808 459 8 972 459
2.1095986 0.0001560535 0.42547366 479 50360320 2209 8 1098 2209
2.0878139 -0.02546419 0.42145315 102 50555648 464 8 937 464
2.102087 -0.051446486 0.4241944 53 50749184 246 8 975 246
2.1012974 -0.077238455 0.4241944 67 50943744 309 8 1008 309
2.0992093 -0.10297044 0.42401165 67 51139072 310 8 931 310
2.108582 -0.12938756 0.4260219 369 51334144 1707 8 1079 1707
2.1048744 -0.1551085 0.42565641 492 51528704 2270 8 1112 2270
2.1018331 -0.1808424 0.42547366 492 51725312 2269 8 1078 2269
2.0965202 -0.20633209 0.42492542 476 51918080 2189 8 1101 2189
2.1231451 -0.23529826 0.43040791 120 52114944 569 8 1061 569
2.0798972 0.71527743 0.3879624 369 45089280 1833 9 1238 1833
2.0819554 0.68753409 0.38684925 579 45284352 2858 9 1149 2858
2.0751755 0.6571672 0.38430494 353 45479936 1719 9 1091 1719
2.0708008 0.62792987 0.3822377 66 45675776 320 9 1002 320
2.0774024 0.60219598 0.38207868 60 45870848 290 9 1063 290
2.0912969 0.57849908 0.38319182 434 46067456 2099 9 1111 2099
2.0781889 0.54751366 0.37985238 574 46261248 2722 9 1198 2722
2.0837934 0.5217303 0.37969339 584 46458624 2766 9 1180 2766
2.0842752 0.49475256 0.37873927 544 46653440 2562 9 1214 2562
2.0747759 0.4656814 0.37619495 444 46850304 2062 9 1154 2062
2.0851641 0.44120666 0.37699005 574 47045632 2678 9 1188 2678
2.0884845 0.41520059 0.376672 575 47241472 2677 9 1165 2677
2.0943933 0.38972086 0.37683102 555 47436544 2587 9 1172 2587
2.0815077 0.36095691 0.37396866 412 47633920 1888 9 1178 1888
2.0779822 0.33413392 0.37269652 78 47827456 357 9 1012 357
2.0780196 0.3080304 0.37206042 80 48024064 364 9 1098 364
2.1021881 0.28529111 0.37539986 400 48220416 1850 9 1145 1850
2.0986717 0.25862852 0.37428671 580 48415744 2662 9 1203 2662
2.0800989 0.2304672 0.37078828 66 48610304 299 9 1017 299
2.0808053 0.20473085 0.37047023 57 48805120 258 9 1009 258
2.0821774 0.17909633 0.3703112 64 49000704 289 9 1038 289
2.0861876 0.15367602 0.37062925 55 49196288 249 9 1024 249
2.0957999 0.12854581 0.37190142 508 49391360 2300 9 1166 2300
2.092289 0.10257661 0.37110633 210 49583616 947 9 1082 947
2.0963502 0.07700146 0.37158337 63 49778432 287 9 1051 287
2.102072 0.051389966 0.37237847 67 49972736 306 9 1090 306
2.0985956 0.025543097 0.3717424 296 50167808 1340 9 1129 1340
2.0977638 -0.00021154222 0.37158337 656 50360320 2966 9 1153 2966
2.0995777 -0.025979105 0.37190142 575 50555648 2603 9 1168 2603
2.1000876 -0.051766705 0.37206042 576 50749184 2609 9 1177 2609
2.0844953 -0.076984838 0.36967513 140 50943744 627 9 1120 627
2.0981848 -0.10328985 0.37206042 505 51139072 2287 9 1212 2287
2.1007009 -0.12927331 0.37269652 543 51334144 2471 9 1153 2471
2.1009254 -0.15518822 0.37301454 519 51528704 2364 9 1185 2364
2.0978792 -0.18087314 0.37285554 535 51725312 2436 9 1155 2436
2.0817468 -0.20524505 0.37062925 218 51918080 981 9 1072 981
2.0839775 -0.23132131 0.37142435 90 52114944 408 9 1043 408
2.1054773 -0.25990579 0.37539986 542 52311552 2506 9 1168 2506
2.1070206 -0.28638938 0.37619495 578 52504320 2683 9 1234 2683
2.0779574 -0.30845055 0.37206042 337 52699904 1527 9 1154 1527
2.0512943 0.73371583 0.33209589 551 44893184 2668 10 1143 2668
2.0573328 0.70752192 0.33168927 606 45089280 2924 10 1174 2924
2.0630376 0.68129045 0.33128265 642 45284352 3088 10 1203 3088
2.068409 0.6550256 0.33087602 623 45479936 2990 10 1269 2990
2.0743949 0.62901908 0.33060494 635 45675776 3042 10 1226 3042
2.0619733 0.5977264 0.32775855 103 45870848 485 10 1102 485
2.0624683 0.57052994 0.32680973 108 46067456 506 10 1043 506
2.0731468 0.54618633 0.3273519 574 46261248 2689 10 1280 2689
2.0787323 0.520464 0.32721636 603 46458624 2825 10 1307 2825
2.0589337 0.48874196 0.32355672 79 46653440 362 10 1097 362
2.0618761 0.46278846 0.3231501 63 46850304 288 10 1120 288
2.0683694 0.43765616 0.32328564 81 47045632 370 10 1108 370
2.0726125 0.41204813 0.3231501 86 47241472 393 10 1127 393
2.066798 0.38459113 0.32165912 469 47436544 2114 10 1189 2114
2.0742905 0.3597067 0.32206574 98 47633920 444 10 1089 444
2.072679 0.3332822 0.3212525 78 47827456 352 10 1044 352
2.0697522 0.30680645 0.32030371 72 48024064 323 10 1042 323
2.0655072 0.28031981 0.31921935 429 48220416 1900 10 1235 1900
2.0737083 0.25555676 0.31989706 703 48415744 3131 10 1306 3131
2.077673 0.23019886 0.3200326 633 48610304 2820 10 1231 2820
2.0803413 0.20468529 0.3200326 550 48805120 2451 10 1180 2451
2.0876324 0.17956451 0.32071033 142 49000704 637 10 1087 637
2.0817738 0.15335168 0.31962597 630 49196288 2799 10 1185 2799
2.0795431 0.12755167 0.31908381 610 49391360 2701 10 1124 2701
2.0809519 0.10202288 0.31908381 606 49583616 2683 10 1200 2683
2.0800669 0.076406337 0.31881273 666 49778432 2943 10 1126 2943
2.0580668 0.05032219 0.31569526 186 49972736 805 10 1066 805
2.083297 0.025359685 0.31908381 264 50167808 1170 10 1038 1170
2.0784974 -0.00020607798 0.31840611 713 50360320 3141 10 1169 3141
2.0832918 -0.02577462 0.31908381 717 50555648 3174 10 1243 3174
2.0590475 -0.050747581 0.3158308 483 50749184 2089 10 1131 2089
2.0671806 -0.076342173 0.31705067 85 50943744 373 10 1071 373
2.0700462 -0.10189949 0.31759283 75 51139072 330 10 1052 330
2.0725956 -0.12753861 0.31813502 59 51334144 261 10 1089 261
2.0530891 -0.15164596 0.31569526 322 51528704 1391 10 1210 1391
2.074764 -0.17887595 0.31894827 90 51725312 400 10 1050 400
2.0763564 -0.2047126 0.31949043 73 51918080 325 10 1126 325
2.073688 -0.23017727 0.31949043 67 52114944 298 10 1139 298
2.0716906 -0.25572884 0.31962597 75 52311552 334 10 1139 334
2.0752683 -0.28206775 0.32057479 426 52504320 1905 10 1178 1905
2.0883107 -0.30998936 0.32287902 709 52699904 3222 10 1241 3222
2.0882621 -0.33622348 0.32342118 684 52894208 3119 10 1270 3119
2.084955 -0.361994 0.32355672 677 53090816 3089 10 1250 3089
2.0764599 -0.38682586 0.32301456 543 53286912 2473 10 1285 2473
2.033339 0.78409392 0.27849185 178 44502272 859 11 1046 859
2.0390816 0.75769871 0.27804667 390 44696832 1873 11 915 1873
2.0407398 0.72994274 0.27715632 52 44893184 252 11 861 252
2.0457842 0.70355266 0.27671114 68 45089280 322 11 826 322
2.0457704 0.67559159 0.27570948 66 45284352 314 11 909 314
2.0340102 0.64413887 0.27337226 241 45479936 1115 11 876 1115
2.0417616 0.61912996 0.27337226 83 45675776 387 11 858 387
2.0434783 0.59236866 0.27270451 60 45870848 279 11 869 279
2.0467622 0.56618828 0.27225932 67 46067456 306 11 808 306
2.050673 0.54026967 0.27192542 228 46261248 1042 11 900 1042
2.0687175 0.51795846 0.27326098 608 46458624 2804 11 994 2804
2.0739508 0.49230379 0.27314967 550 46653440 2534 11 1004 2534
2.0585024 0.4620319 0.27070117 130 46850304 590 11 863 590
2.0640173 0.43673614 0.27070117 140 47045632 635 11 925 635
2.0555749 0.40866414 0.26914304 657 47241472 2927 11 968 2927
2.0633662 0.38395318 0.26947692 654 47436544 2921 11 1032 2921
2.0669434 0.35843399 0.26936564 621 47633920 2772 11 1020 2772
2.0692239 0.33272722 0.26914304 712 47827456 3172 11 959 3172
2.0397265 0.30236125 0.26535898 119 48024064 512 11 853 512
2.0669184 0.28051108 0.26803008 660 48220416 2913 11 950 2913
2.0642869 0.25439745 0.26736233 720 48415744 3159 11 980 3159
2.0702167 0.2293741 0.2676962 672 48610304 2956 11 941 2956
2.0530949 0.20200953 0.2654703 312 48805120 1348 11 935 1348
2.0484881 0.1762048 0.26469123 77 49000704 329 11 829 329
2.0504963 0.15105343 0.26469123 65 49196288 282 11 890 282
2.0521955 0.12587932 0.26469123 88 49391360 377 11 835 377
2.0575562 0.10088017 0.26513639 495 49583616 2132 11 875 2132
2.057646 0.0755869 0.26502511 100 49778432 429 11 839 429
2.0653732 0.050499473 0.26580417 92 49972736 402 11 868 402
2.0658374 0.025150364 0.26580417 79 50167808 345 11 884 345
2.0649967 -0.00020224894 0.26569289 96 50360320 414 11 849 414
2.0678198 -0.02558035 0.26602677 631 50555648 2735 11 1005 2735
2.0623827 -0.050830401 0.2654703 615 50749184 2655 11 904 2655
2.0665691 -0.076319486 0.26602677 104 50943744 451 11 823 451
2.0714326 -0.10196798 0.26669455 74 51139072 323 11 774 323
2.071017 -0.1274412 0.26680583 223 51334144 976 11 881 976
2.0712795 -0.15299293 0.26702842 570 51528704 2495 11 917 2495
2.0741966 -0.17882693 0.26758492 577 51725312 2536 11 987 2536
2.0758016 -0.20465779 0.26803008 604 51918080 2666 11 965 2666
2.076097 -0.23044512 0.26836398 570 52114944 2522 11 948 2522
2.0760717 -0.25627047 0.26869786 651 52311552 2888 11 966 2888
2.0757246 -0.28212982 0.26903173 611 52504320 2719 11 924 2719
2.0730891 -0.30772701 0.26914304 642 52699904 2860 11 957 2860
2.0711191 -0.33346015 0.26936564 660 52894208 2943 11 1041 2943
2.0903697 -0.3629351 0.27203673 359 53090816 1640 11 943 1640
2.058404 -0.38345879 0.26892045 72 53286912 319 11 845 319
2.073036 -0.4125728 0.27114636 459 53483008 2081 11 943 2081
2.0862885 -0.44189698 0.27326098 662 53677312 3051 11 1104 3051
2.0797391 -0.46724766 0.27314967 558 53874176 2571 11 1041 2571
2.0312769 0.812069 0.22619642 500 44308992 2414 12 1489 2414
2.0373712 0.78564793 0.22584781 601 44502272 2891 12 1496 2891
2.0412555 0.75850612 0.22532487 529 44696832 2531 12 1558 2531
2.0438435 0.73105228 0.22471479 71 44893184 340 12 1456 340
2.0536027 0.70623994 0.22480194 77 45089280 370 12 1330 370
2.0356266 0.67224371 0.22236158 500 45284352 2318 12 1475 2318
2.0418234 0.64661163 0.22218727 656 45479936 3036 12 1511 3036
2.0486512 0.62121773 0.22210011 601 45675776 2777 12 1577 2777
2.0513361 0.5946449 0.22166432 637 45870848 2931 12 1558 2931
2.0459962 0.56597656 0.2205313 442 46067456 2010 12 1541 2010
2.0547144 0.54133368 0.22070561 614 46261248 2796 12 1506 2796
2.057337 0.51511127 0.22035699 586 46458624 2659 12 1530 2659
2.0596261 0.48890617 0.22000837 614 46653440 2774 12 1549 2774
2.0314488 0.45596486 0.21695791 345 46850304 1510 12 1473 1510
2.0271447 0.42894107 0.21608636 78 47045632 341 12 1343 341
2.0293245 0.40345037 0.21582489 67 47241472 292 12 1413 292
2.0429375 0.38015565 0.2166093 511 47436544 2225 12 1526 2225
2.056283 0.35658732 0.2173937 541 47633920 2378 12 1519 2378
2.0368979 0.32753533 0.21530196 75 47827456 325 12 1406 325
2.0427346 0.30280659 0.21547627 92 48024064 398 12 1404 398
2.0453095 0.2775825 0.21538912 101 48220416 437 12 1319 437
2.0446069 0.25197586 0.21504049 63 48415744 272 12 1395 272
2.0455649 0.22664736 0.21486618 681 48610304 2910 12 1508 2910
2.0333209 0.20006762 0.21355884 267 48805120 1126 12 1432 1126
2.0435631 0.1757821 0.21425609 80 49000704 342 12 1370 342
2.0425858 0.15047219 0.21399462 72 49196288 308 12 1356 308
2.0403013 0.12515196 0.21364599 335 49391360 1413 12 1442 1413
2.0635736 0.10117408 0.21556343 600 49583616 2583 12 1489 2583
2.0646598 0.075843237 0.21556343 557 49778432 2400 12 1512 2400
2.0594597 0.050355982 0.21504049 689 49972736 2951 12 1517 2951
2.0539458 0.025007799 0.21451756 300 50167808 1279 12 1463 1279
2.0620675 -0.0002014182 0.2152148 709 50360320 3041 12 1465 3041
2.0619099 -0.025506144 0.2152148 760 50555648 3260 12 1427 3260
2.0604458 -0.050782297 0.21512765 677 50749184 2901 12 1522 2901
2.0636494 -0.07621111 0.21547627 616 50943744 2649 12 1551 2649
2.0625587 -0.10152952 0.21547627 289 51139072 1245 12 1405 1245
2.0532031 -0.12634169 0.21477902 67 51334144 289 12 1384 289
2.0534852 -0.15167527 0.21495333 465 51528704 1990 12 1438 1990
2.0594091 -0.17754929 0.21565059 658 51725312 2837 12 1448 2837
2.059058 -0.20300388 0.21582489 644 51918080 2783 12 1447 2783
2.0504713 -0.22759591 0.21530196 79 52114944 342 12 1410 342
2.047524 -0.25274122 0.21530196 73 52311552 316 12 1359 316
2.0432811 -0.2777141 0.2152148 89 52504320 384 12 1371 384
2.0416899 -0.30306029 0.21538912 78 52699904 338 12 1351 338
2.0328996 -0.32729948 0.21495333 161 52894208 691 12 1393 691
2.0414894 -0.35443932 0.21608636 64 53090816 279 12 1442 279
2.0399241 -0.38001269 0.21634783 71 53286912 311 12 1441 311
2.0390153 -0.4057956 0.21669646 80 53483008 351 12 1412 351
2.0572708 -0.4357453 0.21878819 336 53677312 1500 12 1507 1500
2.0741229 -0.46598485 0.22079277 644 53874176 2935 12 1507 2935
2.0769711 -0.49347651 0.22157717 611 54069248 2808 12 1549 2808
2.0697925 -0.51868469 0.22149001 646 54264320 2966 12 1624 2966
2.0729039 -0.54658681 0.22236158 611 54458368 2831 12 1567 2831
2.0193696 0.83619434 0.17269877 617 44115456 2963 13 970 2963
2.0248451 0.80949903 0.17238481 611 44308992 2922 13 961 2922
2.0309014 0.78315443 0.17213365 595 44502272 2834 13 959 2834
2.0347455 0.75608838 0.17175691 634 44696832 3004 13 1014 3004
2.029774 0.7260226 0.17081505 473 44893184 2211 13 921 2211
2.0375867 0.70073509 0.17075227 86 45089280 401 13 853 401
2.0393982 0.67348844 0.17031273 90 45284352 421 13 860 421
2.0379941 0.64539975 0.16968483 645 45479936 2965 13 1000 2965
2.0457609 0.62034184 0.16968483 621 45675776 2853 13 955 2853
2.0263782 0.58741492 0.16792668 80 45870848 361 13 878 361
2.0276623 0.56090844 0.16754995 91 46067456 408 13 866 408
2.0305324 0.5349673 0.16729878 99 46261248 438 13 831 438
2.0311351 0.50855595 0.16692205 79 46458624 351 13 871 351
2.0236278 0.48036793 0.16604297 439 46653440 1911 13 924 1911
2.030344 0.45571712 0.16610576 99 46850304 434 13 865 434
2.0318778 0.42994165 0.1658546 94 47045632 407 13 834 407
2.0360219 0.40478057 0.16579181 89 47241472 389 13 876 389
2.0349486 0.37867057 0.16541506 558 47436544 2404 13 893 2404
2.041409 0.35401082 0.16554065 758 47633920 3273 13 933 3273
2.0416579 0.32829985 0.16528949 726 47827456 3122 13 877 3122
2.0287495 0.30073613 0.16422205 536 48024064 2267 13 925 2267
2.0293202 0.27541551 0.16403368 290 48220416 1225 13 906 1225
2.0355189 0.25085753 0.16422205 817 48415744 3454 13 929 3454
2.037452 0.22574998 0.16415925 738 48610304 3118 13 953 3118
2.0390756 0.20063277 0.16409647 746 48805120 3150 13 885 3150
2.0413842 0.17559507 0.16409647 729 49000704 3078 13 916 3078
2.0304458 0.14958014 0.16328019 125 49196288 524 13 862 524
2.0301361 0.12453035 0.16315462 302 49391360 1259 13 877 1259
2.046464 0.10033841 0.16409647 659 49583616 2783 13 865 2783
2.0465438 0.075181134 0.16403368 671 49778432 2829 13 939 2829
2.0293531 0.049625456 0.16290344 487 49972736 2015 13 839 2015
2.0357971 0.024790218 0.16328019 114 50167808 475 13 747 475
2.033952 -0.00019344417 0.16315462 88 50360320 366 13 820 366
2.0327985 -0.025140619 0.16309182 96 50555648 399 13 771 399
2.0233574 -0.049861308 0.16252671 244 50749184 1003 13 837 1003
2.0345614 -0.075131468 0.16328019 102 50943744 428 13 881 428
2.034483 -0.10014226 0.16334298 67 51139072 283 13 871 283
2.0380814 -0.12540837 0.16365694 80 51334144 335 13 848 335
2.0393751 -0.15063043 0.1638453 83 51528704 348 13 840 348
2.028424 -0.17487216 0.16328019 346 51725312 1440 13 826 1440
2.0380437 -0.20092814 0.16403368 752 51918080 3170 13 921 3170
2.0433598 -0.22680524 0.164536 516 52114944 2194 13 896 2194
2.0354702 -0.25125107 0.16422205 121 52311552 511 13 837 511
2.0371783 -0.27688348 0.164536 103 52504320 437 13 819 437
2.0632427 -0.30626357 0.16641971 724 52699904 3167 13 948 3167
2.059329 -0.33155969 0.16641971 739 52894208 3232 13 984 3232
2.0501888 -0.35595134 0.16610576 768 53090816 3343 13 895 3343
2.0535152 -0.38254714 0.1666081 750 53286912 3290 13 963 3290
2.0604117 -0.41005793 0.16736157 615 53483008 2729 13 954 2729
2.0591297 -0.4361394 0.16761273 745 53677312 3320 13 905 3320
2.0633597 -0.46356469 0.16824064 729 53874176 3276 13 1010 3276
2.0623705 -0.49000478 0.16855459 688 54069248 3107 13 968 3107
2.0600743 -0.51624745 0.16880576 713 54264320 3234 13 967 3234
2.060339 -0.5432713 0.16924529 460 54458368 2100 13 1007 2100
2.0161219 0.80642444 0.1182375 603 44308992 2853 14 1327 2853
2.0212042 0.77982515 0.1180473 573 44502272 2697 14 1366 2697
2.017508 0.75009024 0.11751476 293 44696832 1363 14 1312 1363
2.0105655 0.7195546 0.11686809 73 44893184 333 14 1247 333
2.0154643 0.69352782 0.11671594 67 45089280 305 14 1185 305
2.0209765 0.66780269 0.11660182 75 45284352 341 14 1199 341
2.0233035 0.64114177 0.11637359 382 45479936 1728 14 1321 1728
2.0185874 0.61249483 0.11587908 669 45675776 2982 14 1278 2982
2.0240321 0.58712113 0.115803 559 45870848 2492 14 1343 2492
2.026269 0.56090689 0.1156128 119 46067456 527 14 1225 527
2.028168 0.53472632 0.11542261 228 46261248 1004 14 1280 1004
2.0210063 0.50639951 0.11489007 685 46458624 2984 14 1331 2984
2.0299852 0.4822529 0.11500418 675 46653440 2947 14 1296 2947
2.0289252 0.45577368 0.11473791 741 46850304 3213 14 1326 3213
2.0324101 0.43042764 0.11466184 747 47045632 3235 14 1289 3235
2.0345988 0.40486988 0.11454771 210 47241472 909 14 1305 909
2.0276251 0.37767816 0.11409125 753 47436544 3208 14 1262 3208
2.030138 0.35242617 0.11401517 697 47633920 2965 14 1216 2965
2.0283902 0.3265349 0.11378694 706 47827456 2989 14 1315 2989
1.9927056 0.29575819 0.11226538 279 48024064 1135 14 1231 1135
2.0258908 0.27531362 0.11340655 91 48220416 381 14 1208 381
2.0251498 0.24994323 0.11325439 90 48415744 376 14 1176 376
2.0221052 0.2244125 0.11302616 183 48610304 759 14 1256 759
2.0187399 0.19899423 0.11279792 546 48805120 2250 14 1259 2250
2.0190389 0.17403495 0.11272185 89 49000704 366 14 1260 366
2.0180328 0.14902493 0.11260772 74 49196288 304 14 1146 304
2.0207069 0.12431051 0.11264577 86 49391360 354 14 1179 354
2.0260725 0.099699661 0.11279792 77 49583616 317 14 1234 317
2.026145 0.074792452 0.11275988 532 49778432 2195 14 1306 2195
2.0319049 0.05004498 0.11295008 656 49972736 2714 14 1243 2714
2.0233734 0.024997229 0.11260772 125 50167808 513 14 1192 513
2.0425141 0.0001633713 0.11333047 68 50360320 285 14 1206 285
2.0293727 -0.024740597 0.11283596 226 50555648 932 14 1236 932
2.0299151 -0.049666889 0.112874 764 50749184 3156 14 1235 3156
2.0281541 -0.074536443 0.11283596 657 50943744 2713 14 1325 2713
2.030081 -0.099566825 0.11295008 643 51139072 2660 14 1261 2660
2.0316985 -0.1246557 0.11306419 666 51334144 2767 14 1327 2767
2.0330055 -0.14979924 0.11317831 567 51528704 2360 14 1246 2360
2.0389788 -0.17542282 0.11348262 705 51725312 2958 14 1211 2958
2.0396559 -0.20072518 0.11359674 715 51918080 3012 14 1323 3012
2.0350528 -0.22551927 0.11352066 790 52114944 3319 14 1247 3319
2.0380826 -0.25121009 0.1137489 611 52311552 2580 14 1249 2580
2.0071216 -0.27243304 0.1126838 96 52504320 395 14 1198 395
2.0105464 -0.29807013 0.11295008 139 52699904 576 14 1193 576
2.0432403 -0.32859766 0.11435752 748 52894208 3213 14 1330 3213
2.0400386 -0.35381755 0.11439556 770 53090816 3310 14 1358 3310
2.0267017 -0.37717819 0.11405321 118 53286912 502 14 1255 502
2.0248606 -0.40260571 0.11416733 87 53483008 372 14 1192 372
2.0197678 -0.42742354 0.11416733 97 53677312 415 14 1147 415
2.0133955 -0.45195797 0.11412929 92 53874176 393 14 1183 393
2.0417249 -0.4847163 0.11546065 455 54069248 2008 14 1258 2008
2.0239913 -0.50681996 0.11500418 339 54264320 1482 14 1374 1482
2.0037901 0.74499285 0.065440096 137 44696832 627 15 1157 627
2.0127814 0.72034717 0.065440096 546 44893184 2500 15 1064 2500
2.0176873 0.69429231 0.065384947 621 45089280 2830 15 1159 2830
2.0146618 0.6657173 0.065219499 646 45284352 2911 15 1095 2911
2.0102873 0.63701981 0.065040253 681 45479936 3032 15 1126 3032
2.0131688 0.61085176 0.06497132 685 45675776 3035 15 1120 3035
2.017632 0.58526593 0.064929955 685 45870848 3026 15 1068 3026
2.0111704 0.55673027 0.064736925 207 46067456 903 15 1072 903
2.0043139 0.52844191 0.064543903 81 46261248 351 15 969 351
2.0096779 0.50356323 0.064530112 92 46458624 398 15 966 398
2.0254347 0.48117277 0.064667992 664 46653440 2882 15 1060 2882
1.9980155 0.44883624 0.064199209 428 46850304 1799 15 1034 1799
2.0063078 0.42490467 0.064240575 89 47045632 377 15 958 377
2.0103903 0.40005723 0.064226784 97 47241472 411 15 937 411
2.0141652 0.3751736 0.064212993 84 47436544 355 15 1012 355
2.0196025 0.35059929 0.064226784 101 47633920 427 15 947 427
2.0099318 0.32356697 0.064033754 715 47827456 2966 15 1082 2966
2.00386 0.29741156 0.063895881 131 48024064 540 15 1026 540
2.0073588 0.27279872 0.063895881 94 48220416 388 15 1013 388
2.004601 0.24741106 0.063813157 87 48415744 357 15 1000 357
2.0184183 0.22400403 0.063964821 497 48610304 2053 15 1031 2053
2.0140495 0.19853278 0.063868307 733 48805120 3007 15 1050 3007
2.0143416 0.17363097 0.063840732 700 49000704 2866 15 1004 2866
2.013329 0.14867848 0.063799366 690 49196288 2815 15 1120 2815
2.0259802 0.12463391 0.06395103 135 49391360 558 15 1015 558
2.0153728 0.099175178 0.063785575 653 49583616 2663 15 1095 2663
2.0154388 0.074399292 0.063771792 711 49778432 2895 15 1090 2895
2.0171995 0.049685586 0.063785575 744 49972736 3031 15 1092 3031
2.0196571 0.024952026 0.063813157 779 50167808 3181 15 1059 3181
1.9938138 0.00016868368 0.063454673 397 50360320 1581 15 999 1581
2.0056636 -0.024447044 0.063620128 96 50555648 389 15 1003 389
2.0272038 -0.049600035 0.063923456 700 50749184 2882 15 1076 2882
2.0254433 -0.0744363 0.063909665 697 50943744 2868 15 1011 2868
2.0243773 -0.099285997 0.063909665 705 51139072 2900 15 1112 2900
2.003046 -0.12289227 0.063633911 97 51334144 393 15 972 393
2.0063732 -0.1478318 0.063702852 78 51528704 318 15 1024 318
2.0073967 -0.17269965 0.063744217 96 51725312 393 15 953 393
2.0130868 -0.19810542 0.063854516 92 51918080 379 15 1012 379
1.9936095 -0.22091873 0.063620128 274 52114944 1106 15 1014 1106
2.0195272 -0.24891947 0.064019971 78 52311552 325 15 1007 325
2.0173113 -0.27381811 0.064033754 72 52504320 301 15 987 301
2.0137992 -0.29855299 0.064033754 89 52699904 371 15 993 371
2.0119584 -0.32356083 0.064061329 112 52894208 468 15 987 468
2.0265543 -0.35147631 0.064323299 772 53090816 3270 15 1136 3270
2.0240545 -0.37668502 0.064350873 820 53286912 3479 15 1081 3479
2.0202603 -0.40169013 0.064364657 139 53483008 592 15 981 592
2.0239828 -0.42831635 0.064488746 97 53677312 418 15 970 418
2.0283301 -0.45531335 0.064626627 596 53874176 2580 15 997 2580
1.9982693 -0.47439125 0.064281933 238 54069248 1006 15 1142 1006
1.9946727 0.65950525 0.012888644 268 45284352 1185 16 1089 1185
1.9806914 0.62803078 0.013145551 653 45479936 2824 16 861 2824
1.9882492 0.60367733 0.013145551 668 45675776 2888 16 938 2888
1.9974282 0.57979017 0.013123211 256 45870848 1108 16 838 1108
1.9880099 0.55070007 0.013313099 87 46067456 371 16 717 371
1.9936513 0.52600777 0.013324269 80 46261248 341 16 770 341
1.999956 0.50150299 0.013324269 84 46458624 357 16 802 357
1.9923395 0.47368717 0.013480647 625 46653440 2622 16 847 2622
2.0009294 0.44985989 0.013447138 738 46850304 3107 16 837 3107
2.006299 0.42527154 0.013447138 785 47045632 3306 16 862 3306
1.9927332 0.39691144 0.013659365 150 47241472 620 16 780 620
1.9925387 0.37151217 0.013715214 324 47436544 1331 16 812 1331
1.9979329 0.3472037 0.013704045 721 47633920 2967 16 850 2967
2.001056 0.32250094 0.013715214 694 47827456 2854 16 820 2854
2.0048628 0.29792061 0.013715214 776 48024064 3191 16 837 3191
2.0063863 0.27302617 0.013737555 759 48220416 3114 16 819 3114
1.9817982 0.24495505 0.01405031 148 48415744 591 16 774 591
2.0055254 0.22293279 0.013815744 656 48610304 2672 16 837 2672
2.0041296 0.19791281 0.013860423 697 48805120 2828 16 826 2828
2.004415 0.17313243 0.013882763 687 49000704 2785 16 879 2785
1.9894359 0.14727052 0.01407265 449 49196288 1788 16 833 1788
1.9890972 0.12272322 0.014094991 105 49391360 418 16 737 418
1.9904535 0.098304696 0.014094991 92 49583616 366 16 737 366
1.9925091 0.07390824 0.01408382 105 49778432 418 16 751 418
2.0052617 0.049746785 0.013949782 575 49972736 2314 16 791 2314
1.9937229 0.02498736 0.01408382 163 50167808 649 16 802 649
2.001879 0.00051995553 0.013994462 113 50360320 454 16 709 454
2.005734 -0.024095038 0.013949782 99 50555648 399 16 748 399
2.0072865 -0.048755612 0.013927442 110 50749184 444 16 794 444
2.0055377 -0.073347695 0.013938612 275 50943744 1109 16 741 1109
2.0004919 -0.097757213 0.013983292 691 51139072 2775 16 803 2775
2.0031338 -0.12254397 0.013938612 318 51334144 1282 16 795 1282
2.0144432 -0.14807171 0.013793403 92 51528704 376 16 781 376
2.0084894 -0.17243797 0.013838083 95 51725312 387 16 718 387
2.0161734 -0.19805169 0.013726384 667 51918080 2739 16 804 2739
2.0135911 -0.22277834 0.013726384 788 52114944 3239 16 915 3239
2.011698 -0.24759375 0.013715214 700 52311552 2880 16 872 2880
2.0104899 -0.27253076 0.013692874 793 52504320 3266 16 825 3266
2.0267768 -0.30011517 0.013469477 594 52699904 2496 16 795 2496
2.014056 -0.32353517 0.013570006 782 52894208 3256 16 823 3256
2.0089488 -0.34805551 0.013581176 854 53090816 3555 16 883 3555
2.0123909 -0.3741459 0.013491817 782 53286912 3281 16 908 3281
2.0115709 -0.39959291 0.013447138 765 53483008 3221 16 801 3221
2.0114071 -0.42528307 0.013391288 733 53677312 3104 16 862 3104
1.9838893 0.57548475 -0.037194524 292 45870848 1251 17 916 1251
1.9927285 0.55162889 -0.037266068 591 46067456 2530 17 835 2530
1.9887176 0.52433294 -0.036872581 644 46261248 2729 17 831 2729
1.988216 0.49818981 -0.036622178 691 46458624 2908 17 845 2908
1.9883459 0.47236902 -0.036407549 686 46653440 2875 17 863 2875
1.9900924 0.44705796 -0.036264464 674 46850304 2814 17 871 2814
1.9905401 0.42156842 -0.036085606 733 47045632 3038 17 836 3038
1.9769402 0.3934074 -0.035405945 191 47241472 777 17 801 777
1.985549 0.36984894 -0.03554903 100 47436544 409 17 791 409
1.9830453 0.34426013 -0.035298631 73 47633920 297 17 754 297
1.9920541 0.32069242 -0.035477486 609 47827456 2487 17 857 2487
1.9889196 0.29519701 -0.035227086 563 48024064 2281 17 809 2281
1.9864507 0.26996136 -0.035012458 106 48220416 427 17 772 427
1.9846547 0.24495311 -0.034833599 89 48415744 357 17 777 357
1.9885044 0.22068995 -0.034869369 102 48610304 410 17 734 410
1.9910629 0.19627132 -0.034869369 91 48805120 365 17 802 365
1.9763949 0.17036736 -0.034261253 505 49000704 1989 17 856 1989
1.9843167 0.14654158 -0.034475882 249 49196288 987 17 816 987
1.9859656 0.12217993 -0.034475882 91 49391360 361 17 784 361
1.9893117 0.097897731 -0.034547426 88 49583616 349 17 827 349
1.9843712 0.0732584 -0.034332797 183 49778432 723 17 804 723
1.9841217 0.04887718 -0.034297023 720 49972736 2845 17 871 2845
1.9875699 0.024561739 -0.034404337 745 50167808 2952 17 865 2952
1.9937178 0.00016869414 -0.03461897 834 50360320 3324 17 861 3324
1.9935697 -0.024297303 -0.03461897 341 50555648 1358 17 824 1358
1.985129 -0.048562564 -0.034332797 445 50749184 1757 17 822 1757
1.9963678 -0.073362209 -0.034762055 694 50943744 2774 17 832 2774
1.9963154 -0.097904332 -0.034797825 657 51139072 2628 17 821 2628
1.9959611 -0.12245621 -0.034833599 705 51334144 2824 17 818 2824
1.997298 -0.14716138 -0.034940913 689 51528704 2768 17 808 2768
1.988372 -0.17105927 -0.03469051 91 51725312 363 17 782 363
2.0070083 -0.19750609 -0.035441715 289 51918080 1177 17 804 1177
2.0024471 -0.22189978 -0.035370171 794 52114944 3232 17 896 3232
1.9995732 -0.24645618 -0.035370171 746 52311552 3033 17 817 3033
1.9973885 -0.27111006 -0.035405945 421 52504320 1717 17 875 1717
1.9968767 -0.29604089 -0.035513259 95 52699904 388 17 733 388
1.9852003 -0.31925246 -0.035227086 72 52894208 292 17 739 292
1.9899948 -0.34512851 -0.03554903 89 53090816 364 17 793 364
1.9924868 -0.37080404 -0.035799433 254 53286912 1045 17 775 1045
2.0142503 -0.40049395 -0.036765266 799 53483008 3376 17 829 3376
1.9665205 0.49275789 -0.08473821 339 46458624 1401 18 1040 1401
1.9792179 0.4702023 -0.085158236 655 46653440 2723 18 987 2723
1.982891 0.44544163 -0.08503823 649 46850304 2694 18 1014 2694
1.9598871 0.41508266 -0.083298132 198 47045632 800 18 992 800
1.9687495 0.39177909 -0.083538145 81 47241472 331 18 941 331
1.9724276 0.36740741 -0.083478145 84 47436544 342 18 948 342
1.9748207 0.34283394 -0.083358139 89 47633920 362 18 979 362
1.9788791 0.31857404 -0.083358139 433 47827456 1748 18 1026 1748
1.9707905 0.29250985 -0.0826381 606 48024064 2416 18 1039 2416
1.9851122 0.26977974 -0.083298132 701 48220416 2826 18 1080 2826
1.9654871 0.24259114 -0.081918061 255 48415744 1007 18 976 1007
1.976253 0.21933265 -0.082398087 135 48610304 538 18 975 538
1.9807826 0.19525994 -0.082518093 605 48805120 2408 18 1122 2408
1.982035 0.17085245 -0.082458086 629 49000704 2502 18 1032 2502
1.9839824 0.14651696 -0.082458086 640 49196288 2544 18 1013 2544
1.9846348 0.12209831 -0.082398087 604 49391360 2399 18 1009 2399
1.9899716 0.097930081 -0.0826381 389 49583616 1552 18 990 1552
1.988031 0.073392801 -0.082458086 411 49778432 1634 18 1033 1634
1.977805 0.048722804 -0.081798054 671 49972736 2639 18 1066 2639
1.9772558 0.024436284 -0.081738047 675 50167808 2650 18 1118 2650
1.9774069 0.00017047339 -0.081738047 697 50360320 2737 18 1029 2737
1.9902357 -0.024256021 -0.082518093 175 50555648 698 18 1026 698
1.9828029 -0.048505206 -0.082098067 97 50749184 386 18 906 386
1.9870459 -0.073017843 -0.082398087 126 50943744 503 18 946 503
1.9869972 -0.097445548 -0.082458086 237 51139072 944 18 1038 944
1.976685 -0.12126985 -0.081918061 518 51334144 2041 18 1002 2041
1.9790299 -0.14581184 -0.082158074 91 51528704 363 18 942 363
1.9790806 -0.1702581 -0.08227808 94 51725312 375 18 966 375
1.9748555 -0.19433576 -0.082158074 77 51918080 307 18 945 307
1.9752983 -0.21888603 -0.08233808 95 52114944 379 18 1004 379
1.983361 -0.24445479 -0.082998119 511 52311552 2052 18 1004 2052
1.9831791 -0.2691786 -0.083178125 656 52504320 2639 18 1021 2639
1.9787391 -0.29334843 -0.083118126 118 52699904 477 18 967 477
1.9759758 -0.31776717 -0.083178125 85 52894208 344 18 991 344
1.9856963 -0.34438217 -0.084018171 214 53090816 875 18 959 875
1.9872086 -0.36982068 -0.08437819 689 53286912 2828 18 1052 2828
1.9632202 0.41578788 -0.13241464 438 47045632 1780 19 967 1780
1.9652429 0.39108199 -0.13216151 604 47241472 2447 19 897 2447
1.9620571 0.36547774 -0.13148652 558 47436544 2242 19 889 2242
1.963449 0.34086204 -0.13123341 528 47633920 2115 19 906 2115
1.9635488 0.31610909 -0.13089591 534 47827456 2131 19 928 2131
1.9682658 0.29213563 -0.13098028 615 48024064 2456 19 863 2456
1.9717026 0.26795998 -0.13098028 588 48220416 2348 19 921 2348
1.9550632 0.24130665 -0.12929282 392 48415744 1536 19 874 1536
1.9479735 0.21619964 -0.12844908 107 48610304 414 19 797 414
1.95048 0.19227871 -0.12844908 93 48805120 360 19 830 360
1.9606348 0.16901192 -0.12912406 418 49000704 1634 19 864 1634
1.9595799 0.1447196 -0.12887095 576 49196288 2243 19 928 2243
1.9771214 0.12163755 -0.13022092 204 49391360 810 19 865 810
1.9605509 0.096487947 -0.12870219 105 49583616 408 19 835 408
1.9635788 0.072494842 -0.12887095 116 49778432 451 19 833 451
1.9653168 0.048417598 -0.12895532 125 49972736 487 19 834 487
1.9717411 0.024369206 -0.12946156 159 50167808 623 19 810 623
1.9639202 0.00017194454 -0.12878658 420 50360320 1632 19 836 1632
1.9727416 -0.024039418 -0.12954594 139 50555648 545 19 778 545
1.9742904 -0.048295308 -0.12971468 112 50749184 440 19 815 440
1.973549 -0.07251925 -0.12971468 109 50943744 428 19 848 428
1.961563 -0.096193261 -0.12878658 340 51139072 1321 19 836 1321
1.9741586 -0.12111436 -0.12996781 550 51334144 2169 19 847 2169
1.9745111 -0.14547803 -0.13013655 553 51528704 2187 19 902 2187
1.9745628 -0.16986856 -0.13030529 571 51725312 2260 19 844 2260
1.9782792 -0.19467334 -0.13081154 141 51918080 561 19 817 561
1.9787124 -0.21926503 -0.13106465 604 52114944 2416 19 862 2416
1.9778506 -0.24377452 -0.13123341 604 52311552 2420 19 860 2420
1.9747101 -0.26802742 -0.13123341 634 52504320 2542 19 857 2542
1.9712723 -0.29223999 -0.13123341 601 52699904 2407 19 894 2407
1.9655701 -0.31609172 -0.13106465 577 52894208 2308 19 873 2308
1.9703789 -0.34172264 -0.13182402 429 53090816 1729 19 834 1729
1.9420538 0.33750397 -0.17764096 325 47633920 1280 20 1104 1280
1.9421234 0.31301466 -0.17720619 451 47827456 1769 20 1012 1769
1.9497516 0.28974193 -0.17764096 506 48024064 1992 20 969 1992
1.9433101 0.2644552 -0.17655402 233 48220416 910 20 950 910
1.9592348 0.24217063 -0.17796704 91 48415744 362 20 924 362
1.962059 0.21810956 -0.17796704 120 48610304 477 20 915 477
1.9645879 0.19401567 -0.17796704 109 48805120 432 20 1000 432
1.9638495 0.16963647 -0.17764096 113 49000704 447 20 983 447
1.9538869 0.14464593 -0.17633665 463 49196288 1802 20 1020 1802
1.956507 0.12071886 -0.17644534 465 49391360 1811 20 1051 1811
1.9419551 0.095918946 -0.17470624 298 49583616 1142 20 1004 1142
1.9509331 0.07237418 -0.17557579 160 49778432 619 20 1053 619
1.9496869 0.048378859 -0.1753584 309 49972736 1193 20 978 1193
1.9461577 0.024400504 -0.17492363 513 50167808 1969 20 1042 1969
1.9473047 0.00051638362 -0.17503232 537 50360320 2063 20 1054 2063
1.9491524 -0.023404347 -0.17524971 525 50555648 2022 20 968 2022
1.9516997 -0.047394674 -0.17557579 483 50749184 1866 20 966 1866
1.967859 -0.071962371 -0.17742357 262 50943744 1031 20 982 1031
1.9519346 -0.095374934 -0.17579317 473 51139072 1831 20 1055 1831
1.9526016 -0.11944278 -0.17601056 543 51334144 2107 20 987 2107
1.9509889 -0.14339522 -0.17601056 509 51528704 1975 20 1010 1975
1.9500726 -0.16741127 -0.17611925 484 51725312 1879 20 1030 1879
1.9706252 -0.1935686 -0.17861921 121 51918080 483 20 957 483
1.9631613 -0.2171891 -0.17807573 77 52114944 307 20 960 307
1.9593617 -0.24114214 -0.17796704 77 52311552 306 20 963 306
1.9532998 -0.2647672 -0.17764096 436 52504320 1718 20 1039 1718
1.9617035 -0.29046682 -0.17894529 498 52699904 1985 20 1070 1985
1.9560285 -0.31420237 -0.1787279 318 52894208 1266 20 983 1266
1.9562447 0.26586226 -0.22620989 119 48220416 473 21 1141 473
1.9520966 -0.071726769 -0.2234216 49 50943744 192 21 1030 192
1.9500794 -0.095627852 -0.22328883 59 51139072 231 21 992 231
1.9537054 -0.11985555 -0.22395271 50 51334144 197 21 980 197
1.9590068 -0.14433265 -0.22488214 195 51528704 769 21 953 769
1.9600505 -0.16861725 -0.22528046 100 51725312 396 21 986 396
1.9627656 -0.19314367 -0.22594434 61 51918080 244 21 954 244
1.952885 -0.28951043 -0.22620989 123 52699904 488 21 1255 488
1.9786574 -0.14578433 -0.27596784 11 51528704 45 22 751 45
1.9462152 -0.16742429 -0.27111301 252 51725312 986 22 802 986
1.9410653 -0.19100399 -0.2706432 277 51918080 1081 22 827 1081
