# .PCD v0.7 - Point Cloud Data file format
VERSION 0.7
FIELDS x y z intensity t reflectivity ring noise range
SIZE 4 4 4 4 4 2 2 2 4
TYPE F F F F U U U U U
COUNT 1 1 1 1 1 1 1 1 1
WIDTH 836
HEIGHT 1
VIEWPOINT 0 0 0 1 0 0 0
POINTS 836
DATA ascii
-1.6527848 1.693673 -0.16287348 282 13076224 1594 19 581 1594
-1.6545475 1.737645 -0.16565779 275 13273344 1599 19 582 1599
-1.6615793 1.7884829 -0.16920148 243 13468416 1464 19 543 1464
-1.6716228 1.8441807 -0.17325141 279 13663488 1744 19 601 1744
-1.6779047 1.8974029 -0.17696385 266 13858816 1723 19 557 1723
-1.6785725 1.9457699 -0.18008566 256 14055936 1708 19 570 1708
-1.6795852 1.99596 -0.18337624 304 14253568 2088 19 545 2088
-1.6764548 2.0426118 -0.18624493 336 14450176 2368 19 580 2368
-1.6774095 2.0957074 -0.18978862 586 14646784 4259 19 579 4259
-1.634403 2.0941372 -0.18742616 447 14844928 3183 19 603 3183
-1.5953099 2.0965889 -0.18556994 431 15040768 3017 19 611 3017
-1.5581851 2.1008 -0.18396685 456 15236864 3146 19 662 3146
-1.5211989 2.1044183 -0.18236375 435 15429632 2960 19 607 2960
-1.4832129 2.1058178 -0.18059191 458 15625216 3066 19 607 3066
-1.436969 2.0942791 -0.17755446 495 15818752 3221 19 542 3221
-1.398984 2.0935266 -0.17569824 517 16015616 3307 19 537 3307
-1.3634086 2.0955014 -0.17417952 572 16209664 3605 19 579 3605
-1.3301289 2.1002882 -0.17299829 562 16403200 3505 19 564 3505
-1.2953703 2.1020303 -0.17156394 502 16596480 3088 19 548 3088
-1.2643559 2.109221 -0.1707202 537 16793344 3275 19 547 3275
-1.2318559 2.1133854 -0.16962335 554 16984576 3343 19 598 3343
-1.1945345 2.1084013 -0.16768275 523 17179392 3097 19 592 3097
-1.1613657 2.1098063 -0.16641715 520 17374464 3043 19 625 3043
-1.1283435 2.1107166 -0.16515155 523 17566976 3022 19 665 3022
-1.0927219 2.1058292 -0.16337971 526 17761536 2987 19 612 2987
-1.0488814 2.0834765 -0.16000476 468 17956352 2568 19 617 2568
-0.69857776 1.4308214 -0.097315252 147 18151936 377 19 508 377
-0.66648507 1.4086587 -0.094446555 255 18347520 626 19 510 626
-0.64831883 1.4149195 -0.094277807 273 18543360 668 19 520 668
-0.62888825 1.4182138 -0.09385594 385 18736384 935 19 532 935
-0.60908234 1.4203292 -0.093349703 416 18933504 1003 19 565 1003
-0.5889383 1.4212523 -0.092759088 461 19131648 1100 19 644 1100
-0.56664443 1.4163444 -0.091662228 393 19328512 922 19 614 922
-0.54706997 1.417613 -0.091155991 390 19521536 908 19 565 908
-0.52581465 1.4139453 -0.09022788 369 19718656 848 19 593 848
-0.50137645 1.4005888 -0.088456035 239 19913216 534 19 580 534
-0.48285514 1.4028668 -0.088118546 224 20111104 498 19 624 498
-0.46341622 1.4020634 -0.087527931 243 20306688 535 19 618 535
-0.4431676 1.3981452 -0.08668419 288 20502528 625 19 567 625
-0.42077222 1.3863142 -0.085165471 355 20699648 752 19 599 752
-0.40206379 1.3856311 -0.084659226 307 20896256 645 19 589 645
-0.38184181 1.3789363 -0.083646744 299 21090048 617 19 606 617
-0.36209902 1.3729192 -0.082718641 264 21287168 537 19 581 537
-0.34498191 1.3762927 -0.082634263 303 21483264 615 19 588 615
-0.32346416 1.3610326 -0.080946796 210 21676800 415 19 547 415
-0.30040962 1.3367044 -0.078499965 117 21872128 222 19 489 222
-0.28398359 1.3402902 -0.078499965 99 22066688 188 19 469 188
-0.41983661 2.1098845 -0.14464879 132 22263040 618 19 549 618
-0.38735139 2.0796115 -0.14161135 411 22458624 1856 19 602 1856
-0.36316416 2.0920625 -0.14228633 325 22654208 1479 19 578 1479
-0.3382549 2.1012807 -0.1427082 277 22849536 1268 19 529 1268
-0.31244349 2.1052732 -0.1427082 406 23045888 1855 19 644 1855
-0.28631702 2.1069741 -0.14253946 421 23240448 1920 19 619 1920
-0.26019591 2.1083512 -0.1423707 397 23435264 1808 19 637 1808
-0.23529111 2.1202989 -0.14313006 283 23628032 1301 19 593 1301
-0.20896138 2.1200516 -0.14287695 253 23823872 1159 19 561 1159
-0.17661101 2.0489912 -0.13663331 136 24017664 582 19 538 582
-0.13242304 1.7926313 -0.1146962 743 24212736 2421 19 576 2421
-0.13054261 2.122328 -0.14253946 401 24408320 1829 19 624 1829
-0.10478126 2.1297417 -0.14304569 2202 24604416 10091 19 948 10091
-0.077285171 2.0940237 -0.13992387 498 24797696 2206 19 621 2206
-0.051412039 2.0878415 -0.13933326 498 24995328 2190 19 643 2190
-0.025944689 2.1012681 -0.14043012 473 25189632 2107 19 659 2107
-0.00017009676 1.9808595 -0.13022092 103 25384704 410 19 542 410
0.02553213 2.0933011 -0.13975513 219 25580800 970 19 530 970
0.05121823 2.0928299 -0.13975513 185 25776128 820 19 502 820
0.075609155 2.0571926 -0.13680206 104 25969920 447 19 485 447
0.10207341 2.0809906 -0.1389114 169 26165248 742 19 523 742
0.1248482 2.0348263 -0.13511458 268 26360576 1125 19 538 1125
0.15384683 2.087796 -0.13975513 152 26554624 674 19 496 674
0.18031172 2.0956783 -0.14059886 120 26750208 538 19 525 538
0.20660199 2.0992575 -0.1411051 97 26943232 438 19 478 438
0.23366681 2.1084483 -0.14211759 71 27138560 325 19 509 325
0.26513889 2.1509128 -0.14599876 14 27333632 70 19 464 70
0.10737983 0.79284662 -0.030238317 6 27529216 4 19 505 4
0.1151991 0.77865595 -0.029141461 11 27723008 7 19 509 7
0.12427054 0.77423239 -0.028888341 18 27918592 11 19 503 11
0.13410312 0.77461261 -0.029057089 23 28114176 14 19 463 14
0.14396369 0.77486777 -0.029225836 26 28310784 16 19 485 16
0.15443419 0.77792907 -0.029647702 29 28506368 18 19 496 18
0.16500135 0.7808494 -0.030069571 45 28702208 29 19 481 29
0.17566326 0.78362679 -0.030491438 26 28898304 17 19 481 17
0.17328867 0.73100096 -0.026104016 83 29095168 47 19 506 47
0.18781717 0.75104994 -0.028044607 65 29289728 39 19 497 39
0.2188689 0.83154964 -0.035300728 13 29485824 10 19 493 10
0.22932267 0.82976151 -0.035385102 16 29682176 11 19 423 11
0.24226417 0.83645463 -0.036228836 13 29877248 10 19 439 10
0.25135309 0.82960469 -0.035891343 19 30072832 15 19 469 15
0.26392296 0.83405674 -0.036566332 90 30268928 70 19 497 70
0.27226225 0.82507855 -0.036060091 93 30465280 71 19 551 71
0.27750292 0.80754232 -0.034794487 204 30660352 150 19 482 150
0.28537709 0.79844725 -0.034288246 84 30856960 61 19 514 61
0.30557209 0.82290387 -0.036819451 148 31051264 115 19 470 115
0.29771173 0.77261072 -0.032600775 694 31247872 480 19 538 480
0.31161156 0.78000104 -0.033613257 482 31442176 343 19 558 343
0.31887141 0.77059507 -0.033107016 427 31639296 300 19 537 300
0.32869646 0.7675398 -0.03319139 429 31831808 302 19 480 302
0.33728281 0.7616266 -0.033022642 402 32027392 281 19 518 281
0.35241437 0.77011257 -0.034203872 162 32220672 117 19 517 117
0.35715088 0.755822 -0.033275764 189 32417280 133 19 543 133
0.38388509 0.7871992 -0.036650706 96 32611584 74 19 468 74
0.38724285 0.76996922 -0.035469476 71 32805632 53 19 490 53
0.4021703 0.77577227 -0.036481958 49 32999680 38 19 527 38
1.1605397 2.1714666 -0.17097333 100 33196032 614 19 609 614
1.1895025 2.1614261 -0.1713952 88 33387776 544 19 535 544
0.42210081 0.74570596 -0.035047609 84 33582592 62 19 596 62
0.44125673 0.75768673 -0.036735076 23 33778688 18 19 511 18
0.45410803 0.75819713 -0.037325691 24 33970432 19 19 503 19
0.45867276 0.74493307 -0.036566332 17 34163712 13 19 454 13
0 0 -0 6 34358784 0 19 463 0
0.50127244 0.77103525 -0.040363137 22 34553856 19 19 484 19
0.51125014 0.76565427 -0.040447511 92 34751232 79 19 486 79
0.53526628 0.78068405 -0.042641222 45 34946048 41 19 531 41
0.56489074 0.80256796 -0.045594297 31 35139328 30 19 509 30
0.58053493 0.8036505 -0.046438031 18 35337216 18 19 495 18
0.5927279 0.799667 -0.046775524 52 35533568 52 19 537 52
0.61456513 0.80819178 -0.048462994 14 35732736 15 19 481 15
0.62566286 0.8021602 -0.048631743 45 35926784 47 19 440 47
0.64168668 0.80220079 -0.049475476 28 36124928 30 19 528 30
0.65527588 0.79888701 -0.049981717 67 36321792 73 19 509 73
0.66952145 0.79612225 -0.050572332 154 36518656 168 19 505 168
0.65645826 0.76144087 -0.047619261 293 36715008 299 19 523 299
0.66509277 0.75258142 -0.047534887 256 36911104 261 19 526 261
0.67360878 0.74362481 -0.047450513 193 37107456 196 19 515 196
1.9605135 2.1105618 -0.2064102 45 37303296 382 19 519 382
1.8818173 1.9766629 -0.19358543 23 37498112 178 19 510 178
1.7493405 1.792973 -0.17460139 15 37693952 100 19 485 100
1.7761439 1.7763026 -0.175192 19 37889024 125 19 526 125
1.819919 1.7759428 -0.17780758 10 38083840 70 19 476 70
2.0602627 1.9616379 -0.20337275 19 38278400 161 19 485 161
1.4730729 1.3686424 -0.13275212 21 38472960 89 19 476 89
1.4609605 1.3243682 -0.12946156 27 38669568 108 19 517 108
1.4681441 1.2984207 -0.12844908 20 38865152 80 19 472 80
1.4545385 1.2549268 -0.12515852 53 39061504 199 19 519 199
1.4843166 1.2491704 -0.12676162 301 39255040 1144 19 546 1144
1.5003043 1.2314936 -0.12684599 288 39452160 1095 19 629 1095
1.5160817 1.2136124 -0.12693036 238 39648000 907 19 583 907
1.5332172 1.1967552 -0.12718348 278 39843840 1062 19 541 1062
1.549374 1.1790566 -0.12735222 280 40035840 1071 19 579 1071
1.5669278 1.1623286 -0.12768972 267 40230144 1026 19 549 1026
1.5843039 1.145347 -0.12802722 278 40423680 1073 19 551 1073
1.606387 1.1315556 -0.12887095 259 40620288 1010 19 564 1010
1.6283691 1.1173937 -0.12971468 258 40814848 1017 19 569 1017
1.6510729 1.1034155 -0.13064279 270 41008640 1076 19 499 1076
1.6703362 1.0868742 -0.13123341 258 41204224 1036 19 512 1036
1.6843899 1.0668279 -0.13131778 25 41400320 103 19 501 103
0.27717257 0.17120059 0.0099234711 24 41592320 2 19 501 2
2.8682177 1.7191684 -0.24564388 132 41787648 1495 19 522 1495
2.8761842 1.6763169 -0.24437828 211 41983744 2362 19 589 2362
2.8835332 1.6335297 -0.24311267 240 42177024 2662 19 571 2662
2.8762989 1.5831299 -0.2404971 207 42371328 2255 19 547 2255
2.870024 1.534095 -0.23805027 241 42566656 2578 19 556 2578
2.8780191 1.4932543 -0.23703778 248 42762240 2633 19 540 2633
2.8783252 1.448866 -0.23535031 270 42957568 2833 19 501 2833
2.8833511 1.407318 -0.23416908 257 43153920 2672 19 542 2672
2.8769827 1.3607546 -0.23197538 219 43346176 2243 19 527 2243
2.8771572 1.3178799 -0.23045665 255 43542016 2582 19 490 2582
2.8858249 1.2792441 -0.22978166 256 43737344 2578 19 522 2578
2.8710821 1.2307822 -0.22699733 214 43933440 2111 19 540 2111
2.8712394 1.1893574 -0.22564736 222 44126208 2166 19 540 2166
2.8532352 1.1410871 -0.22269429 184 44322560 1758 19 510 1758
2.8493588 1.0991758 -0.2210912 238 44516864 2242 19 539 2242
2.8495564 1.059268 -0.21990997 241 44712192 2251 19 529 2251
2.8445144 1.0178437 -0.21830687 292 44908032 2692 19 506 2692
1.8683486 0.64293462 -0.12979905 293 45103872 1155 19 583 1155
1.8931289 0.62558299 -0.13131778 128 45298432 516 19 509 516
1.8797646 0.59568608 -0.12946156 52 45496320 207 19 483 207
1.886933 0.57257366 -0.12946156 50 45689856 199 19 510 199
1.8938173 0.54937494 -0.12946156 51 45885696 202 19 518 202
1.8773675 0.51971775 -0.12743659 403 46082048 1544 19 586 1544
1.8855311 0.49714816 -0.12760535 411 46276352 1577 19 569 1577
1.8905232 0.47373036 -0.12752096 445 46472448 1706 19 556 1706
1.8942553 0.4500348 -0.12735222 506 46668032 1935 19 574 1935
1.8879683 0.42413691 -0.12633975 91 46864640 346 19 501 346
1.8949807 0.40134925 -0.12650849 85 47059968 324 19 535 324
1.8958539 0.37728754 -0.12617099 50 47256576 191 19 434 191
1.895443 0.35308269 -0.12574913 57 47450112 216 19 505 216
1.8849063 0.3272424 -0.12448353 409 47646976 1510 19 588 1510
1.8877964 0.30392888 -0.12439915 428 47840512 1579 19 601 1579
1.8903983 0.28059375 -0.12431478 449 48036864 1654 19 600 1654
1.903573 0.25871444 -0.12515852 203 48229120 757 19 567 757
1.8927592 0.23362906 -0.12397728 369 48425216 1354 19 590 1354
1.8944932 0.2102747 -0.12389291 420 48619008 1540 19 585 1540
1.8959394 0.18691295 -0.12380853 426 48814592 1559 19 651 1559
1.8961048 0.16346201 -0.12363979 422 49009408 1542 19 610 1542
1.893993 0.13988881 -0.1233023 214 49204480 780 19 545 780
1.8786594 0.11559918 -0.12186795 53 49399296 192 19 503 192
1.8799365 0.092536435 -0.12186795 65 49594368 234 19 500 234
1.8809305 0.069459751 -0.12186795 51 49786112 184 19 525 184
1.8816413 0.046372611 -0.12186795 165 49981696 591 19 519 591
1.9000031 0.023496632 -0.12338667 482 50176256 1754 19 640 1754
1.9001484 0.00017890097 -0.12338667 463 50369792 1687 19 646 1687
1.9020002 -0.023163529 -0.12355541 440 50563584 1606 19 616 1606
1.9045612 -0.046575941 -0.12380853 424 50758144 1552 19 588 1552
1.9048419 -0.069981113 -0.12389291 56 50952960 208 19 508 208
1.913792 -0.093841195 -0.12473664 133 51148032 495 19 521 495
1.9005617 -0.11658478 -0.12372416 398 51344128 1456 19 595 1456
1.8979942 -0.1398254 -0.12363979 456 51537408 1665 19 649 1665
1.8961354 -0.16310619 -0.12363979 459 51734272 1677 19 643 1677
1.896966 -0.18665573 -0.12389291 469 51929600 1719 19 627 1719
1.8975036 -0.21025017 -0.12414603 477 52127488 1753 19 626 1753
1.8977474 -0.23388588 -0.12439915 472 52322048 1741 19 614 1741
2.8840637 -0.39163348 -0.2089414 134 52517888 1147 19 665 1147
2.8642561 -0.42480117 -0.2076758 268 52713216 2269 19 587 2269
2.8598113 -0.46007642 -0.20776017 269 52908288 2280 19 557 2280
2.8588588 -0.49598837 -0.20818204 252 53103872 2142 19 560 2142
2.8613732 -0.53267604 -0.2089414 249 53300224 2132 19 498 2132
2.8722117 -0.57125044 -0.21046013 336 53495552 2908 19 552 2908
2.8640106 -0.60624737 -0.21037576 289 53692160 2500 19 569 2500
2.8699663 -0.64440548 -0.21155699 927 53886720 8086 19 597 8086
2.8230643 -0.67036229 -0.20818204 185 54082560 1576 19 531 1576
2.7933614 -0.69962633 -0.20632583 170 54277376 1426 19 515 1426
2.6766536 -0.70539755 -0.19687599 114 54472192 885 19 548 885
2.4699717 -0.68342263 -0.17949505 291 54667520 1929 19 574 1929
2.8585439 -0.82889831 -0.21451005 286 54863104 2558 19 518 2558
2.8309939 -0.8587063 -0.21299133 281 55059456 2484 19 546 2484
2.7964962 -0.88585645 -0.21088199 280 55255296 2432 19 605 2432
2.7551394 -0.91010171 -0.20818204 273 55451392 2321 19 576 2321
2.7154975 -0.93411541 -0.20565084 259 55644160 2155 19 638 2155
2.6831908 -0.95998102 -0.20379461 299 55839488 2451 19 597 2451
2.6515951 -0.98554277 -0.20202278 266 56034560 2149 19 563 2149
2.6142013 -1.0083225 -0.19974469 310 56230400 2457 19 526 2457
2.5775769 -1.0307044 -0.19755098 312 56423680 2428 19 550 2428
2.545403 -1.0542477 -0.19577913 350 56618240 2681 19 527 2681
2.5075476 -1.0748018 -0.19350106 350 56812544 2629 19 520 2629
2.4777732 -1.0982223 -0.19198233 374 57009408 2772 19 528 2772
2.4405568 -1.1177546 -0.18978862 381 57203200 2771 19 566 2771
2.4086421 -1.1390972 -0.18810114 320 57398528 2293 19 568 2293
2.3792601 -1.1611376 -0.1866668 324 57593856 2293 19 548 2293
2.3488121 -1.1821815 -0.18514808 315 57790208 2199 19 583 2199
2.3235149 -1.2054081 -0.18413559 298 57982208 2060 19 589 2060
2.3023968 -1.2305417 -0.18354498 283 58177792 1947 19 581 1947
2.276648 -1.2529362 -0.18253249 141 58374912 964 19 538 964
5.1679201 -2.9278915 -0.46543688 35 58567936 1270 19 537 1270
2.8744857 -1.6752733 -0.24420953 85 58760704 955 19 559 955
0.28217697 -0.16872196 0.0096703507 154 58956800 16 19 629 16
0.27754048 -0.17060356 0.0099234711 116 59151872 12 19 507 12
0.21481763 -0.13560748 0.015998363 39 59347456 2 19 435 2
0 -0 -0 10 59542016 0 19 470 0
2.8351083 -1.8943417 -0.25121254 14 59736320 174 19 462 174
2.7985029 -1.9199693 -0.24986255 7 59932672 91 19 495 91
2.9417255 -2.0718048 -0.26715913 32 60128000 429 19 472 429
3.2867241 -2.375711 -0.30588657 331 60323584 5495 19 598 5495
3.2917349 -2.4413927 -0.30951461 425 60519168 7201 19 607 7201
3.2813506 -2.4966896 -0.31162396 391 60715520 6707 19 564 6707
3.0980844 -2.4178228 -0.29525551 198 60909568 3089 19 584 3089
2.9896145 -2.3927648 -0.28673378 248 61106176 3674 19 534 3674
3.1541131 -2.5885899 -0.30799589 175 61302016 2945 19 607 2945
3.2860188 -2.765049 -0.3261362 249 61498368 4640 19 551 4640
3.2857897 -2.8344569 -0.32993302 298 61692928 5668 19 522 5668
3.2910645 -2.9102125 -0.33448917 168 61889536 3282 19 501 3282
2.3596234 -2.1385858 -0.23214412 14 62083328 151 19 503 151
2.3229825 -2.1578853 -0.23096289 21 62280704 221 19 493 221
2.291276 -2.1814194 -0.23037228 33 62477056 342 19 462 342
0.58141154 -0.56689805 -0.031250801 12 62672640 8 19 512 8
0.614568 -0.61415589 -0.036060091 28 62867200 21 19 508 21
0.61324739 -0.62807065 -0.036819451 92 63063808 72 19 513 72
0.61648583 -0.64709669 -0.038169429 247 63261184 199 19 518 199
0.60443002 -0.65023249 -0.037663188 122 63457280 97 19 459 97
0.5943979 -0.65538567 -0.037410066 106 63653632 84 19 478 84
0.59225029 -0.66934931 -0.038169429 502 63849472 404 19 584 404
0.57683337 -0.66826636 -0.037241317 62 64047360 49 19 504 49
0.56602347 -0.67224467 -0.036903825 31 64243456 24 19 428 24
2.0474665 -2.4947913 -0.23577218 43 64439296 460 19 477 460
2.0204327 -2.5243971 -0.23627841 96 64633088 1020 19 477 1020
2.0407903 -2.6149914 -0.24336579 93 64829696 1040 19 472 1040
2.0393131 -2.6802845 -0.24766885 70 65024000 809 19 517 809
2.4454494 -3.2974102 -0.31010523 230 65219328 3917 19 534 3917
2.3919613 -3.3094034 -0.30824903 256 65415424 4313 19 534 4313
2.3385491 -3.3205833 -0.30639279 227 65609984 3784 19 512 3784
2.2762065 -3.3178058 -0.3031866 267 65804544 4368 19 503 4368
2.2242506 -3.3289173 -0.30149913 336 66000128 5437 19 546 5437
2.1560676 -3.3141968 -0.29728046 483 66193920 7617 19 515 7617
2.0971131 -3.3117809 -0.29441178 370 66390016 5739 19 516 5739
2.0489979 -3.3253891 -0.29323053 693 66584832 10660 19 545 10660
1.9926707 -3.3246412 -0.29069933 614 66777344 9304 19 595 9304
1.9396825 -3.3281815 -0.28867435 587 66971648 8782 19 611 8782
1.8810169 -3.3205204 -0.28563693 348 67166976 5108 19 768 5108
1.8228341 -3.3119254 -0.28259948 136 67362048 1960 19 2903 1960
1.7750101 -3.3208625 -0.28133386 121 67555584 1732 19 5873 1732
0 -0 -0 1 67750656 0 19 4321 0
1.6692382 -3.3162487 -0.27686208 352 67943936 4895 19 1068 4895
1.6218626 -3.3230503 -0.27559647 415 68140288 5724 19 622 5724
1.5711652 -3.3219841 -0.27365589 582 68336640 7923 19 657 7923
1.5298662 -3.3401086 -0.27357152 617 68532480 8402 19 905 8402
1.4770555 -3.332212 -0.27112469 344 68726784 4605 19 1221 4605
1.4317355 -3.3400123 -0.27019656 162 68922880 2159 19 2428 2159
1.3769168 -3.3241878 -0.26715913 108 69118208 1415 19 4057 1415
1.3308418 -3.3278811 -0.26597789 7 69315840 91 19 5520 91
0 -0 -0 0 69512960 0 19 6152 0
1.241135 -3.3389904 -0.26412168 38 69708800 495 19 5681 495
1.2004026 -3.354908 -0.26420605 70 69904640 906 19 4754 906
0 -0 -0 2 70101248 0 19 3999 0
0.70932227 -2.1467042 -0.15392987 1 70296064 7 19 2832 7
0.68503124 -2.1618967 -0.1545205 31 70491904 163 19 1442 163
0.65671498 -2.1644189 -0.15401424 17 70689024 88 19 1178 88
0.63232416 -2.179971 -0.15468924 10 70883584 53 19 1163 53
0 -0 -0 2 71079168 0 19 1197 0
0 -0 -0 4 71274752 0 19 1198 0
0 -0 -0 8 71472384 0 19 1237 0
0.53311116 -2.2442431 -0.15781106 17 71666944 93 19 1557 93
0.50509429 -2.2486718 -0.1576423 4 71864064 23 19 2422 23
0 -0 -0 2 72058112 0 19 3227 0
0 -0 -0 0 72252928 0 19 3282 0
0.43930128 -2.358803 -0.16565779 0 72446464 0 19 3728 0
0 -0 -0 0 72641792 0 19 3077 0
0 -0 -0 2 72833536 0 19 1587 0
0 -0 -0 4 73027328 0 19 1115 0
0.35103571 -2.5838807 -0.18329185 26 73221632 182 19 1463 182
0.32125095 -2.603817 -0.18464184 8 73416448 61 19 1355 61
0.28696978 -2.5867653 -0.18286999 18 73612544 125 19 1131 125
0.25403386 -2.5781922 -0.18185751 33 73807360 226 19 1515 226
0.2205833 -2.5602674 -0.18008566 17 74002176 117 19 3593 117
0.18731843 -2.5379379 -0.17797633 8 74198528 56 19 6112 56
0.1572578 -2.5579476 -0.17949505 0 74393600 0 19 5995 0
0 -0 -0 0 74588672 0 19 5235 0
0 -0 -0 0 74786816 0 19 6000 0
0 -0 -0 0 74981120 0 19 6210 0
0.040548198 -3.3018823 -0.24210019 0 75174144 0 19 6292 0
-0 -0 -0 0 75369728 0 19 6554 0
-0 -0 -0 0 75565312 0 19 6371 0
-0 -0 -0 0 75758336 0 19 6567 0
-0 -0 -0 0 75954432 0 19 6661 0
-0 -0 -0 0 76147712 0 19 5262 0
-0 -0 -0 0 76344832 0 19 2427 0
-0 -0 -0 0 76540416 0 19 1744 0
-0 -0 -0 4 76737280 0 19 1502 0
-0 -0 -0 5 76930048 0 19 1735 0
-0 -0 -0 1 77125632 0 19 1946 0
-0 -0 -0 1 77320192 0 19 1772 0
-0 -0 -0 2 77517312 0 19 1827 0
-0 -0 -0 1 77711872 0 19 2053 0
-0 -0 -0 0 77907712 0 19 2342 0
-0 -0 -0 0 78103552 0 19 2254 0
-0 -0 -0 0 78299904 0 19 2747 0
-0 -0 -0 1 78493696 0 19 2845 0
-0 -0 -0 0 78689792 0 19 3140 0
-0 -0 -0 0 78886912 0 19 3328 0
-0 -0 -0 0 79082240 0 19 3260 0
-0 -0 -0 0 79277824 0 19 2580 0
-0 -0 -0 2 79473664 0 19 1299 0
-0 -0 -0 2 79670272 0 19 2352 0
-0 -0 -0 0 79866624 0 19 6362 0
-0 -0 -0 0 80064000 0 19 6263 0
-0 -0 -0 0 80259072 0 19 3493 0
-0 -0 -0 7 80456192 0 19 789 0
-0 -0 -0 4 80650752 0 19 623 0
-0 -0 -0 7 80847616 0 19 608 0
-0 -0 -0 4 81041152 0 19 518 0
-0 -0 -0 5 81235200 0 19 529 0
-0 -0 -0 35 81427968 0 19 591 0
-0 -0 -0 5 81623296 0 19 570 0
-0 -0 -0 2 81818880 0 19 1894 0
-0 -0 -0 0 82012928 0 19 2236 0
-0 -0 -0 3 82205440 0 19 1216 0
-0 -0 -0 3 82400256 0 19 1069 0
-0 -0 -0 5 82594816 0 19 845 0
-0 -0 -0 4 82790912 0 19 726 0
-0 -0 -0 5 82985472 0 19 601 0
-0.14668615 -0.27517754 0.0111047 52 83179520 5 19 516 5
-0 -0 -0 4 83373056 0 19 544 0
-0 -0 -0 4 83567104 0 19 579 0
-0 -0 -0 5 83762176 0 19 652 0
-0.1323442 -0.22149937 0.015660869 115 83957760 7 19 515 7
-0 -0 -0 4 84152064 0 19 594 0
-0 -0 -0 5 84344832 0 19 645 0
-0.1996457 -0.30751228 0.0064641573 109 84541184 14 19 509 14
-0.15191211 -0.22799385 0.014310894 163 84736768 12 19 519 12
-0.15695372 -0.22939883 0.013973399 269 84933888 21 19 566 21
-0.14541088 -0.20709032 0.016082738 395 85126912 25 19 556 25
-0.15319543 -0.21255785 0.015323375 483 85324288 33 19 548 33
-0.14985567 -0.20265912 0.01616711 411 85519616 26 19 602 26
-0 -0 -0 2 85718272 0 19 1286 0
-0 -0 -0 4 85914368 0 19 1508 0
-0.1702905 -0.21334161 0.014395267 274 86111488 20 19 533 20
-0.1728957 -0.21123582 0.014395267 211 86307840 15 19 552 15
-0.17932458 -0.21367243 0.013889026 221 86506752 17 19 511 17
-0.18453687 -0.2144735 0.013551532 230 86700544 18 19 496 18
-0.19045557 -0.21592477 0.013129665 206 86897920 17 19 547 17
-0.19777568 -0.21873897 0.01253905 199 87094016 17 19 553 17
-0.20180155 -0.21775544 0.012370303 205 87287808 18 19 504 18
-0.21133016 -0.22247851 0.011526568 168 87482112 16 19 545 16
-0.21404441 -0.21986842 0.011526568 169 87677952 16 19 524 16
-0.22165905 -0.22215676 0.010935953 153 87873792 15 19 484 15
-0.2300746 -0.2249864 0.010260965 129 88069376 13 19 516 13
-0.23570517 -0.22489411 0.0099234711 122 88264704 13 19 490 13
-0.24647848 -0.22944374 0.0089953626 109 88458496 12 19 501 12
-0.25296745 -0.22974722 0.0085734949 110 88655616 13 19 466 13
-0.26024699 -0.23058546 0.008067254 84 88850176 10 19 480 10
-0.26381162 -0.22802523 0.0079828808 83 89045504 10 19 495 10
-0.27040252 -0.22797795 0.0075610131 75 89236992 9 19 458 9
-0.27857205 -0.22906685 0.0069703986 50 89435136 6 19 500 6
-0.28214011 -0.22625364 0.006886025 67 89628160 8 19 462 8
-0.29118016 -0.22767793 0.0062110368 49 89823488 6 19 537 6
-0.29553831 -0.22529408 0.00604229 37 90017792 5 19 533 5
-0.30228281 -0.22461785 0.0056204223 39 90212096 5 19 485 5
-0.31147751 -0.22556043 0.0049454342 39 90408960 5 19 453 5
-0.31748095 -0.2240158 0.0046079401 35 90605056 5 19 497 5
-0.32760146 -0.22517557 0.0038485788 26 90799104 4 19 498 4
-0 -0 -0 5 90994688 0 19 465 0
-0.36477008 -0.23771301 0.00064238545 22 91189248 4 19 474 4
-0.3777625 -0.2396148 -0.00037009662 32 91381504 6 19 479 6
-0.39594528 -0.24436831 -0.0018888197 23 91576064 5 19 477 5
-0 -0 -0 5 91769856 0 19 495 0
-1.3807197 -0.80495256 -0.097821496 19 91964672 50 19 526 50
-1.3930948 -0.78942156 -0.098074615 18 92158976 48 19 500 48
-1.4070424 -0.77466857 -0.098496482 38 92354048 100 19 501 100
-1.3971086 -0.74701202 -0.096640266 147 92546560 374 19 479 374
-1.4026322 -0.7279759 -0.09630277 151 92742144 381 19 524 381
-1.4096799 -0.70981282 -0.096134029 208 92937216 524 19 537 524
-1.4120156 -0.68940175 -0.095543414 179 93134592 447 19 546 447
-1.412262 -0.66818881 -0.094784051 155 93327616 383 19 512 383
-1.4103897 -0.64624459 -0.09385594 131 93523968 319 19 496 319
-1.39635 -0.61919951 -0.091830976 74 93718272 176 19 493 176
-1.4468898 -0.62046444 -0.095796533 48 93915136 122 19 477 122
-0 -0 -0 10 94110720 0 19 491 0
-1.5329241 -0.61325085 -0.10229329 12 94306816 35 19 520 35
-1.5310371 -0.59080821 -0.10144956 20 94502912 56 19 495 56
-0 -0 -0 7 94700032 0 19 493 0
-0 -0 -0 6 94894592 0 19 466 0
-0 -0 -0 5 95090688 0 19 502 0
-0 -0 -0 4 95287808 0 19 476 0
-0 -0 -0 4 95482880 0 19 439 0
-0 -0 -0 8 95678208 0 19 508 0
-0 -0 -0 11 95874560 0 19 461 0
-1.7688459 -0.48969853 -0.11790239 10 96070656 36 19 488 36
-0 -0 -0 5 96265728 0 19 521 0
-1.409157 -0.35321021 -0.085502967 69 96462080 148 19 485 148
-1.4133854 -0.3358911 -0.085502967 39 96657152 84 19 539 84
-1.4008727 -0.31481174 -0.084068611 82 96852992 172 19 504 172
-1.4056052 -0.29780343 -0.084152989 59 97046784 124 19 491 124
-1.4081765 -0.28033778 -0.084068611 65 97242112 136 19 511 136
-1.4085718 -0.26248935 -0.083815493 56 97433344 117 19 523 117
-1.4136505 -0.24552473 -0.083984241 66 97628416 138 19 541 138
-1.4185246 -0.22847494 -0.084152989 66 97821696 139 19 507 139
-1.4241786 -0.21148856 -0.084406108 58 98016768 122 19 502 122
-0 -0 -0 8 98209280 0 19 517 0
-0 -0 -0 5 98403072 0 19 519 0
-0 -0 -0 3 98598400 0 19 988 0
-0 -0 -0 3 98793984 0 19 2129 0
-0 -0 -0 0 98987264 0 19 3866 0
-0 -0 -0 0 99182080 0 19 6520 0
-0 -0 -0 0 99377408 0 19 7900 0
-0 -0 -0 0 99570176 0 19 7300 0
-0 -0 -0 0 99765504 0 19 6231 0
-0 -0 -0 0 0 0 20 4295 0
-0 -0 -0 0 196352 0 20 4176 0
-0 -0 -0 7 393984 0 20 4084 0
-0 0 -0 2 585984 0 20 2380 0
-0 0 -0 1 781056 0 20 1776 0
-0 0 -0 3 977408 0 20 1383 0
-0 0 -0 3 1171200 0 20 1493 0
-0 0 -0 3 1363712 0 20 1536 0
-0 0 -0 4 1559040 0 20 1232 0
-0.56448156 0.048182659 -0.024057217 306 1755904 99 20 813 99
-0.57176214 0.055885058 -0.024926765 166 1950464 55 20 751 55
-0 0 -0 9 2145792 0 20 819 0
-0.65999973 0.080967471 -0.034817863 402 2340352 180 20 773 180
-0.55158699 0.074485227 -0.022970283 49 2535168 15 20 694 15
-1.7139055 0.25372604 -0.15155455 170 2729984 518 20 651 518
-0.64283186 0.10299543 -0.033296157 651 2926848 279 20 836 279
-0.64935511 0.11223529 -0.034165703 1208 3119360 532 20 847 532
-0.65574729 0.12165055 -0.035035249 782 3315456 352 20 731 352
-0.65810502 0.1304639 -0.035470024 194 3510528 88 20 651 88
-0.65645444 0.13853005 -0.035470024 831 3707136 378 20 825 378
-0.65470505 0.14657532 -0.035470024 876 3902720 399 20 826 399
-0.6470539 0.15322076 -0.034817863 1025 4098560 459 20 835 459
-0.64801782 0.161874 -0.035143942 915 4294912 414 20 809 414
-0.6507889 0.17108046 -0.035687409 709 4489984 325 20 761 325
-0.65247285 0.18011403 -0.036122184 636 4684800 295 20 726 295
-0.65403247 0.18921454 -0.036556955 559 4880896 262 20 799 262
-0.6497587 0.19664928 -0.03633957 608 5076992 284 20 736 284
-0.68141294 0.21541357 -0.040252533 266 5271040 137 20 684 137
-0.6909892 0.22781225 -0.041665547 292 5466880 157 20 638 157
-0.68532145 0.23530462 -0.041339464 152 5662464 81 20 629 81
-0.68144631 0.24336202 -0.041230772 145 5859072 77 20 636 77
-0.68679488 0.25482273 -0.042209011 87 6055936 47 20 600 47
-0.66692132 0.25679293 -0.040252533 163 6251520 84 20 659 84
-0.66464287 0.2653268 -0.040361226 188 6446336 97 20 648 97
-0.66133684 0.27346301 -0.040361226 191 6642176 99 20 645 99
-0.64970797 0.27803367 -0.039382983 271 6836480 137 20 683 137
-0.65533537 0.29001346 -0.040469918 341 7033088 177 20 692 177
-0.62822807 0.2872721 -0.037643891 468 7224576 226 20 767 226
-0.61477023 0.2902852 -0.036448263 484 7420928 227 20 727 227
-0.51646358 0.25159585 -0.024926765 654 7612928 218 20 676 218
-0.50800943 0.25523338 -0.024274604 829 7807232 271 20 694 271
-0.50572151 0.26190597 -0.024383297 738 8002304 242 20 720 242
-0.50334615 0.26856077 -0.024491992 919 8194816 303 20 618 303
-0.50436717 0.27711374 -0.025035458 856 8388864 287 20 668 287
-0.50611836 0.28622177 -0.025687618 705 8583168 242 20 661 242
-0.51545113 0.29991853 -0.027318019 414 8774144 149 20 582 149
-0.50149971 0.30008933 -0.026013698 13 8970496 4 20 578 4
-0.48000616 0.29527095 -0.023731137 21 9166336 6 20 592 6
-0 0 -0 9 9360384 0 20 579 0
-0 0 -0 8 9554688 0 20 560 0
-1.8781309 1.2542814 -0.20905335 11 9751552 60 20 567 60
-0 0 -0 8 9948672 0 20 573 0
-1.8614137 1.3102975 -0.21100983 14 10144512 76 20 606 76
-1.8645308 1.3470159 -0.21361847 34 10340864 185 20 583 185
-1.8574423 1.3769004 -0.21492279 38 10535168 209 20 575 209
-1.8680964 1.420656 -0.21872705 57 10732032 320 20 643 320
-1.8614942 1.452035 -0.22024876 46 10928384 262 20 611 262
-1.857506 1.4859489 -0.22220525 43 11126784 250 20 557 250
-1.7791904 1.4594458 -0.21372716 96 11320064 518 20 570 518
-1.7649502 1.4843693 -0.21427062 171 11515392 923 20 624 923
-1.7548822 1.5130579 -0.21546626 184 11709696 1002 20 620 1002
-1.6460689 1.4548075 -0.20231436 264 11906048 1291 20 674 1291
-1.6369314 1.4829081 -0.20361868 269 12101120 1331 20 610 1331
-1.6339061 1.5170912 -0.20590124 272 12295424 1371 20 615 1371
-1.6317261 1.5527918 -0.20840119 291 12489984 1498 20 591 1498
-1.6353172 1.5949129 -0.21187937 274 12685824 1451 20 602 1451
-1.6465524 1.645787 -0.21666189 234 12879616 1286 20 610 1286
-1.6470608 1.6872121 -0.21992269 219 13076224 1235 20 661 1235
-1.6495391 1.731774 -0.22361825 228 13273344 1323 20 679 1323
-1.6971782 1.8261695 -0.23470499 191 13468416 1204 20 660 1204
-1.7694438 1.9514444 -0.25013945 182 13663488 1282 20 649 1282
-1.7960708 2.0303497 -0.25850883 315 13858816 2348 20 619 2348
-1.7638772 2.0439579 -0.25731319 773 14055936 5707 20 693 5707
-1.7136992 2.0357864 -0.25307417 410 14253568 2942 20 669 2942
-1.6961563 2.0658834 -0.2543785 365 14450176 2643 20 693 2643
-1.6806163 2.0989594 -0.25611758 662 14646784 4847 20 686 4847
-1.6308783 2.0888634 -0.25187853 369 14844928 2626 20 669 2626
-1.5972964 2.0984354 -0.25046551 378 15040768 2665 20 632 2665
-1.5619495 2.1051042 -0.24872643 386 15236864 2686 20 692 2686
-1.5202748 2.1023614 -0.2457917 385 15429632 2625 20 682 2625
-1.4771875 2.0964782 -0.24253091 393 15625216 2621 20 620 2621
-1.4356011 2.0914969 -0.2394875 453 15818752 2953 20 686 2953
-1.3998852 2.0940795 -0.23753101 437 16015616 2810 20 618 2810
-1.3599863 2.0894368 -0.23470499 527 16209664 3318 20 646 3318
-1.3262651 2.0933714 -0.23307458 425 16403200 2644 20 616 2644
-1.2921318 2.0959485 -0.23133549 472 16596480 2899 20 647 2899
-1.2591584 2.0997107 -0.22981378 477 16793344 2896 20 640 2896
-1.2232846 2.0978279 -0.22763991 440 16984576 2629 20 674 2629
-1.1896085 2.0988431 -0.22590081 472 17179392 2784 20 690 2784
-1.1565721 2.1002207 -0.22427042 452 17374464 2632 20 683 2632
-1.1255567 2.1046121 -0.22307479 413 17566976 2383 20 708 2383
-1.0955243 2.1103249 -0.22209655 424 17761536 2428 20 715 2428
-1.0561348 2.0969725 -0.21883576 273 17956352 1526 20 659 1526
-0.68582207 1.4040511 -0.13296798 148 18151936 367 20 591 367
-0.66471487 1.404274 -0.13198975 226 18347520 554 20 597 554
-0.64536208 1.4078065 -0.13144627 251 18543360 611 20 617 611
-0.62360567 1.4056237 -0.13025065 342 18736384 820 20 623 820
-0.60278404 1.4049476 -0.1292724 389 18933504 921 20 609 921
-0.58435637 1.4094838 -0.12894633 351 19131648 828 20 617 828
-0.56590831 1.4137796 -0.12862025 283 19328512 665 20 622 665
-0.54565388 1.4131982 -0.12775069 376 19521536 874 20 655 874
-0.52307445 1.4058114 -0.1261203 295 19718656 672 20 659 672
-0.50075924 1.3980854 -0.1244899 251 19913216 561 20 641 561
-0.48000699 1.3937854 -0.12329427 244 20111104 538 20 665 538
-0.46006 1.3910758 -0.12231603 275 20306688 598 20 671 598
-0.44085276 1.3899833 -0.12155518 273 20502528 588 20 686 588
-0.42289644 1.3924348 -0.1212291 251 20699648 538 20 677 538
-0.40273103 1.3870176 -0.12003347 264 20896256 558 20 696 558
-0.38143674 1.3765265 -0.11829437 277 21090048 573 20 644 573
-0.36299542 1.3753363 -0.11764222 227 21287168 466 20 649 466
-0.34464097 1.3739016 -0.11699005 257 21483264 523 20 633 523
-0.3171865 1.3335381 -0.11199016 140 21676800 267 20 562 267
-0.29949087 1.3315105 -0.111338 108 21872128 204 20 646 204
-0.28251079 1.332168 -0.11101192 83 22066688 157 20 567 157
-0.351307 1.7635428 -0.15872832 307 22263040 1007 20 662 1007
-0.32909313 1.7647892 -0.15840223 376 22458624 1227 20 654 1227
-0.3063916 1.7628182 -0.15775007 333 22654208 1080 20 607 1080
-0.28378814 1.7605568 -0.15709791 345 22849536 1112 20 657 1112
-0.26172423 1.7609568 -0.15677184 337 23045888 1082 20 610 1082
-0.2398272 1.7620659 -0.15655445 329 23240448 1055 20 622 1055
-0.21818587 1.7648762 -0.15655445 308 23435264 988 20 616 988
-0.19640207 1.7664329 -0.15644576 333 23628032 1067 20 642 1067
-0.17500293 1.7716779 -0.15677184 256 23823872 823 20 612 823
-0.15324855 1.773692 -0.15677184 222 24017664 713 20 621 713
-0.1323494 1.7873355 -0.15807615 637 24212736 2074 20 638 2074
-0.13097061 2.1231966 -0.19470581 306 24408320 1404 20 675 1404
-0.10490587 2.124644 -0.19470581 2096 24604416 9606 20 1074 9606
-0.07746911 2.0890157 -0.19068417 473 24797696 2093 20 706 2093
-0.050800487 2.0480704 -0.18611905 380 24995328 1616 20 665 1616
-0.026485367 2.1151376 -0.1934015 475 25189632 2153 20 744 2153
-0.000517815 1.9691744 -0.17742357 95 25384704 375 20 612 375
0.024981737 2.0783725 -0.18937984 129 25580800 567 20 580 567
0.049584445 2.0411396 -0.1853582 88 25776128 374 20 576 374
0.073788583 2.0175292 -0.18285824 151 25969920 625 20 587 625
0.097372122 1.9926426 -0.1802496 342 26165248 1380 20 601 1380
0.12206116 1.9952666 -0.18068437 362 26360576 1467 20 606 1467
0.14997095 2.0402136 -0.18579297 106 26554624 452 20 578 452
0.17593369 2.0491142 -0.18698859 70 26750208 302 20 579 302
0.20106623 2.0468009 -0.18698859 45 26943232 196 20 522 196
0.22627798 2.0451674 -0.18709728 58 27138560 251 20 604 251
0.093494423 0.76162028 -0.046013281 28 27333632 17 20 588 17
0.1025662 0.75844556 -0.045795891 46 27529216 27 20 550 27
0.11069939 0.74926317 -0.044926345 57 27723008 33 20 548 33
0.11688647 0.72920054 -0.042861171 85 27918592 47 20 616 47
0.12531643 0.72477287 -0.042535093 59 28114176 32 20 617 32
0.13110891 0.70656651 -0.040687304 91 28310784 47 20 606 47
0.13918808 0.70197946 -0.040361226 67 28506368 35 20 613 35
0.14573376 0.69049317 -0.03927429 72 28702208 36 20 605 36
0.15158333 0.67701358 -0.037969969 53 28898304 26 20 583 26
0.15873179 0.67026651 -0.037426502 58 29095168 28 20 574 28
0.16646208 0.66633952 -0.037209116 47 29289728 22 20 537 22
0.17260021 0.65655649 -0.03633957 73 29485824 34 20 563 34
0.18249966 0.66109556 -0.037100423 78 29682176 37 20 555 37
0.19696514 0.68076569 -0.039600372 67 29877248 34 20 606 34
0.20963189 0.69256669 -0.041230772 43 30072832 23 20 578 23
0.22021605 0.69657582 -0.041991625 44 30268928 24 20 607 24
0.23155338 0.70231628 -0.042969864 42 30465280 23 20 596 23
0.24047777 0.70036191 -0.04307856 51 30660352 28 20 534 28
0.24804968 0.69455016 -0.042752478 37 30856960 20 20 599 20
0.25793937 0.69518113 -0.043187253 41 31051264 23 20 574 23
0.28254747 0.73370045 -0.048078455 163 31247872 102 20 578 102
0.29189891 0.73110098 -0.048187148 145 31442176 91 20 582 91
0.31111827 0.75226152 -0.051121868 214 31639296 144 20 618 144
0.3285498 0.76757455 -0.053404428 327 31831808 231 20 565 231
0.33915272 0.76621139 -0.05373051 418 32027392 297 20 634 297
0.34190732 0.74753082 -0.051991414 184 32220672 126 20 581 126
0.35062999 0.74238014 -0.051882721 177 32417280 121 20 587 121
0.35055858 0.71926051 -0.049600162 43 32611584 28 20 586 28
0.35935861 0.71490449 -0.049600162 32 32805632 21 20 594 21
0.36490026 0.70426387 -0.048839308 22 32999680 14 20 594 14
0.36836118 0.69008899 -0.04764368 15 33196032 9 20 582 9
0.373447 0.67942029 -0.046882827 6 33387776 4 20 539 4
0.38175642 0.67478633 -0.046882827 24 33582592 15 20 597 15
0.40952781 0.70354736 -0.051121868 40 33778688 27 20 574 27
0.38593751 0.64475 -0.044274185 12 33970432 7 20 555 7
0 0 -0 6 34163712 0 20 553 0
0 0 -0 5 34358784 0 20 601 0
0.49830192 0.76676804 -0.0620999 73 34553856 62 20 552 62
0.49939045 0.74819666 -0.060469501 27 34751232 22 20 596 22
0.52427953 0.76496482 -0.063512914 56 34946048 49 20 574 49
0.54908061 0.78041852 -0.066447638 27 35139328 25 20 567 25
0.5743376 0.79537541 -0.069382355 14 35337216 14 20 566 14
0.57635731 0.77788717 -0.067969345 20 35533568 19 20 580 19
0.58585978 0.77075577 -0.067969345 45 35732736 43 20 601 43
1.6825837 2.156955 -0.26122618 50 35926784 382 20 631 382
1.7188638 2.1485631 -0.26296526 58 36124928 448 20 631 448
0.6176157 0.75328046 -0.068621501 37 36321792 36 20 576 36
1.3819745 1.6432421 -0.19687968 26 36518656 124 20 547 124
1.4215131 1.6487423 -0.20014049 15 36715008 75 20 543 75
1.3211437 1.4948864 -0.1802496 59 36911104 240 20 566 240
0.67252439 0.74269307 -0.071664914 24 37107456 25 20 587 25
0 0 -0 11 37303296 0 20 585 0
1.9551264 2.0543666 -0.27220419 12 37498112 103 20 575 103
1.9732475 2.0231042 -0.27111727 9 37693952 77 20 595 77
2.0000341 2.0008459 -0.27144334 37 37889024 304 20 589 304
1.9831731 1.9358833 -0.26513913 55 38083840 432 20 589 432
2.1781189 2.0745506 -0.29100814 26 38278400 242 20 640 242
1.432904 1.3318053 -0.17601056 103 38472960 401 20 578 401
1.4432473 1.3087801 -0.17514101 44 38669568 171 20 576 171
1.459944 1.2916293 -0.17524971 24 38865152 94 20 598 94
1.4696629 1.2684214 -0.17438015 16 39061504 63 20 586 63
1.4873996 1.2522111 -0.17470624 102 39255040 392 20 602 392
1.4949702 1.2275573 -0.1736193 196 39452160 744 20 630 744
1.5122498 1.2109829 -0.17394538 222 39648000 845 20 609 845
1.5293475 1.1941689 -0.17427146 241 39843840 920 20 619 920
1.547842 1.1783215 -0.17481494 241 40035840 925 20 648 925
1.5661774 1.1621995 -0.1753584 226 40230144 870 20 751 870
0.2438022 0.17672426 0.0049639139 710 40423680 65 20 828 65
0.23620008 0.16684972 0.0062682345 2382 40620288 202 20 1049 202
0.2382298 0.16393863 0.0062682345 2601 40814848 221 20 1255 221
0.24022363 0.16100283 0.0062682345 2125 41008640 180 20 1100 180
0.23801519 0.15533204 0.0068117017 1950 41204224 160 20 1016 160
0.24158305 0.1534633 0.0065943147 1947 41400320 161 20 1007 161
0.24429438 0.1510087 0.0064856214 2053 41592320 172 20 970 172
0.24783431 0.14902169 0.0062682345 1095 41787648 93 20 816 93
2.8733435 1.6753366 -0.32579005 69 41983744 778 20 624 778
2.8772531 1.6306396 -0.32372487 80 42177024 892 20 597 892
2.8926926 1.5928115 -0.32318139 64 42371328 713 20 596 713
2.9137745 1.5581311 -0.32339877 109 42566656 1211 20 602 1211
2.8647346 1.4870014 -0.31502938 205 42762240 2168 20 595 2168
2.8765514 1.4486058 -0.31426853 213 42957568 2241 20 619 2241
2.8682051 1.4005507 -0.31111643 208 43153920 2151 20 606 2151
2.8815815 1.3635477 -0.31068164 225 43346176 2321 20 601 2321
2.8926749 1.3255994 -0.31002951 244 43542016 2506 20 638 2506
2.8896401 1.2815411 -0.30774695 220 43737344 2231 20 600 2231
2.89784 1.2428505 -0.30687737 199 43933440 2009 20 587 2009
2.8825669 1.1946403 -0.30329052 207 44126208 2046 20 588 2046
2.8480918 1.1396104 -0.29752976 189 44322560 1806 20 578 1806
2.847023 1.0988489 -0.29579067 209 44516864 1975 20 645 1975
2.8491123 1.0596719 -0.29448634 219 44712192 2053 20 615 2053
2.8525419 1.0212796 -0.29339939 218 44908032 2030 20 609 2030
1.8628372 0.64140576 -0.17753227 158 45103872 621 20 762 621
1.8649046 0.61662626 -0.17688011 214 45298432 838 20 605 838
1.8524308 0.58738875 -0.17459755 49 45496320 189 20 581 189
1.857597 0.56403512 -0.17438015 57 45689856 219 20 587 219
1.8672428 0.54202783 -0.17470624 29 45885696 113 20 565 113
1.859383 0.51509517 -0.17307584 224 46082048 846 20 608 846
1.8578742 0.49021155 -0.1722063 325 46276352 1216 20 669 1216
1.8598928 0.46640924 -0.17177151 316 46472448 1177 20 659 1177
1.8915898 0.44975367 -0.17470624 107 46668032 411 20 620 411
1.8542905 0.41692096 -0.16992374 212 46864640 777 20 609 777
1.8641297 0.39516431 -0.1704672 430 47059968 1581 20 668 1581
1.8659137 0.37167683 -0.17014112 365 47256576 1339 20 691 1339
1.8703343 0.34875122 -0.17014112 371 47450112 1360 20 678 1360
1.8715348 0.32526302 -0.16981503 266 47646976 973 20 696 973
1.8724411 0.30179799 -0.16948895 49 47840512 180 20 564 180
1.8730537 0.27835974 -0.16916287 35 48036864 129 20 576 129
1.8763286 0.25535354 -0.16916287 48 48229120 176 20 568 176
1.8704416 0.23121312 -0.16818464 128 48425216 462 20 653 462
1.8761021 0.20857142 -0.16851072 428 48619008 1544 20 685 1544
1.8785204 0.18553306 -0.16851072 401 48814592 1447 20 679 1447
1.8796653 0.16238141 -0.16840202 351 49009408 1266 20 684 1266
1.8825078 0.13937598 -0.16851072 365 49204480 1318 20 680 1318
1.8711778 0.11547094 -0.1670977 65 49399296 233 20 642 233
1.8744396 0.092597693 -0.1673151 53 49594368 191 20 580 191
1.8962961 0.070358202 -0.16959766 218 49786112 796 20 622 796
1.8781351 0.046617676 -0.16753247 404 49981696 1446 20 647 1446
1.8815477 0.023603352 -0.16785856 420 50176256 1507 20 706 1507
1.885672 0.00051234977 -0.16829333 376 50369792 1355 20 693 1355
1.8885183 -0.022664186 -0.16861941 375 50563584 1355 20 699 1355
1.8930669 -0.04595916 -0.16916287 398 50758144 1445 20 705 1445
1.9032878 -0.069588304 -0.17035851 319 50952960 1172 20 705 1172
1.9052691 -0.093085468 -0.17068459 475 51148032 1751 20 682 1751
1.9148977 -0.11712886 -0.17188022 553 51344128 2062 20 698 2062
1.9192644 -0.14105716 -0.17253236 174 51537408 653 20 747 653
2.8434274 -0.24428347 -0.27416068 276 51734272 2280 20 631 2280
2.8372476 -0.2788662 -0.27383459 238 51929600 1962 20 637 1962
2.845468 -0.31497663 -0.27513891 229 52127488 1904 20 666 1904
2.8512547 -0.35108739 -0.27622586 231 52322048 1933 20 693 1933
2.8585522 -0.38765487 -0.27753016 239 52517888 2018 20 619 2018
2.8634131 -0.42416248 -0.27861711 247 52713216 2099 20 645 2099
2.8668253 -0.46068969 -0.27959535 252 52908288 2155 20 622 2155
2.8609562 -0.49583536 -0.27959535 281 53103872 2402 20 643 2402
2.874202 -0.53454417 -0.28176922 313 53300224 2713 20 586 2713
2.8693759 -0.57016259 -0.28198659 321 53495552 2785 20 625 2785
2.8796687 -0.60903609 -0.28394309 325 53692160 2854 20 622 2854
2.8690681 -0.64367497 -0.28361699 778 53886720 6814 20 709 6814
2.8251672 -0.67033821 -0.27959535 176 54082560 1506 20 629 1506
2.7868352 -0.69747108 -0.27622586 147 54277376 1232 20 634 1232
2.671366 -0.70350182 -0.2641609 111 54472192 860 20 679 860
2.4527113 -0.67818034 -0.24035704 282 54667520 1853 20 573 1853
2.8595243 -0.82863885 -0.28763866 263 54863104 2365 20 611 2365
2.8253582 -0.85645467 -0.28492132 272 55059456 2405 20 640 2405
2.7966294 -0.88535875 -0.28285614 243 55255296 2120 20 639 2120
2.7581804 -0.91056991 -0.27970403 236 55451392 2019 20 644 2019
2.725178 -0.93691206 -0.2772041 236 55644160 1987 20 677 1987
2.6863317 -0.96057349 -0.27405199 240 55839488 1980 20 667 1980
2.6575694 -0.98723334 -0.2720955 248 56034560 2020 20 693 2020
2.6211395 -1.0104712 -0.26926947 258 56230400 2065 20 641 2065
2.5900817 -1.0351794 -0.2670956 293 56423680 2311 20 654 2311
2.5468752 -1.0543339 -0.26350874 325 56618240 2503 20 647 2503
2.5026796 -1.0721943 -0.25981316 293 56812544 2203 20 628 2203
2.4666131 -1.0927558 -0.25709581 309 57009408 2279 20 659 2279
2.4349413 -1.1146646 -0.25492194 345 57203200 2509 20 608 2509
2.4201808 -1.1440362 -0.25481325 294 57398528 2137 20 593 2137
2.3934522 -1.1675459 -0.25329155 291 57593856 2092 20 688 2092
0.31176996 -0.15647082 -0.00025336802 601 57790208 74 20 906 74
0.29482535 -0.15250315 0.0015944194 801 57982208 89 20 809 89
0.28679463 -0.1528298 0.0023552731 2126 58177792 228 20 946 228
0.25354478 -0.13908398 0.0062682345 5070 58374912 431 20 1971 431
0.26133353 -0.14757402 0.0050726077 4606 58567936 420 20 1442 420
0.25778511 -0.14976887 0.0052899942 4318 58760704 390 20 1406 390
0.27127606 -0.16211905 0.0033335134 4705 58956800 475 20 1659 475
0.25572464 -0.15709299 0.0050726077 4570 59151872 417 20 1300 417
0.25545737 -0.16128284 0.0048552207 2422 59347456 224 20 1058 224
0.29262376 -0.18988141 -0.00025336802 140 59542016 17 20 613 17
0 -0 -0 5 59736320 0 20 607 0
0.21983723 -0.15033248 0.0087681822 23 59932672 1 20 559 1
2.9578516 -2.0823889 -0.3576372 7 60128000 102 20 554 102
3.2889972 -2.376477 -0.40578836 185 60323584 3091 20 642 3091
3.2867351 -2.4367912 -0.40948394 418 60519168 7093 20 616 7093
3.2945602 -2.5058308 -0.41470122 378 60715520 6563 20 626 6563
3.0934954 -2.4133682 -0.39111474 258 60909568 4027 20 642 4027
3.0000021 -2.4002178 -0.38220191 257 61106176 3847 20 650 3847
3.1877995 -2.6153071 -0.41296211 182 61302016 3139 20 677 3139
3.2939086 -2.7707036 -0.43274432 276 61498368 5185 20 648 5185
3.2912757 -2.8381848 -0.43730944 231 61692928 4427 20 616 4427
3.2606676 -2.8823109 -0.43796161 46 61889536 894 20 582 894
2.2961929 -2.0803492 -0.30089924 13 62083328 132 20 572 132
2.2639356 -2.1022818 -0.29992101 5 62280704 55 20 551 55
2.231487 -2.1237369 -0.29894277 9 62477056 92 20 582 92
0.63632101 -0.62026721 -0.059273873 10 62672640 8 20 595 8
0.62444365 -0.62381196 -0.058621712 21 62867200 17 20 592 17
0.61813009 -0.63285077 -0.058839098 24 63063808 19 20 570 19
0.6212855 -0.65190709 -0.060578194 78 63261184 64 20 592 64
0.60782593 -0.65365595 -0.059708647 117 63457280 94 20 606 94
0.60710269 -0.6691674 -0.060904272 63 63653632 52 20 574 52
0.5711866 -0.64529157 -0.056339152 189 63849472 142 20 587 142
0.57815999 -0.66956395 -0.058839098 110 64047360 87 20 579 87
0.57822073 -0.68649614 -0.060252111 46 64243456 38 20 581 38
2.0537546 -2.5015602 -0.31600764 32 64439296 347 20 533 347
2.0676289 -2.5824518 -0.32383355 73 64633088 816 20 552 816
2.0681994 -2.649163 -0.32959431 118 64829696 1356 20 581 1356
2.0596135 -2.7059867 -0.33394203 121 65024000 1424 20 583 1424
2.0523095 -2.7661877 -0.33872455 157 65219328 1891 20 613 1891
2.3932621 -3.3099821 -0.40872309 235 65415424 3977 20 620 3977
2.3307104 -3.308219 -0.40459272 144 65609984 2397 20 604 2397
2.2792518 -3.3209977 -0.40252757 44 65804544 733 20 563 733
2.2223086 -3.3247488 -0.39937544 15 66000128 253 20 579 253
2.1564028 -3.3134413 -0.39437556 29 66193920 467 20 631 467
2.0990911 -3.3136201 -0.39100605 19 66390016 306 20 572 306
2.0457528 -3.3188188 -0.38839743 18 66584832 287 20 574 287
2.0012939 -3.3377054 -0.38763657 18 66777344 286 20 554 286
1.9556789 -3.3542836 -0.38665831 13 66971648 206 20 619 206
0 -0 -0 33 67166976 0 20 605 0
0 -0 -0 60 67362048 0 20 1992 0
0 -0 -0 2 67555584 0 20 5024 0
0 -0 -0 0 67750656 0 20 4601 0
1.6980349 -3.3720012 -0.37491944 8 67943936 117 20 1646 117
1.6526027 -3.3845448 -0.37394121 11 68140288 160 20 770 160
1.5790637 -3.3371747 -0.3657892 54 68336640 749 20 723 749
1.5392345 -3.3590121 -0.36611527 34 68532480 473 20 754 473
1.475336 -3.3267572 -0.36002845 20 68726784 270 20 783 270
1.3897446 -3.2404559 -0.34763741 7 68922880 98 20 936 98
0 -0 -0 4 69118208 0 20 1494 0
0 -0 -0 1 69315840 0 20 2847 0
0 -0 -0 0 69512960 0 20 4367 0
0 -0 -0 0 69708800 0 20 5237 0
0 -0 -0 0 69904640 0 20 5656 0
0 -0 -0 0 70101248 0 20 5561 0
0 -0 -0 0 70296064 0 20 5183 0
0 -0 -0 3 70491904 0 20 3946 0
0 -0 -0 2 70689024 0 20 2478 0
0 -0 -0 9 70883584 0 20 2105 0
0 -0 -0 2 71079168 0 20 1465 0
0 -0 -0 5 71274752 0 20 1316 0
0 -0 -0 3 71472384 0 20 1363 0
0 -0 -0 3 71666944 0 20 1472 0
0 -0 -0 3 71864064 0 20 1760 0
0 -0 -0 1 72058112 0 20 1963 0
0 -0 -0 2 72252928 0 20 1970 0
0 -0 -0 2 72446464 0 20 1812 0
0 -0 -0 3 72641792 0 20 1581 0
0 -0 -0 5 72833536 0 20 1264 0
0.4954969 -3.3362136 -0.33089861 227 73027328 2614 20 1277 2614
0.4525114 -3.3272676 -0.32926822 114 73221632 1305 20 1545 1305
0.41310763 -3.3444092 -0.33057255 182 73416448 2101 20 1378 2101
0.37148732 -3.3442867 -0.33002907 155 73612544 1776 20 1273 1776
0.3303223 -3.3476043 -0.32992038 218 73807360 2499 20 1584 2499
0.29126567 -3.3751755 -0.33252904 122 74002176 1419 20 1660 1419
0 -0 -0 2 74198528 0 20 2558 0
0.20389235 -3.3088765 -0.32459441 17 74393600 193 20 3241 193
0.16610482 -3.368716 -0.33089861 101 74588672 1174 20 3431 1174
0.12405656 -3.3516262 -0.32883346 143 74786816 1631 20 3722 1631
0.083015457 -3.3568714 -0.32926822 73 74981120 844 20 3859 844
0.041839756 -3.3596253 -0.3294856 120 75174144 1374 20 5016 1374
0.00060948747 -3.3698266 -0.33057255 91 75369728 1047 20 5534 1047
-0.040573642 -3.3556643 -0.32905084 54 75565312 618 20 5901 618
-0.082017384 -3.3658452 -0.33024645 62 75758336 721 20 6043 721
-0.1234614 -3.3685589 -0.33068123 86 75954432 995 20 4902 995
-0.16459467 -3.3628187 -0.33024645 151 76147712 1734 20 2510 1734
