# .PCD v0.7 - Point Cloud Data file format
VERSION 0.7
FIELDS x y z intensity t reflectivity ring noise range
SIZE 4 4 4 4 4 2 2 2 4
TYPE F F F F U U U U U
COUNT 1 1 1 1 1 1 1 1 1
WIDTH 690
HEIGHT 1
VIEWPOINT 0 0 0 1 0 0 0
POINTS 690
DATA ascii
2.2199852 -0.21889994 0.66704839 184 51929600 994 4 572 994
2.2142642 -0.24580725 0.66622704 310 52127488 1668 4 561 1668
2.225399 -0.27473122 0.67033392 292 52322048 1592 4 545 1592
2.230437 -0.30318698 0.67279804 268 52517888 1473 4 561 1473
2.247478 -0.3336457 0.67882144 184 52713216 1031 4 582 1031
2.1827843 0.026552418 0.59972912 356 50176256 1814 5 725 1814
2.1906884 -0.00023789714 0.60174161 423 50369792 2172 5 576 2172
2.1943917 -0.027169602 0.60274786 422 50563584 2175 5 614 2175
2.195828 -0.05414417 0.60325098 400 50758144 2064 5 630 2064
2.1872609 -0.080799095 0.60123849 421 50952960 2157 5 627 2157
2.1919045 -0.10792065 0.60274786 379 51148032 1952 5 596 1952
2.1913812 -0.13487019 0.60299939 219 51344128 1131 5 596 1131
2.2059696 -0.16296668 0.60727596 62 51537408 328 5 532 328
2.2057321 -0.19019169 0.60777909 41 51734272 217 5 610 217
2.2070847 -0.21762563 0.60878533 32 51929600 171 5 578 171
2.2061718 -0.24490747 0.60928845 382 52127488 2014 5 611 2014
2.1953158 -0.27101219 0.60727596 431 52322048 2255 5 598 2255
2.199497 -0.29897588 0.60928845 385 52517888 2029 5 671 2029
2.1985345 -0.32637143 0.61004317 385 52713216 2034 5 655 2034
2.2048743 -0.35502046 0.61281037 184 52908288 981 5 777 981
2.1810679 0.26876739 0.54971081 109 48425216 558 6 663 558
2.1590464 0.23919964 0.54375601 401 48619008 2001 6 598 2001
2.1637566 0.21287708 0.54421407 449 48814592 2245 6 575 2245
2.1710553 0.18672463 0.54535925 421 49009408 2114 6 594 2114
2.1770663 0.16035372 0.54627538 453 49204480 2283 6 527 2283
2.1749837 0.13338803 0.54535925 377 49399296 1893 6 633 1893
2.1706233 0.10640267 0.54398507 414 49594368 2068 6 583 2068
2.1766295 0.079935528 0.54513019 459 49786112 2303 6 561 2303
2.1677153 0.052982789 0.54283988 384 49981696 1910 6 612 1910
2.1604154 0.026284242 0.54100764 42 50176256 210 6 586 210
2.1596019 -0.00022908048 0.54077864 28 50369792 141 6 520 141
2.1623564 -0.026767364 0.5414657 56 50563584 280 6 500 280
2.1754887 -0.053639099 0.54467213 214 50758144 1073 6 581 1073
2.1736941 -0.080295548 0.54444313 424 50952960 2122 6 564 2122
2.1706007 -0.10686799 0.54398507 409 51148032 2043 6 563 2043
2.1671824 -0.13337663 0.54352701 400 51344128 1994 6 572 1994
2.1702363 -0.16032067 0.54467213 76 51537408 383 6 524 383
2.1671357 -0.18685694 0.54444313 38 51734272 193 6 528 193
2.1656482 -0.21353264 0.54467213 49 51929600 248 6 539 248
2.184149 -0.24245888 0.54971081 149 52127488 764 6 511 764
2.16362 -0.26709372 0.54558825 78 52322048 395 6 539 395
2.1572857 -0.29323074 0.54490119 36 52517888 183 6 560 183
2.1554506 -0.31996807 0.54535925 44 52713216 223 6 573 223
2.1811533 -0.35119683 0.55245918 269 52908288 1390 6 568 1390
2.1373546 0.45263258 0.49299601 490 47059968 2444 7 839 2444
2.1379495 0.42541587 0.49196586 510 47256576 2535 7 724 2535
2.1420469 0.39896891 0.49175981 512 47450112 2541 7 758 2541
2.143889 0.37215108 0.49114171 523 47646976 2589 7 729 2589
2.1463623 0.34550354 0.49072966 437 47840512 2159 7 743 2159
2.1320491 0.3164123 0.48681501 331 48036864 1608 7 750 1608
2.1512859 0.29233035 0.49011156 487 48229120 2399 7 794 2399
2.1517978 0.26554972 0.48949346 497 48425216 2441 7 783 2441
2.1519766 0.23880062 0.48887536 517 48619008 2535 7 718 2535
2.1401372 0.21093746 0.48578486 82 48814592 398 7 691 398
2.1464646 0.18499419 0.48660898 63 49009408 307 7 695 307
2.1505249 0.1587836 0.48702106 48 49204480 235 7 695 235
2.1581717 0.1327408 0.48825726 134 49399296 656 7 693 656
2.1440001 0.10548017 0.48496071 463 49594368 2229 7 814 2229
2.146111 0.079197966 0.48516676 475 49786112 2291 7 787 2291
2.1478996 0.052879825 0.48537278 487 49981696 2350 7 765 2350
2.1562145 0.026613023 0.48702106 293 50176256 1425 7 805 1425
2.1593144 0.00015063035 0.48763916 258 50369792 1259 7 665 1259
2.1444767 -0.026165765 0.48454866 473 50563584 2275 7 769 2275
2.1439941 -0.052479822 0.48454866 471 50758144 2266 7 757 2266
2.1431885 -0.078785971 0.48454866 113 50952960 544 7 736 544
2.1508565 -0.10551336 0.48640296 53 51148032 259 7 659 259
2.1493998 -0.13189973 0.48640296 64 51344128 312 7 701 312
2.1476192 -0.15826625 0.48640296 42 51537408 205 7 689 205
2.1601393 -0.18586986 0.48949346 479 51734272 2354 7 804 2354
2.1606174 -0.21265216 0.49011156 516 51929600 2541 7 834 2541
2.157845 -0.23915024 0.49011156 496 52127488 2443 7 765 2443
2.1411514 -0.26393384 0.48722708 300 52322048 1460 7 773 1460
2.1707187 -0.29467037 0.49423221 61 52517888 307 7 695 307
2.1717789 -0.32200468 0.49526238 50 52713216 253 7 738 253
2.1589689 -0.34723151 0.49340808 66 52908288 331 7 681 331
2.1535811 -0.37353182 0.49320206 463 53103872 2311 7 775 2311
2.1282065 0.6743623 0.44831744 169 45496320 873 8 737 873
2.0996282 0.63706869 0.44119018 444 45689856 2214 8 665 2214
2.104455 0.61043388 0.44064194 495 45885696 2464 8 624 2464
2.1117876 0.58456302 0.44064194 493 46082048 2452 8 625 2452
2.1140485 0.55735177 0.4397282 433 46276352 2145 8 644 2145
2.116914 0.53041202 0.43899718 146 46472448 722 8 617 722
2.1070018 0.50053424 0.43589044 221 46668032 1076 8 590 1076
2.1197004 0.47614756 0.43716967 483 46864640 2362 8 613 2362
2.1244221 0.44989619 0.43698692 475 47059968 2321 8 635 2321
2.1297829 0.42379239 0.43698692 494 47256576 2414 8 638 2414
2.1135588 0.39366803 0.43296641 126 47450112 605 8 587 605
2.1143556 0.36702985 0.43223542 54 47646976 260 8 616 260
2.1157885 0.34058759 0.43168718 53 47840512 254 8 600 254
2.1207812 0.31474212 0.43186992 65 48036864 312 8 583 312
2.1186385 0.28789994 0.43077341 414 48229120 1962 8 681 1962
2.1220119 0.2618793 0.43077341 458 48425216 2170 8 702 2170
2.1201799 0.23527794 0.42985967 422 48619008 1990 8 690 1990
2.1366055 0.21058999 0.43241817 305 48814592 1457 8 632 1457
2.1116016 0.18199582 0.42730117 472 49009408 2196 8 687 2196
2.1156371 0.15621395 0.42766666 452 49204480 2108 8 681 2108
2.1232827 0.13060115 0.42876315 421 49399296 1974 8 693 1974
2.1394551 0.10525739 0.43150443 176 49594368 839 8 553 839
2.1268308 0.078489937 0.42894593 46 49786112 218 8 566 218
2.1237023 0.052288458 0.42821491 43 49981696 203 8 579 203
2.1320488 0.026319087 0.42967692 73 50176256 347 8 542 347
2.1174638 0.00015519554 0.42693567 406 50369792 1886 8 711 1886
2.1232047 -0.025902387 0.42803216 442 50563584 2064 8 703 2064
2.1227272 -0.051955424 0.42803216 430 50758144 2008 8 668 2008
2.1219296 -0.078000642 0.42803216 429 50952960 2003 8 698 2003
2.142416 -0.10509777 0.43205267 56 51148032 270 8 564 270
2.1144698 -0.12974994 0.42711842 128 51344128 597 8 645 597
2.1186013 -0.15612255 0.42821491 409 51537408 1912 8 710 1912
2.124362 -0.18278497 0.42967692 321 51734272 1513 8 628 1513
2.1248944 -0.20912981 0.43022516 56 51929600 267 8 576 267
2.1192365 -0.23486437 0.42967692 51 52127488 243 8 578 243
2.1152191 -0.26073253 0.42949417 45 52322048 214 8 590 214
2.1293957 -0.28905344 0.43278366 353 52517888 1690 8 605 1690
2.1276333 -0.31545138 0.43314916 494 52713216 2368 8 657 2368
2.1255434 -0.34184954 0.43351468 490 52908288 2354 8 638 2354
2.1240942 -0.36841205 0.43406293 472 53103872 2272 8 629 2272
2.1213465 -0.39481035 0.43442842 429 53300224 2070 8 605 2070
2.0991428 0.80945575 0.39607242 211 44516864 1097 9 788 1097
2.0885568 0.77607322 0.39257398 424 44712192 2164 9 640 2164
2.0951343 0.74938792 0.39209691 395 44908032 2010 9 701 2010
2.0770962 0.7143147 0.38748536 78 45103872 388 9 657 388
2.0838306 0.68815291 0.3871673 82 45298432 408 9 617 408
2.0902357 0.66193348 0.38684925 502 45496320 2480 9 703 2480
2.0953667 0.63537431 0.38637221 523 45689856 2574 9 707 2574
2.1001611 0.60878897 0.38589513 491 45885696 2411 9 703 2411
2.1017642 0.58139259 0.38494101 245 46082048 1199 9 614 1199
2.088691 0.55027854 0.3816016 61 46276352 295 9 567 295
2.0952864 0.52460569 0.3816016 59 46472448 285 9 600 285
2.1006057 0.49862593 0.38144261 51 46668032 246 9 595 246
2.0969331 0.47065035 0.37985238 493 46864640 2338 9 766 2338
2.1015849 0.4446781 0.37969339 543 47059968 2572 9 730 2572
2.0913897 0.41577759 0.37714908 203 47256576 949 9 676 949
2.0943933 0.38972086 0.37683102 169 47450112 790 9 623 790
2.0941541 0.36314753 0.37603593 493 47646976 2287 9 794 2287
2.0916293 0.33632576 0.37492278 484 47840512 2231 9 786 2231
2.0916924 0.3100546 0.37428671 491 48036864 2254 9 775 2254
2.108058 0.28608665 0.37635395 249 48229120 1159 9 673 1159
2.095732 0.25826678 0.37380964 55 48425216 254 9 601 254
2.0987434 0.23252948 0.37380964 41 48619008 189 9 674 189
2.101439 0.20675716 0.37380964 47 48814592 217 9 663 217
2.1067688 0.18120699 0.37428671 408 49009408 1873 9 783 1873
2.1048954 0.15505065 0.37365064 475 49204480 2173 9 744 2173
2.1056542 0.12914841 0.37349162 502 49399296 2293 9 788 2293
2.1051083 0.10320274 0.37317356 452 49594368 2062 9 763 2062
2.1101627 0.077506289 0.37380964 307 49786112 1406 9 684 1406
2.1000981 0.05134207 0.37206042 453 49981696 2053 9 771 2053
2.0976083 0.025531262 0.37158337 546 50176256 2467 9 747 2467
2.1105983 -0.00021518231 0.37365064 409 50369792 1871 9 775 1871
2.0976033 -0.025954315 0.37158337 81 50563584 368 9 644 368
2.0991008 -0.051742196 0.37190142 55 50758144 250 9 700 250
2.0992944 -0.077534117 0.37206042 48 50952960 220 9 603 220
2.102129 -0.10348474 0.37269652 210 51148032 956 9 687 956
2.1056278 -0.1295774 0.37349162 443 51344128 2024 9 787 2024
2.0999408 -0.15511531 0.37285554 489 51537408 2226 9 772 2226
2.0988629 -0.18095812 0.37301454 484 51734272 2205 9 772 2205
2.1239941 -0.20941813 0.3774671 182 51929600 853 9 647 853
2.1143956 -0.23470335 0.37635395 48 52127488 224 9 674 224
2.1123362 -0.26075369 0.37651297 53 52322048 249 9 614 249
2.1040859 -0.28598994 0.37571788 226 52517888 1047 9 702 1047
2.1092069 -0.31309503 0.37714908 72 52713216 338 9 646 338
2.1061807 -0.3391118 0.37730807 60 52908288 282 9 606 282
2.1018605 -0.36493233 0.37730807 52 53103872 245 9 606 245
2.1146939 -0.39395568 0.38017043 166 53300224 790 9 683 790
2.116478 -0.42122674 0.38128358 320 53495552 1532 9 682 1532
2.0699997 0.76918131 0.33616218 377 44712192 1876 10 711 1876
2.0718191 0.74105316 0.33507785 64 44908032 317 10 677 317
2.0732613 0.7129966 0.33399349 49 45103872 242 10 682 242
2.0771503 0.68594825 0.33331579 57 45298432 280 10 684 280
2.0693536 0.65532458 0.33101156 494 45496320 2374 10 730 2374
2.0734468 0.62873173 0.3304694 407 45689856 1947 10 783 1947
2.0781512 0.602413 0.33006278 67 45885696 322 10 656 322
2.0653331 0.5713219 0.32721636 160 46082048 750 10 691 750
2.0702724 0.54542959 0.32694528 502 46276352 2346 10 773 2346
2.0729651 0.51902121 0.32640311 498 46472448 2318 10 782 2318
2.0753222 0.49262908 0.32586095 512 46668032 2374 10 822 2374
2.0705769 0.46473971 0.32436997 225 46864640 1034 10 716 1034
2.064492 0.43683645 0.32274348 62 47059968 283 10 666 283
2.0726125 0.41204813 0.3231501 65 47256576 297 10 680 297
2.0794611 0.3869451 0.32342118 68 47450112 312 10 647 312
2.0762432 0.36004493 0.32233682 489 47646976 2213 10 800 2213
2.0814834 0.33469623 0.32247236 581 47840512 2633 10 731 2633
2.0824935 0.30869272 0.32206574 555 48036864 2508 10 786 2508
2.075325 0.28165042 0.32057479 184 48229120 824 10 669 824
2.0796084 0.25628278 0.32071033 605 48425216 2709 10 756 2709
2.0786579 0.23030779 0.32016814 565 48619008 2519 10 779 2519
2.0793555 0.20458846 0.31989706 576 48814592 2563 10 702 2563
2.0856581 0.17939506 0.32043925 421 49009408 1881 10 768 1881
2.0867143 0.15371472 0.32030371 78 49204480 349 10 689 349
2.0884435 0.12809594 0.32030371 53 49399296 238 10 696 238
2.0908477 0.10250622 0.32043925 49 49594368 220 10 692 220
2.0582845 0.075610235 0.3158308 248 49786112 1073 10 681 1073
2.0709431 0.050634626 0.31745729 601 49981696 2630 10 835 2630
2.07339 0.025240911 0.31772837 618 50176256 2709 10 768 2709
2.0745344 -0.00020495399 0.31786394 607 50369792 2664 10 792 2664
2.0694222 -0.025600471 0.31718621 282 50563584 1232 10 703 1232
2.0768759 -0.051190302 0.31827056 200 50758144 881 10 688 881
2.0731211 -0.076562665 0.31786394 484 50952960 2124 10 785 2124
2.0720255 -0.10199729 0.31786394 490 51148032 2149 10 769 2149
2.0834732 -0.12821001 0.31962597 157 51344128 699 10 629 699
2.079767 -0.15362144 0.31935489 48 51537408 214 10 664 214
2.0796993 -0.17930238 0.31962597 54 51734272 241 10 688 241
2.0743845 -0.20451781 0.31921935 55 51929600 244 10 725 244
2.0874739 -0.23171005 0.32138804 568 52127488 2554 10 810 2554
2.0844731 -0.25730911 0.32138804 553 52322048 2486 10 798 2486
2.0821404 -0.28300306 0.32152358 553 52517888 2490 10 806 2490
2.0853708 -0.3095524 0.32247236 454 52713216 2057 10 809 2057
2.0823932 -0.33527747 0.3226079 88 52908288 401 10 653 401
2.0839789 -0.36182436 0.32342118 53 53103872 243 10 682 243
2.0813298 -0.387734 0.32369226 56 53300224 257 10 672 257
2.0822451 -0.41440731 0.32450551 321 53495552 1476 10 732 1476
2.0954182 -0.44383249 0.32708082 202 53692160 946 10 718 946
2.0372183 0.7570067 0.2778241 479 44712192 2294 11 625 2294
2.0426114 0.7306118 0.27737892 471 44908032 2248 11 630 2248
2.0457842 0.70355266 0.27671114 477 45103872 2263 11 662 2263
2.0486016 0.67652595 0.27604336 515 45298432 2431 11 690 2431
2.0529594 0.65013611 0.27559817 269 45496320 1266 11 557 1266
2.0389082 0.61826527 0.27303839 69 45689856 321 11 503 321
2.0434783 0.59236866 0.27270451 61 45885696 282 11 546 282
2.0505936 0.56724739 0.27270451 54 46082048 251 11 512 251
2.0535562 0.54102874 0.27225932 470 46276352 2148 11 708 2148
2.0552204 0.51458168 0.27170283 538 46472448 2449 11 690 2449
2.0594463 0.48886356 0.27148023 198 46668032 901 11 566 901
2.0400782 0.45790008 0.26858658 89 46864640 397 11 501 397
2.0542943 0.43468064 0.26958823 524 47059968 2342 11 609 2342
2.0555749 0.40866414 0.26914304 553 47256576 2463 11 645 2463
2.059458 0.38322669 0.26903173 573 47450112 2550 11 637 2550
2.0669434 0.35843399 0.26936564 383 47646976 1710 11 601 1710
2.0545056 0.33036333 0.26747361 62 47840512 275 11 495 275
2.0593882 0.30527204 0.26758492 71 48036864 315 11 526 315
2.0610096 0.27971026 0.26736233 62 48229120 274 11 542 274
2.0544233 0.25318375 0.26624936 353 48425216 1535 11 572 1535
2.0613267 0.22839078 0.26669455 557 48619008 2429 11 562 2429
2.0629852 0.20298082 0.26658323 555 48814592 2418 11 562 2418
2.0633404 0.17747955 0.26636064 553 49009408 2404 11 630 2404
2.0524786 0.15119909 0.26491383 357 49204480 1534 11 571 1534
2.0521955 0.12587932 0.26469123 530 49399296 2271 11 582 2271
2.0545783 0.10073473 0.26480252 489 49594368 2099 11 558 2099
2.0467217 0.075187631 0.26380086 574 49786112 2442 11 579 2442
2.0623927 0.05042715 0.2654703 131 49981696 568 11 495 568
2.0529189 0.024995489 0.26435733 54 50176256 234 11 513 234
2.0500898 -0.00019802112 0.26402345 70 50369792 301 11 501 301
2.0509267 -0.02536824 0.26413473 63 50563584 271 11 548 271
2.054435 -0.050633036 0.26457992 488 50758144 2090 11 555 2090
2.054652 -0.07587716 0.26469123 518 50952960 2222 11 573 2222
2.0555513 -0.10118327 0.26491383 507 51148032 2177 11 598 2177
2.0541549 -0.12640043 0.26491383 482 51344128 2070 11 598 2070
2.0504668 -0.15145178 0.26469123 62 51537408 268 11 527 268
2.0425134 -0.17608948 0.26402345 51 51734272 220 11 533 220
2.0530553 -0.20241097 0.2654703 141 51929600 611 11 517 611
2.0583184 -0.2284684 0.26636064 425 52127488 1850 11 588 1850
2.0445108 -0.25236872 0.26513639 48 52322048 209 11 565 209
2.0451987 -0.27797508 0.26558158 69 52517888 301 11 511 301
2.0475314 -0.30392849 0.26624936 54 52713216 237 11 511 237
2.0711191 -0.33346015 0.26936564 317 52908288 1416 11 539 1416
2.0668709 -0.35885084 0.26936564 544 53103872 2428 11 622 2428
2.0662196 -0.38491625 0.26981083 536 53300224 2400 11 669 2400
2.0632896 -0.41063124 0.27003342 565 53495552 2536 11 640 2536
2.0610118 -0.43653837 0.27036729 537 53692160 2416 11 626 2416
2.1282179 -0.4781484 0.27871445 79 53886720 383 11 564 383
2.0244458 0.75226319 0.22375606 360 44712192 1696 12 979 1696
2.0260203 0.72468078 0.22305882 477 44908032 2229 12 979 2229
2.0281661 0.69749719 0.22244874 321 45103872 1492 12 945 1492
2.0100846 0.66381377 0.22000837 67 45298432 303 12 830 303
2.0199788 0.63969815 0.22018269 94 45496320 429 12 898 429
2.0286303 0.61515063 0.22026984 556 45689856 2520 12 1038 2520
2.0321989 0.58910114 0.21992122 571 45885696 2579 12 1030 2579
2.0363944 0.56332231 0.21965975 512 46082048 2307 12 944 2307
2.038337 0.53702205 0.21922396 295 46276352 1325 12 965 1325
2.0196471 0.50568181 0.21695791 62 46472448 274 12 899 274
2.0198846 0.47948012 0.21643499 69 46668032 300 12 832 300
2.0227003 0.45400295 0.21617351 67 46864640 294 12 860 294
2.0378659 0.43120757 0.21704507 525 47059968 2300 12 899 2300
2.042027 0.40597329 0.21695791 596 47256576 2608 12 964 2608
2.0429375 0.38015565 0.2166093 586 47450112 2553 12 987 2553
2.0297804 0.35199645 0.21504049 366 47646976 1569 12 969 1569
2.0378814 0.32769331 0.21538912 590 47840512 2538 12 931 2538
2.0358365 0.30178535 0.21486618 638 48036864 2728 12 952 2728
2.0354378 0.27624461 0.21451756 654 48229120 2784 12 970 2784
2.0357084 0.25088087 0.21425609 627 48425216 2662 12 922 2662
2.0307126 0.22500452 0.21355884 68 48619008 289 12 904 289
2.0323293 0.19997026 0.2134717 56 48814592 235 12 845 235
2.0336378 0.1749302 0.21338454 62 49009408 264 12 900 264
2.0247025 0.14915814 0.21242581 127 49204480 531 12 880 531
2.0323465 0.12466552 0.21294875 621 49399296 2600 12 933 2600
2.0337234 0.099716119 0.21294875 549 49594368 2299 12 885 2299
2.0357895 0.074788079 0.21303591 537 49786112 2251 12 891 2251
2.0325704 0.049703516 0.21268728 455 49981696 1899 12 896 1899
2.0629108 0.025115279 0.21530196 99 50176256 429 12 880 429
2.0331779 -0.00019322464 0.21268728 323 50369792 1350 12 873 1350
2.0260496 -0.02505588 0.2120772 584 50563584 2420 12 956 2420
2.0355484 -0.05016404 0.21294875 415 50758144 1739 12 900 1739
2.0417483 -0.075398222 0.21355884 87 50952960 366 12 825 366
2.042659 -0.10054626 0.21373315 57 51148032 240 12 844 240
2.0452487 -0.12585074 0.21408178 46 51344128 198 12 878 198
2.0365961 -0.15042464 0.2134717 213 51537408 900 12 869 900
2.0465066 -0.17643452 0.21451756 550 51734272 2339 12 845 2339
2.0412133 -0.20124124 0.21425609 610 51929600 2592 12 927 2592
2.0445306 -0.22693542 0.21477902 589 52127488 2515 12 936 2515
2.0277505 -0.25029671 0.21355884 306 52322048 1288 12 839 1288
2.0255134 -0.27529582 0.21364599 75 52517888 316 12 815 316
2.0249386 -0.30057061 0.21390747 71 52713216 300 12 821 300
2.0250318 -0.32603124 0.21425609 69 52908288 296 12 882 296
2.0434525 -0.3547805 0.21626067 424 53103872 1842 12 929 1842
2.0350275 -0.37909961 0.21591204 187 53300224 811 12 891 811
2.074187 -0.4128021 0.21983406 41 53495552 185 12 818 185
2.0494745 -0.43409249 0.21809094 57 53692160 252 12 820 252
2.0507967 -0.46073982 0.21870103 576 53886720 2568 12 953 2568
1.6641972 0.99728692 0.1572523 16 41787648 63 13 458 63
2.0062795 0.71762365 0.16924529 271 44908032 1238 13 562 1238
2.0036087 0.68905663 0.16849181 63 45103872 288 13 484 288
2.0119135 0.66441739 0.16849181 55 45298432 251 13 502 251
2.0142064 0.63787127 0.16811506 59 45496320 267 13 546 267
2.0075555 0.60876417 0.16717321 508 45689856 2248 13 595 2248
2.0091231 0.58241636 0.16679646 645 45885696 2837 13 625 2837
1.9843745 0.54894233 0.16472438 352 46082048 1501 13 545 1501
2.000613 0.52709055 0.16535228 114 46276352 493 13 463 493
2.0001531 0.50080472 0.16491275 699 46472448 2987 13 601 2987
2.0071194 0.47645235 0.16497554 573 46668032 2453 13 604 2453
2.0069718 0.45047569 0.16459879 681 46864640 2898 13 559 2898
2.0025845 0.42374888 0.16397089 477 47059968 2010 13 543 2010
2.0037181 0.39836445 0.16371973 85 47256576 360 13 489 360
2.0045309 0.37301618 0.16346857 103 47450112 433 13 519 433
2.0089574 0.34838939 0.16346857 94 47646976 395 13 532 395
1.9864756 0.319437 0.16177322 321 47840512 1308 13 513 1308
2.012953 0.29839754 0.1632174 579 48036864 2410 13 593 2410
2.0144854 0.27340499 0.16309182 670 48229120 2783 13 622 2783
2.0157077 0.24841978 0.16296624 661 48425216 2742 13 573 2742
1.9977729 0.22136104 0.16164763 314 48619008 1277 13 557 1277
2.0202038 0.19877948 0.16290344 421 48814592 1746 13 520 1746
2.011553 0.1730347 0.16221276 548 49009408 2247 13 574 2247
2.0055623 0.14775172 0.16171043 628 49204480 2553 13 586 2553
1.9972627 0.12252008 0.16108252 289 49399296 1165 13 501 1165
2.0075874 0.098439567 0.16164763 73 49594368 299 13 503 299
2.0016627 0.073540807 0.16120811 59 49786112 241 13 487 241
2.0093985 0.049141258 0.16164763 63 49981696 259 13 467 259
2.0068564 0.024443254 0.16145927 475 50176256 1925 13 557 1925
2.0159874 -0.00018834915 0.16202438 651 50369792 2658 13 587 2658
2.0148354 -0.024915073 0.16196159 674 50563584 2751 13 555 2751
2.0113847 -0.049564 0.16177322 608 50758144 2476 13 579 2476
1.9916756 -0.073539719 0.1605802 211 50952960 845 13 486 845
2.0294988 -0.099895999 0.16302903 71 51148032 297 13 495 297
2.0221434 -0.12442465 0.16265228 59 51344128 246 13 479 246
2.0085206 -0.14834568 0.16189881 139 51537408 569 13 514 569
2.0105262 -0.17332578 0.16214997 162 51734272 666 13 488 666
2.0171866 -0.19886793 0.16271508 73 51929600 304 13 476 304
2.01757 -0.22393779 0.16290344 62 52127488 260 13 485 260
2.020613 -0.24941432 0.16328019 88 52322048 369 13 484 369
2.030256 -0.27594131 0.16409647 577 52517888 2434 13 579 2434
2.0286913 -0.30112833 0.16422205 659 52713216 2788 13 557 2788
2.0268137 -0.32631847 0.16434763 686 52908288 2907 13 537 2907
2.0206902 -0.35082424 0.16422205 702 53103872 2967 13 585 2967
2.0064218 -0.3737652 0.16359414 111 53300224 467 13 533 467
2.0173447 -0.40147868 0.16459879 72 53495552 309 13 518 309
2.0132422 -0.42641136 0.16466159 68 53692160 292 13 511 292
2.0137002 -0.45239848 0.16503833 145 53886720 624 13 487 624
2.0147936 -0.47869176 0.16547786 480 54082560 2070 13 621 2070
1.9861021 0.71080446 0.11587908 470 44908032 2095 14 843 2095
1.9871156 0.68377864 0.11557477 512 45103872 2270 14 868 2270
1.9820727 0.65495527 0.11504222 567 45298432 2476 14 773 2476
1.9890081 0.63028121 0.11500418 610 45496320 2660 14 807 2660
1.9688607 0.5974164 0.11390106 331 45689856 1405 14 720 1405
1.9722047 0.5720976 0.1137489 64 45885696 271 14 749 271
1.9790767 0.54785258 0.1137489 64 46082048 271 14 715 271
1.9827517 0.52276123 0.11363478 64 46276352 270 14 762 270
1.9841708 0.49717698 0.11344458 488 46472448 2046 14 785 2046
1.9901224 0.47279072 0.11344458 576 46668032 2415 14 822 2415
1.9947995 0.44811442 0.11340655 599 46864640 2507 14 829 2507
1.9942825 0.4223603 0.11317831 652 47059968 2714 14 789 2714
1.9914746 0.39629683 0.112874 437 47256576 1805 14 819 1805
1.9922582 0.37109733 0.11272185 600 47450112 2468 14 758 2468
1.9937084 0.34610912 0.11260772 600 47646976 2464 14 859 2464
1.9958323 0.32129994 0.11253165 615 47840512 2518 14 787 2518
1.9927056 0.29575819 0.11226538 94 48036864 383 14 751 383
1.9922241 0.27074486 0.11211322 74 48229120 300 14 740 300
1.9963883 0.24639903 0.11215126 79 48425216 321 14 710 321
1.9933025 0.22122151 0.11192302 69 48619008 279 14 718 279
1.9829389 0.19547208 0.11142852 566 48814592 2251 14 817 2251
1.986184 0.17120928 0.11146656 563 49009408 2241 14 779 2241
1.9881355 0.14682285 0.11146656 626 49204480 2493 14 823 2493
1.9897875 0.12241431 0.11146656 549 49399296 2185 14 791 2185
2.0021186 0.098525502 0.11188499 79 49594368 319 14 713 319
2.0051742 0.074022345 0.11196107 72 49786112 291 14 725 291
1.9779602 0.048726596 0.11089597 198 49981696 777 14 737 777
1.9784092 0.024450313 0.11089597 573 50176256 2248 14 808 2248
1.9965472 0.00016838549 0.11158068 86 50369792 344 14 714 344
1.9983974 -0.024357077 0.11165676 97 50563584 389 14 736 389
1.9879583 -0.048632327 0.11127636 72 50758144 286 14 701 286
1.9832175 -0.072876416 0.1111242 68 50952960 269 14 775 269
1.9971448 -0.097945169 0.11169479 556 51148032 2228 14 761 2228
1.9947951 -0.12238445 0.11165676 576 51344128 2305 14 771 2305
1.9911499 -0.14670719 0.11158068 614 51537408 2451 14 780 2451
1.986213 -0.17087309 0.11146656 535 51734272 2129 14 856 2129
1.9929166 -0.19611661 0.11180891 78 51929600 313 14 781 313
1.9893667 -0.22044773 0.11177087 57 52127488 230 14 722 230
1.9875034 -0.24496616 0.11180891 60 52322048 242 14 725 242
1.9843476 -0.26933745 0.11180891 89 52517888 358 14 738 358
2.007581 -0.29762992 0.11283596 613 52713216 2528 14 839 2528
1.9692476 -0.31668383 0.1115046 346 52908288 1379 14 775 1379
1.9799813 -0.34338987 0.11207518 90 53103872 364 14 775 364
2.027684 -0.37736121 0.11409125 177 53300224 755 14 744 755
2.0052595 -0.39870459 0.11340655 681 53495552 2853 14 774 2853
2.0041263 -0.42411047 0.1135587 657 53692160 2762 14 830 2762
2.0046208 -0.44998652 0.11378694 591 53886720 2500 14 742 2500
1.9989477 -0.47455242 0.11378694 681 54082560 2881 14 736 2881
2.0007281 -0.50099015 0.11409125 376 54277376 1603 14 805 1603
1.9647653 0.70317268 0.064736925 449 44908032 1957 15 718 1957
1.9647365 0.67608243 0.064612836 535 45103872 2312 15 644 2312
1.9662387 0.64972633 0.064516328 580 45298432 2490 15 642 2490
1.9645313 0.62252992 0.064378448 614 45496320 2611 15 635 2611
1.9595834 0.59460324 0.064199209 286 45689856 1201 15 631 1201
1.9561684 0.56744909 0.064047545 546 45885696 2268 15 651 2268
1.9620209 0.54313457 0.064033754 646 46082048 2679 15 665 2679
1.9695052 0.51927143 0.064047545 583 46276352 2422 15 673 2422
1.9572998 0.49044928 0.063785575 404 46472448 1648 15 630 1648
1.963171 0.46639326 0.063785575 74 46668032 303 15 651 303
1.9667952 0.44182906 0.063758001 68 46864640 279 15 571 279
1.972069 0.41766021 0.063758001 84 47059968 343 15 649 343
1.9672388 0.39147878 0.063620128 345 47256576 1390 15 643 1390
1.9689456 0.36675951 0.063578762 618 47450112 2481 15 667 2481
1.9703424 0.34205738 0.063537404 626 47646976 2507 15 680 2507
1.9734044 0.31769377 0.063523613 578 47840512 2312 15 664 2312
1.9662744 0.29184043 0.063371949 293 48036864 1160 15 626 1160
1.9548453 0.26567236 0.063165136 76 48229120 298 15 583 298
1.9787986 0.24423149 0.063454673 203 48425216 809 15 623 809
1.962764 0.21783824 0.06319271 608 48619008 2373 15 687 2373
1.9722552 0.19442099 0.063289225 274 48814592 1079 15 653 1079
1.9595492 0.16891855 0.063082404 70 49009408 273 15 577 273
1.9574857 0.14456534 0.063027255 65 49204480 252 15 614 252
1.9581143 0.12047189 0.063013472 63 49399296 245 15 593 245
1.9624413 0.096580617 0.06305483 306 49594368 1184 15 657 1184
1.9714726 0.072784729 0.063165136 603 49786112 2349 15 688 2349
1.9712178 0.048561815 0.063151345 581 49981696 2261 15 688 2261
1.9726651 0.024380445 0.063165136 644 50176256 2508 15 720 2508
1.9708159 0.00017119234 0.063137561 355 50369792 1381 15 684 1381
1.9716694 -0.024026142 0.063151345 81 50563584 317 15 581 317
1.9742249 -0.048293695 0.06319271 71 50758144 279 15 547 279
1.9744829 -0.072553746 0.063206494 69 50952960 272 15 562 272
1.9704478 -0.096630707 0.063165136 260 51148032 1014 15 647 1014
1.9711096 -0.12092671 0.06319271 385 51344128 1504 15 656 1504
1.9754604 -0.14554815 0.063275434 76 51537408 300 15 581 300
1.9755179 -0.16995092 0.063303009 60 51734272 238 15 549 238
1.9762689 -0.19447511 0.063344374 284 51929600 1122 15 668 1122
1.9747273 -0.21882266 0.063358158 635 52127488 2509 15 701 2509
1.9748704 -0.24340664 0.063399523 641 52322048 2541 15 664 2541
1.9737164 -0.26789236 0.063427098 631 52517888 2506 15 686 2506
1.9742366 -0.29268003 0.063482247 419 52713216 1671 15 646 1671
1.9704963 -0.31688491 0.063482247 73 52908288 293 15 587 293
1.9684296 -0.34138417 0.063509822 63 53103872 253 15 606 253
1.967041 -0.36606351 0.063551188 77 53300224 310 15 662 310
1.9790721 -0.39349261 0.063785575 356 53495552 1452 15 619 1452
1.9877892 -0.42065001 0.063978605 679 53692160 2806 15 689 2806
1.9893066 -0.44654587 0.06407512 691 53886720 2874 15 681 2874
1.9856226 -0.4713864 0.064102694 619 54082560 2581 15 673 2581
1.9835682 -0.4966898 0.064157844 586 54277376 2454 15 689 2454
1.935521 0.69309646 0.013391288 315 44908032 1334 16 612 1334
1.9334798 0.66571361 0.013514156 259 45103872 1087 16 481 1087
1.9158685 0.63346612 0.013815744 66 45298432 272 16 478 272
1.924451 0.61020982 0.013804574 70 45496320 289 16 446 289
1.9356219 0.58770925 0.013759894 70 45689856 286 16 412 286
1.9311639 0.56056917 0.013893932 516 45885696 2091 16 503 2091
1.933079 0.5354948 0.013949782 573 46082048 2311 16 500 2311
1.9366041 0.51096785 0.013983292 567 46276352 2278 16 538 2278
1.936909 0.48570612 0.01405031 519 46472448 2073 16 523 2073
1.9252119 0.45774075 0.014251368 75 46668032 297 16 502 297
1.9306841 0.43408099 0.014251368 252 46864640 990 16 450 990
1.941735 0.4115988 0.014184349 605 47059968 2387 16 537 2387
1.9446784 0.38734946 0.014206689 586 47256576 2308 16 582 2308
1.9492853 0.3634561 0.014206689 93 47450112 369 16 491 369
1.9526135 0.33933699 0.014217859 81 47646976 321 16 480 321
1.9546562 0.31503204 0.014240199 63 47840512 250 16 464 250
1.9593641 0.29116845 0.014229028 117 48036864 462 16 464 462
1.9409913 0.2641401 0.014474766 587 48229120 2256 16 607 2256
1.9421017 0.24005634 0.014497106 599 48425216 2297 16 542 2297
1.9429137 0.21598512 0.014519446 564 48619008 2158 16 572 2158
1.9444227 0.19202824 0.014530616 548 48814592 2095 16 586 2095
1.9356741 0.1672083 0.014653484 95 49009408 362 16 450 362
1.9296025 0.14285301 0.014742843 54 49204480 205 16 465 205
1.9352024 0.11940859 0.014698164 67 49399296 255 16 505 255
1.9375207 0.095700808 0.014686993 70 49594368 266 16 472 266
1.9565359 0.072580911 0.014485936 345 49786112 1326 16 506 1326
1.9412851 0.048172057 0.014664654 93 49981696 354 16 500 354
1.9457295 0.024395222 0.014619974 67 50176256 257 16 463 257
1.9498821 0.00051655236 0.014575295 94 50369792 360 16 494 360
1.9517413 -0.02343595 0.014552956 562 50563584 2144 16 540 2144
1.9523064 -0.047409527 0.014541785 594 50758144 2269 16 568 2269
1.9525769 -0.071400501 0.014530616 562 50952960 2149 16 560 2149
1.9525524 -0.095405243 0.014519446 579 51148032 2216 16 551 2216
1.942252 -0.11880762 0.014619974 151 51344128 575 16 497 575
1.9655787 -0.14447047 0.014340728 74 51537408 291 16 479 291
1.9686391 -0.1690089 0.014284878 55 51734272 218 16 486 218
1.967412 -0.19325234 0.014273709 64 51929600 253 16 468 253
1.9579355 -0.21660991 0.014351898 486 52127488 1890 16 544 1890
1.9491752 -0.23988645 0.014418917 591 52322048 2284 16 569 2284
1.9500481 -0.2643258 0.014374238 628 52517888 2436 16 571 2436
1.9545707 -0.28940925 0.014284878 395 52713216 1546 16 530 1546
1.9508719 -0.31337303 0.014284878 495 52908288 1935 16 550 1935
1.9547613 -0.33865672 0.014195519 699 53103872 2755 16 581 2755
1.9514413 -0.36280212 0.014184349 668 53300224 2637 16 529 2637
1.9556689 -0.38847712 0.01408382 713 53495552 2840 16 512 2840
1.9507544 -0.41244695 0.01408382 210 53692160 838 16 497 838
1.9523758 -0.43788779 0.014005631 65 53886720 264 16 458 264
1.9458823 -0.46158251 0.014016801 63 54082560 252 16 425 252
1.9400715 -0.48542672 0.014016801 60 54277376 243 16 478 243
1.9629765 -0.51684141 0.013681705 578 54472192 2387 16 537 2387
1.9126254 0.6581614 -0.035656344 405 45103872 1662 17 522 1662
1.9120175 0.63182062 -0.035334401 370 45298432 1506 17 516 1506
1.9139105 0.60649937 -0.035119772 593 45496320 2398 17 556 2398
1.9202527 0.58267707 -0.035083998 516 45689856 2084 17 502 2084
1.9167001 0.55600816 -0.03469051 308 45885696 1232 17 526 1232
1.9272317 0.53351116 -0.034833599 58 46082048 235 17 470 235
1.929768 0.50880253 -0.03469051 62 46276352 251 17 444 251
1.9329581 0.48435482 -0.034583196 74 46472448 297 17 480 297
1.9163926 0.45528948 -0.033760451 403 46668032 1569 17 512 1569
1.9169598 0.43064386 -0.033581592 569 46864640 2202 17 546 2202
1.9211224 0.4068805 -0.033545818 584 47059968 2258 17 585 2258
1.9259708 0.38327473 -0.033545818 564 47256576 2181 17 565 2181
1.9138267 0.3565034 -0.032937702 206 47450112 785 17 559 785
1.9298735 0.33503988 -0.033366963 68 47646976 264 17 506 264
1.9279195 0.31038025 -0.033152331 66 47840512 255 17 483 255
1.9315832 0.28669834 -0.033152331 45 48036864 175 17 494 175
1.9280239 0.26203257 -0.032901932 287 48229120 1091 17 550 1091
1.9350617 0.23884191 -0.033045016 91 48425216 349 17 519 349
1.937847 0.21507774 -0.033045016 62 48619008 239 17 475 239
1.9373567 0.19098765 -0.032937702 55 48814592 212 17 443 212
1.9206365 0.16557187 -0.032258041 327 49009408 1219 17 563 1219
1.9304971 0.14257751 -0.032544214 574 49204480 2157 17 645 2157
1.9311038 0.11881543 -0.032508444 517 49399296 1940 17 561 1940
1.9314183 0.095059946 -0.03247267 520 49594368 1950 17 605 1950
1.9324394 0.071351312 -0.03247267 320 49786112 1201 17 541 1201
1.9441592 0.047900517 -0.032866158 66 49981696 253 17 465 253
1.9416027 0.024002623 -0.032758843 89 50176256 339 17 456 339
1.9417511 0.00017436282 -0.032758843 63 50369792 241 17 505 241
1.9226207 -0.023418842 -0.032079183 203 50563584 754 17 484 754
1.9391724 -0.047429379 -0.032687303 527 50758144 1988 17 583 1988
1.9394431 -0.071259327 -0.032723073 497 50952960 1878 17 561 1878
1.9374244 -0.095004767 -0.032687303 468 51148032 1766 17 581 1766
1.9361126 -0.11877279 -0.032687303 184 51344128 696 17 506 696
1.9345094 -0.14252293 -0.032687303 495 51537408 1868 17 560 1868
1.9336104 -0.16633746 -0.032723073 536 51734272 2025 17 599 2025
1.9344072 -0.19034749 -0.032830387 611 51929600 2314 17 553 2314
1.9329189 -0.21418157 -0.032866158 585 52127488 2217 17 572 2217
1.9440306 -0.2395995 -0.033366963 76 52322048 295 17 492 295
1.9389635 -0.26316851 -0.033295419 77 52517888 298 17 472 298
1.9345995 -0.286796 -0.033259649 64 52713216 248 17 499 248
1.9289612 -0.3101972 -0.033188105 81 52908288 313 17 441 313
1.9397787 -0.33640957 -0.033724677 637 53103872 2477 17 510 2477
1.9374694 -0.36055437 -0.033796221 663 53300224 2581 17 530 2581
1.933879 -0.384498 -0.033831991 601 53495552 2343 17 579 2343
1.9319479 -0.40882197 -0.033939309 623 53692160 2437 17 550 2437
1.9462867 -0.43688053 -0.03465474 105 53886720 422 17 468 422
1.9320284 -0.45865241 -0.034332797 368 54082560 1456 17 502 1456
1.9359484 -0.48475614 -0.03469051 606 54277376 2419 17 528 2419
1.9317865 -0.50898629 -0.034762055 631 54472192 2525 17 546 2525
1.9263581 -0.5329206 -0.034797825 544 54667520 2180 17 550 2180
1.885842 0.64895058 -0.082758106 477 45103872 1906 18 637 1906
1.8936635 0.62575954 -0.082758106 528 45298432 2110 18 620 2110
1.893587 0.60006338 -0.08227808 503 45496320 1995 18 621 1995
1.8979424 0.575912 -0.082098067 512 45689856 2023 18 641 2023
1.8991144 0.55091047 -0.081738047 420 45885696 1651 18 662 1651
1.8778319 0.51984626 -0.079997957 58 46082048 223 18 595 223
1.8850352 0.4970175 -0.080057956 48 46276352 185 18 615 185
1.8919606 0.47409025 -0.080117963 56 46472448 215 18 620 215
1.8937511 0.44991514 -0.07987795 230 46668032 876 18 619 876
1.9049735 0.42795363 -0.08023797 77 46864640 296 18 621 296
1.9110583 0.40475106 -0.080297969 63 47059968 244 18 558 244
1.9158814 0.38126898 -0.080297969 72 47256576 278 18 593 278
1.9027514 0.3544426 -0.079217911 148 47450112 558 18 629 558
1.9049907 0.33072513 -0.079097904 455 47646976 1709 18 699 1709
1.9059491 0.30684766 -0.078917898 494 47840512 1850 18 697 1850
1.9075963 0.28314292 -0.078797892 520 48036864 1942 18 727 1942
1.908949 0.259444 -0.078677885 419 48229120 1563 18 677 1563
1.909017 0.23563246 -0.078497872 66 48425216 247 18 569 247
1.9117647 0.21218815 -0.078497872 68 48619008 254 18 594 254
1.9142246 0.18871188 -0.078497872 58 48814592 217 18 588 217
1.9154018 0.16512166 -0.078437872 74 49009408 276 18 587 276
1.9152929 0.14145765 -0.078317866 427 49204480 1583 18 712 1583
1.9178809 0.11800451 -0.078377865 439 49399296 1629 18 695 1629
1.9191846 0.094460279 -0.078377865 445 49594368 1651 18 632 1651
1.914214 0.070682026 -0.078017846 170 49786112 628 18 603 628
1.9169331 0.047235128 -0.078137852 464 49981696 1714 18 649 1714
1.9173684 0.023707852 -0.078137852 552 50176256 2040 18 690 2040
1.9165168 0.00017711546 -0.078077853 525 50369792 1937 18 731 1937
1.9143784 -0.023316789 -0.077957846 555 50563584 2044 18 721 2044
1.9019734 -0.046512131 -0.077237807 170 50758144 619 18 629 619
1.9291899 -0.070880562 -0.078917898 53 50952960 200 18 566 200
1.9291718 -0.094598442 -0.078977898 51 51148032 193 18 600 193
1.928862 -0.11832654 -0.079037905 58 51344128 219 18 575 219
1.8974001 -0.13978152 -0.077237807 295 51537408 1074 18 649 1074
1.9223937 -0.16537029 -0.078857891 497 51734272 1858 18 692 1858
1.9172394 -0.18865472 -0.078677885 538 51929600 2006 18 702 2006
1.9157721 -0.21227813 -0.078737885 543 52127488 2027 18 714 2027
1.9209483 -0.23674999 -0.079217911 363 52322048 1367 18 618 1367
1.9277893 -0.26164961 -0.079817943 109 52517888 416 18 603 416
1.9234459 -0.28514028 -0.079757944 438 52713216 1663 18 667 1663
1.9188166 -0.30856377 -0.079697937 576 52908288 2185 18 661 2185
1.9188194 -0.33277041 -0.07993795 619 53103872 2358 18 649 2358
1.9175353 -0.35684067 -0.080117963 628 53300224 2401 18 699 2401
1.9169279 -0.38112429 -0.080357976 592 53495552 2272 18 656 2272
1.9169892 -0.40565348 -0.080657989 551 53692160 2124 18 726 2124
1.9547194 -0.43877509 -0.083298132 185 53886720 747 18 686 747
1.8683486 0.64293462 -0.12979905 293 45103872 1155 19 583 1155
1.8931289 0.62558299 -0.13131778 128 45298432 516 19 509 516
1.8797646 0.59568608 -0.12946156 52 45496320 207 19 483 207
1.886933 0.57257366 -0.12946156 50 45689856 199 19 510 199
1.8938173 0.54937494 -0.12946156 51 45885696 202 19 518 202
1.8773675 0.51971775 -0.12743659 403 46082048 1544 19 586 1544
1.8855311 0.49714816 -0.12760535 411 46276352 1577 19 569 1577
1.8905232 0.47373036 -0.12752096 445 46472448 1706 19 556 1706
1.8942553 0.4500348 -0.12735222 506 46668032 1935 19 574 1935
1.8879683 0.42413691 -0.12633975 91 46864640 346 19 501 346
1.8949807 0.40134925 -0.12650849 85 47059968 324 19 535 324
1.8958539 0.37728754 -0.12617099 50 47256576 191 19 434 191
1.895443 0.35308269 -0.12574913 57 47450112 216 19 505 216
1.8849063 0.3272424 -0.12448353 409 47646976 1510 19 588 1510
1.8877964 0.30392888 -0.12439915 428 47840512 1579 19 601 1579
1.8903983 0.28059375 -0.12431478 449 48036864 1654 19 600 1654
1.903573 0.25871444 -0.12515852 203 48229120 757 19 567 757
1.8927592 0.23362906 -0.12397728 369 48425216 1354 19 590 1354
1.8944932 0.2102747 -0.12389291 420 48619008 1540 19 585 1540
1.8959394 0.18691295 -0.12380853 426 48814592 1559 19 651 1559
1.8961048 0.16346201 -0.12363979 422 49009408 1542 19 610 1542
1.893993 0.13988881 -0.1233023 214 49204480 780 19 545 780
1.8786594 0.11559918 -0.12186795 53 49399296 192 19 503 192
1.8799365 0.092536435 -0.12186795 65 49594368 234 19 500 234
1.8809305 0.069459751 -0.12186795 51 49786112 184 19 525 184
1.8816413 0.046372611 -0.12186795 165 49981696 591 19 519 591
1.9000031 0.023496632 -0.12338667 482 50176256 1754 19 640 1754
1.9001484 0.00017890097 -0.12338667 463 50369792 1687 19 646 1687
1.9020002 -0.023163529 -0.12355541 440 50563584 1606 19 616 1606
1.9045612 -0.046575941 -0.12380853 424 50758144 1552 19 588 1552
1.9048419 -0.069981113 -0.12389291 56 50952960 208 19 508 208
1.913792 -0.093841195 -0.12473664 133 51148032 495 19 521 495
1.9005617 -0.11658478 -0.12372416 398 51344128 1456 19 595 1456
1.8979942 -0.1398254 -0.12363979 456 51537408 1665 19 649 1665
1.8961354 -0.16310619 -0.12363979 459 51734272 1677 19 643 1677
1.896966 -0.18665573 -0.12389291 469 51929600 1719 19 627 1719
1.8975036 -0.21025017 -0.12414603 477 52127488 1753 19 626 1753
1.8977474 -0.23388588 -0.12439915 472 52322048 1741 19 614 1741
1.8628372 0.64140576 -0.17753227 158 45103872 621 20 762 621
1.8649046 0.61662626 -0.17688011 214 45298432 838 20 605 838
1.8524308 0.58738875 -0.17459755 49 45496320 189 20 581 189
1.857597 0.56403512 -0.17438015 57 45689856 219 20 587 219
1.8672428 0.54202783 -0.17470624 29 45885696 113 20 565 113
1.859383 0.51509517 -0.17307584 224 46082048 846 20 608 846
1.8578742 0.49021155 -0.1722063 325 46276352 1216 20 669 1216
1.8598928 0.46640924 -0.17177151 316 46472448 1177 20 659 1177
1.8915898 0.44975367 -0.17470624 107 46668032 411 20 620 411
1.8542905 0.41692096 -0.16992374 212 46864640 777 20 609 777
1.8641297 0.39516431 -0.1704672 430 47059968 1581 20 668 1581
1.8659137 0.37167683 -0.17014112 365 47256576 1339 20 691 1339
1.8703343 0.34875122 -0.17014112 371 47450112 1360 20 678 1360
1.8715348 0.32526302 -0.16981503 266 47646976 973 20 696 973
1.8724411 0.30179799 -0.16948895 49 47840512 180 20 564 180
1.8730537 0.27835974 -0.16916287 35 48036864 129 20 576 129
1.8763286 0.25535354 -0.16916287 48 48229120 176 20 568 176
1.8704416 0.23121312 -0.16818464 128 48425216 462 20 653 462
1.8761021 0.20857142 -0.16851072 428 48619008 1544 20 685 1544
1.8785204 0.18553306 -0.16851072 401 48814592 1447 20 679 1447
1.8796653 0.16238141 -0.16840202 351 49009408 1266 20 684 1266
1.8825078 0.13937598 -0.16851072 365 49204480 1318 20 680 1318
1.8711778 0.11547094 -0.1670977 65 49399296 233 20 642 233
1.8744396 0.092597693 -0.1673151 53 49594368 191 20 580 191
1.8962961 0.070358202 -0.16959766 218 49786112 796 20 622 796
1.8781351 0.046617676 -0.16753247 404 49981696 1446 20 647 1446
1.8815477 0.023603352 -0.16785856 420 50176256 1507 20 706 1507
1.885672 0.00051234977 -0.16829333 376 50369792 1355 20 693 1355
1.8885183 -0.022664186 -0.16861941 375 50563584 1355 20 699 1355
1.8930669 -0.04595916 -0.16916287 398 50758144 1445 20 705 1445
1.9032878 -0.069588304 -0.17035851 319 50952960 1172 20 705 1172
1.9052691 -0.093085468 -0.17068459 475 51148032 1751 20 682 1751
1.9148977 -0.11712886 -0.17188022 553 51344128 2062 20 698 2062
1.9192644 -0.14105716 -0.17253236 174 51537408 653 20 747 653
1.8521773 0.56203473 -0.22103165 179 45689856 684 21 727 684
1.8532231 0.53760767 -0.22023501 129 45885696 490 21 697 490
1.8424859 0.51006883 -0.21784504 88 46082048 329 21 637 329
1.879447 0.47095716 -0.2212972 30 46472448 116 21 619 116
1.8831561 0.44740018 -0.22103165 37 46668032 143 21 642 143
1.8662616 0.419265 -0.21797782 72 46864640 269 21 733 269
1.8518726 0.3922281 -0.21532232 281 47059968 1026 21 779 1026
1.8565463 0.36947322 -0.21532232 276 47256576 1008 21 790 1008
1.8802828 0.27909437 -0.21638452 37 48036864 138 21 603 138
1.9106529 -0.023270663 -0.21771227 823 50563584 3062 21 1162 3062
1.9211228 -0.046984311 -0.21917279 326 50758144 1230 21 877 1230
1.9223825 -0.070629083 -0.21943834 273 50952960 1030 21 715 1030
1.9223609 -0.094263099 -0.21957113 283 51148032 1069 21 656 1069
1.9240272 -0.11802898 -0.21996945 233 51344128 883 21 652 883
1.9076072 -0.14053555 -0.21797782 68 51537408 255 21 671 255
1.9477662 -0.11949001 -0.27079982 20 51344128 78 22 427 78
1.9786574 -0.14578433 -0.27596784 19 51537408 80 22 430 80
1.7612213 -0.15147324 -0.24167092 114 51734272 368 22 452 368
