# .PCD v0.7 - Point Cloud Data file format
VERSION 0.7
FIELDS x y z intensity t reflectivity ring noise range
SIZE 4 4 4 4 4 2 2 2 4
TYPE F F F F U U U U U
COUNT 1 1 1 1 1 1 1 1 1
WIDTH 819
HEIGHT 1
VIEWPOINT 0 0 0 1 0 0 0
POINTS 819
DATA ascii
0.00061124418 -3.3966665 -0.33350727 386 75364608 4514 20 1422 4514
-0.040549371 -3.3536761 -0.32883346 16 75560192 188 20 1491 188
-0 -0 -0 4 75753472 0 20 2206 0
-0 -0 -0 3 75948800 0 20 1960 0
-0.012028735 -0.253115 0.010181196 781 76143872 51 20 1028 51
-0.015316617 -0.25592494 0.0098551158 631 76341248 42 20 1056 42
-0 -0 -0 3 76535040 0 20 1714 0
-0.02184839 -0.25844321 0.0095290355 655 76730624 44 20 1045 44
-0.024726124 -0.25518775 0.0098551158 694 76925184 46 20 1079 46
-0.027417792 -0.25091302 0.01028989 763 77117696 49 20 1054 49
-0.030251574 -0.24858445 0.010507276 849 77311232 53 20 1083 53
-0.033299811 -0.2481945 0.010507276 798 77507072 51 20 1078 51
-0.036488827 -0.24875049 0.010398583 780 77702144 50 20 979 50
-0.039380778 -0.24730253 0.010507276 746 77898240 47 20 1040 47
-0.042412594 -0.24680065 0.010507276 752 78094592 47 20 1051 47
-0.045983698 -0.24919347 0.010181196 698 78288640 45 20 1067 45
-0.050007578 -0.25348535 0.0096377293 656 78485248 44 20 982 44
-0.054349393 -0.25868779 0.0089855688 611 78680320 43 20 987 43
-0.058173016 -0.2609112 0.0086594885 611 78877952 44 20 968 44
-0.061370417 -0.26017767 0.0086594885 554 79072768 40 20 1016 40
-0.063834146 -0.25651208 0.0089855688 539 79269632 38 20 1011 38
-0.065710671 -0.2509031 0.0095290355 460 79464704 31 20 994 31
-0.075941578 -0.27594608 0.0065943147 296 79661312 24 20 1004 24
-0.079875752 -0.27690288 0.0063769282 248 79858176 20 20 953 20
-0.084710278 -0.2806583 0.0058334609 230 80055040 20 20 946 20
-0.087847851 -0.27864996 0.0059421547 231 80251648 20 20 958 20
-0.090948939 -0.27660704 0.0060508479 230 80448768 19 20 893 19
-0.092719875 -0.27076998 0.0065943147 238 80642816 19 20 952 19
-0.095365994 -0.2677398 0.0068117017 261 80839680 21 20 903 21
-0.10037586 -0.27120841 0.0062682345 318 81037056 27 20 1020 27
-0.10476955 -0.27273867 0.0059421547 449 81230336 38 20 972 38
-0.10404896 -0.26127914 0.0071377815 550 81424640 44 20 1001 44
-0.10648672 -0.25814575 0.0073551685 563 81619968 44 20 1019 44
-0.11082134 -0.25956064 0.0070290882 565 81817088 45 20 1011 45
-0.11560932 -0.26181644 0.0065943147 655 82011392 54 20 1023 54
-0.12046912 -0.26399323 0.0061595412 619 82204416 53 20 984 53
-0.12582447 -0.26698834 0.0056160744 641 82396160 56 20 1025 56
-0.1317071 -0.27078444 0.0049639139 624 82593792 57 20 983 57
-0.13770147 -0.27447557 0.0043117539 579 82788352 55 20 1009 55
-0.14380585 -0.27805957 0.0036595936 388 82983168 38 20 971 38
-0.15095562 -0.2832877 0.0027900466 363 83176448 38 20 983 38
-0.1548999 -0.28228483 0.0026813531 414 83371520 43 20 971 43
-0.16227166 -0.28728244 0.0018118061 347 83564032 38 20 978 38
-0.16628535 -0.28612837 0.0017031127 397 83758848 44 20 998 44
-0.16825105 -0.28150821 0.0020291929 555 83954688 60 20 948 60
-0.17430006 -0.28365403 0.001485726 490 84148224 55 20 984 55
-0.18680795 -0.29577175 -0.0003620614 449 84342528 55 20 984 55
-0.19963813 -0.30762306 -0.0022098487 384 84538624 52 20 960 52
-0.20671144 -0.3101095 -0.002862009 286 84731904 40 20 935 40
-0.21724932 -0.31738639 -0.0041663297 346 84928000 52 20 943 52
-0.22227247 -0.31632206 -0.0043837163 339 85122816 51 20 966 51
-0.23487161 -0.32565603 -0.006014117 179 85317376 29 20 970 29
-0.23766598 -0.32115227 -0.0057967301 174 85512704 28 20 962 28
-0.24158913 -0.31821159 -0.0057967301 190 85710080 30 20 963 30
-0.25464889 -0.32697868 -0.0074271308 295 85906432 51 20 971 51
-0.26609555 -0.33314297 -0.0087314518 124 86104320 23 20 905 23
-1.4480953 -1.765358 -0.21177068 102 86301184 542 20 977 542
-0 -0 -0 8 86497792 0 20 949 0
-1.4494311 -1.6811112 -0.2048143 44 86694144 224 20 896 224
-1.4633673 -1.6557505 -0.20372736 160 86890752 794 20 967 794
-1.4775679 -1.6310387 -0.20274913 160 87087104 788 20 934 788
-1.4900303 -1.6047719 -0.20155351 148 87280384 721 20 1028 721
-1.4965883 -1.5726861 -0.19948833 38 87475456 184 20 997 184
-0.47865206 -0.49116769 -0.037100423 15 87670528 7 20 921 7
-0.63576072 -0.63639402 -0.060469501 10 87866112 8 20 962 8
-0.71893555 -0.7021386 -0.071990997 28 88061952 29 20 914 29
-0 -0 -0 11 88256512 0 20 940 0
-1.478785 -1.3744322 -0.18285824 19 88451328 81 20 911 81
-1.4601872 -1.3241355 -0.17764096 72 88648192 286 20 951 286
-1.4688799 -1.2995317 -0.17655402 63 88842240 248 20 912 248
-1.4990175 -1.2937461 -0.17861921 33 89038080 134 20 886 134
-1.5299927 -1.2880548 -0.18079306 17 89233664 72 20 938 72
-1.5403051 -1.2647676 -0.18003221 10 89430528 43 20 965 43
-1.5409645 -1.2339675 -0.17796704 7 89625088 31 20 891 31
-1.5677457 -1.2241392 -0.17959744 10 89820672 43 20 898 43
-1.5723656 -1.1969827 -0.17818442 8 90016768 34 20 929 34
-1.5765567 -1.1698984 -0.17677142 6 90211328 26 20 901 26
-1.240351 -0.89712822 -0.12948979 49 90409216 118 20 958 118
-1.2203839 -0.86008656 -0.12535945 104 90602496 236 20 975 236
-1.2242893 -0.84054637 -0.1244899 130 90799616 292 20 927 292
-1.2278998 -0.82104045 -0.12362035 128 90994176 284 20 957 284
-1.2228848 -0.79615176 -0.12166387 163 91189248 353 20 988 353
-1.2208053 -0.77363878 -0.12014216 185 91380224 393 20 923 393
-1.223437 -0.75442708 -0.11927262 196 91576064 411 20 994 411
-1.2283397 -0.73680121 -0.11872915 242 91768832 504 20 978 504
-1.2390065 -0.72267336 -0.11894654 182 91963136 380 20 963 380
-1.2503762 -0.70888454 -0.11927262 138 92157440 290 20 996 290
-1.2624646 -0.69540465 -0.11970739 59 92351744 125 20 965 125
-0 -0 -0 6 92545536 0 20 894 0
-0 -0 -0 7 92740608 0 20 900 0
-0 -0 -0 6 92932864 0 20 905 0
-0 -0 -0 7 93128960 0 20 915 0
-0 -0 -0 15 93324032 0 20 931 0
-0 -0 -0 10 93517312 0 20 958 0
-1.5791981 -0.7005595 -0.15101108 34 93710848 104 20 972 104
-1.5127575 -0.64900672 -0.14209823 9 93906688 26 20 948 26
-0 -0 -0 4 94103040 0 20 926 0
-0 -0 -0 6 94299904 0 20 887 0
-0 -0 -0 8 94496512 0 20 930 0
-1.3527009 -0.50332874 -0.11992478 13 94691584 28 20 984 28
-1.2530141 -0.44884118 -0.10764243 40 94888960 73 20 939 73
-1.2546678 -0.43213722 -0.10720765 57 95084288 103 20 869 103
-1.254213 -0.41483665 -0.10655549 101 95281920 180 20 919 180
-1.2506804 -0.3967118 -0.10557725 136 95476480 238 20 979 238
-1.2583083 -0.38220003 -0.10590333 130 95673344 228 20 946 228
-1.2600396 -0.36589906 -0.10557725 148 95868672 259 20 933 259
-1.2864699 -0.35650837 -0.1080772 86 96064768 156 20 948 156
-1.3464993 -0.35539284 -0.11438142 31 96260096 62 20 932 62
-0 -0 -0 8 96455680 0 20 904 0
-0 -0 -0 8 96652032 0 20 964 0
-1.5477998 -0.34807512 -0.13557662 13 96847872 34 20 1003 34
-0 -0 -0 16 97041408 0 20 946 0
-0.54776543 -0.10939115 -0.023187671 87 97236992 27 20 965 27
-0.5490666 -0.10266099 -0.023187671 103 97432320 32 20 927 32
-0.5542028 -0.096595421 -0.023622444 132 97626368 42 20 984 42
-0.5386619 -0.087101541 -0.021774657 28 97820928 8 20 931 8
-0.52297401 -0.07800404 -0.01992687 70 98015488 20 20 992 20
-0.49631122 -0.067832731 -0.016883455 143 98208768 36 20 1104 36
-0.48329398 -0.060032625 -0.015361748 125 98402816 30 20 1052 30
-0 -0 -0 4 98598912 0 20 1476 0
-0 -0 -0 4 98791424 0 20 2436 0
-0 -0 -0 0 98987776 0 20 3614 0
-0 -0 -0 0 99181824 0 20 5062 0
-0 -0 -0 0 99377664 0 20 5602 0
-0 -0 -0 0 99569664 0 20 4894 0
-0 -0 -0 0 99766784 0 20 4489 0
-0 -0 -0 0 0 0 21 3675 0
-0 -0 -0 1 197376 0 21 3520 0
-0 0 -0 3 392192 0 21 3572 0
-0 0 -0 2 587264 0 21 2790 0
-0 0 -0 5 781312 0 21 2002 0
-0 0 -0 4 978432 0 21 2239 0
-0 0 -0 6 1171200 0 21 2562 0
-0 0 -0 1 1365248 0 21 3054 0
-0 0 -0 1 1559552 0 21 3266 0
-0.42945316 0.036641881 -0.01947864 845 1756160 160 21 1239 160
-0.34414399 0.033545081 -0.0080599571 354 1950720 43 21 1017 43
-0.4500967 0.04957594 -0.022399697 458 2145024 96 21 1079 96
-0.48486686 0.059467215 -0.02717961 674 2341120 164 21 1189 164
-0.46936888 0.063410357 -0.02518798 1016 2535936 232 21 1268 232
-0.49894789 0.073677145 -0.029304016 1454 2727680 377 21 1340 377
-0.50485599 0.080897361 -0.030233445 2124 2923264 566 21 1572 566
-0.49015373 0.084712863 -0.028374588 1594 3117056 403 21 1377 403
-0.49784669 0.092355154 -0.029569568 1366 3310080 358 21 1338 358
-0.49084339 0.097296737 -0.028772915 1154 3504128 295 21 1339 295
-0.48961246 0.10331281 -0.028772915 1201 3699200 307 21 1314 307
-0.49120888 0.10996513 -0.029171241 1096 3895040 282 21 1281 282
-0.48692957 0.11529738 -0.028772915 1277 4091136 326 21 1288 326
-0.51047486 0.12752835 -0.032225076 1064 4288256 300 21 1321 300
-0.50024593 0.13150865 -0.031030096 666 4480768 181 21 1187 181
-0.53489262 0.14768684 -0.036075562 1109 4677888 348 21 1205 348
-0.52447289 0.15175426 -0.034880582 567 4873216 172 21 1100 172
-0.48747903 0.14752965 -0.029967893 425 5069568 112 21 1057 112
-0.41665909 0.13164189 -0.020275291 281 5262848 54 21 1069 54
-0.40936574 0.13487899 -0.01947864 625 5459968 118 21 1061 118
-0.42923534 0.14731063 -0.022532472 200 5654528 42 21 1017 42
-0.50018269 0.17861961 -0.032888953 58 5851136 16 21 1022 16
-0.49981108 0.18543503 -0.033154503 56 6048000 16 21 1011 16
-0.52153987 0.20083156 -0.036606662 122 6243072 39 21 1026 39
-0.50339192 0.20095833 -0.034349479 160 6439424 48 21 970 48
-0.50271928 0.20787938 -0.034615032 179 6635776 54 21 991 54
-0.48191175 0.20622081 -0.031959523 148 6829824 41 21 1094 41
-0.46847197 0.20729806 -0.03036622 42 7026432 11 21 1044 11
-0.37938979 0.1733986 -0.017619783 90 7221760 16 21 1061 16
-0.3557308 0.16786842 -0.014433175 3373 7417088 533 21 1441 533
-0.38927084 0.18961434 -0.019744189 6538 7610368 1251 21 2879 1251
-0.38691467 0.19437702 -0.019744189 6657 7803648 1274 21 2999 1274
-0.38625968 0.20002353 -0.020009741 6633 7999488 1278 21 2545 1278
-0.38202786 0.20381384 -0.019744189 6899 8192000 1320 21 2812 1320
-0.39859974 0.21900275 -0.022665247 7506 8386048 1583 21 3420 1583
-0.38380963 0.2170369 -0.020806393 6333 8577280 1258 21 2674 1258
-0.3708421 0.21574041 -0.019213088 4524 8771072 851 21 1867 851
-0.39876956 0.23862214 -0.023993002 229 8966144 50 21 1031 50
-0 0 -0 11 9162240 0 21 980 0
-1.7592922 1.1138713 -0.24068241 45 9355520 201 21 992 201
-1.7122612 1.1137532 -0.2353714 253 9551360 1077 21 995 1077
-1.7100015 1.1423918 -0.23723024 285 9747456 1229 21 1123 1229
-1.71465 1.1761888 -0.24028409 228 9944320 1006 21 960 1006
-1.7211546 1.2119824 -0.24373624 222 10140672 1004 21 1027 1004
-1.7270358 1.2481105 -0.2471884 198 10336256 918 21 985 918
-1.7314903 1.2839727 -0.25050777 218 10532096 1033 21 1083 1033
-1.734533 1.3195298 -0.25369439 212 10728192 1028 21 1035 1028
-1.7353983 1.3541329 -0.25661546 214 10922240 1059 21 952 1059
-1.7356731 1.3889539 -0.2595365 212 11119872 1069 21 1059 1069
-1.7384163 1.4264991 -0.26298866 213 11314688 1100 21 1016 1100
-1.7344298 1.4592127 -0.26537862 225 11506432 1180 21 1040 1180
-1.738155 1.4991635 -0.26922911 221 11699712 1189 21 991 1189
-1.736703 1.535483 -0.27228296 202 11895040 1108 21 1041 1108
-1.7302129 1.5679963 -0.27454013 146 12090368 814 21 1049 814
-1.711567 1.5897852 -0.2746729 194 12284672 1081 21 1067 1081
-1.7120264 1.6298074 -0.27839062 190 12479744 1084 21 1018 1084
-1.7117581 1.6700774 -0.28210834 201 12672768 1174 21 1023 1174
-1.7100556 1.7098825 -0.28569326 191 12868608 1141 21 991 1141
-1.7636924 1.8073615 -0.300033 270 13064192 1757 21 1085 1757
-1.7707648 1.8597387 -0.30574235 232 13261568 1562 21 1025 1562
-1.7673701 1.9023896 -0.30959281 1124 13455872 7726 21 1297 7726
-1.7172704 1.8945562 -0.3042818 392 13651968 2613 21 1046 2613
-1.6932355 1.9147445 -0.30414903 353 13846272 2352 21 1055 2352
-1.6812627 1.9488894 -0.306539 860 14043648 5804 21 1168 5804
-1.6463734 1.9564804 -0.3042818 385 14241280 2566 21 1081 2566
-1.6102953 1.9619782 -0.30175906 391 14437632 2569 21 1029 2569
-1.5718549 1.9637917 -0.29870525 398 14635776 2567 21 1056 2567
-1.5317856 1.9626156 -0.2952531 415 14834432 2622 21 1014 2622
-1.4913843 1.9599661 -0.29166815 434 15029760 2683 21 1072 2683
-1.454823 1.9614007 -0.28887987 419 15226368 2547 21 1048 2547
-1.4213557 1.9662524 -0.28675547 412 15423232 2472 21 1074 2472
-1.3885604 1.9713905 -0.28476384 414 15618048 2454 21 1065 2454
-1.3547331 1.9743868 -0.28250664 381 15812864 2228 21 1067 2228
-1.3248967 1.9826212 -0.28117889 385 16009472 2232 21 1044 2232
-1.2918206 1.9854367 -0.27905449 401 16204288 2294 21 1096 2294
-1.2588763 1.9877409 -0.27693009 403 16397824 2275 21 1061 2275
-1.2250315 1.9878498 -0.27454013 433 16591616 2407 21 1068 2407
-1.1934129 1.9908304 -0.27268127 402 16785152 2209 21 1034 2209
-1.1619067 1.9933363 -0.27082241 471 16979456 2556 21 1010 2556
-1.1305197 1.9953705 -0.26896358 500 17172736 2680 21 1023 2680
-1.098781 1.996068 -0.26697195 429 17367808 2273 21 959 2273
-1.0685979 1.9989114 -0.26537862 482 17559296 2525 21 1043 2525
-1.0398805 2.0039558 -0.26418364 456 17754880 2370 21 1067 2370
-0.863729 1.7155418 -0.21904002 344 17948416 1294 21 1096 1294
-0.87781709 1.798164 -0.22979483 211 18143488 862 21 1035 862
-0.87856305 1.8571864 -0.2369647 222 18339328 957 21 1002 957
-0.87592596 1.9119849 -0.24347068 252 18534400 1137 21 1090 1137
-0.8644436 1.9497747 -0.24745396 247 18728704 1145 21 1114 1145
-0.85528713 1.9948547 -0.2524994 1069 18925568 5129 21 1171 5129
-0.82315892 1.9868853 -0.24984391 395 19121920 1864 21 1012 1864
-0.7990827 1.9977574 -0.24997668 413 19317504 1950 21 1002 1950
-0.53593642 1.3887411 -0.16114996 93 19512320 211 21 1068 211
-0.50849712 1.367341 -0.1571667 164 19706368 356 21 1034 356
-0.48600477 1.357613 -0.15490952 207 19900160 439 21 1008 439
-0.46672955 1.3559766 -0.15384732 202 20097280 424 21 1027 424
-0.44383845 1.3427788 -0.1511918 246 20293888 502 21 1063 502
-0.42014557 1.3254467 -0.1480052 232 20489728 458 21 1033 458
-0.39780882 1.3105843 -0.14521691 218 20687616 417 21 1044 417
-0.37479725 1.2915684 -0.14189753 206 20881664 381 21 942 381
-0.35337031 1.2760098 -0.13910925 226 21078272 404 21 1038 404
-0.33010995 1.2514968 -0.13512599 236 21274368 403 21 1063 403
-0.30943137 1.2343012 -0.13220493 236 21470976 390 21 1091 390
-0.29082769 1.2235402 -0.13021331 251 21663744 405 21 1077 405
-0.27210113 1.2105765 -0.12795612 230 21860096 361 21 1055 361
-0.2529164 1.1934613 -0.12516783 181 22053632 275 21 1034 275
-0.22646306 1.1371756 -0.11706854 85 22249728 117 21 956 117
-0.21230981 1.1388946 -0.11693576 94 22445312 129 21 953 129
-0.35411218 2.039861 -0.2390891 75 22640128 330 21 1021 330
-0.32574904 2.0235028 -0.23630083 375 22836736 1605 21 1127 1605
-0.30089304 2.0273478 -0.23630083 324 23033088 1388 21 1018 1388
-0.27559185 2.0279412 -0.23590249 404 23227392 1725 21 1039 1725
-0.24983661 2.0242846 -0.23497307 372 23422720 1578 21 1015 1578
-0.22454014 2.0232575 -0.23444197 355 23619328 1500 21 1057 1500
-0.19950068 2.0238879 -0.23417641 387 23814144 1632 21 1039 1632
-0.17473437 2.0271711 -0.2343092 392 24008960 1656 21 1023 1656
-0.15042715 2.0370705 -0.2353714 443 24203008 1884 21 1111 1884
-0.10818758 1.7578053 -0.19766319 486 24399360 1537 21 1071 1537
-0.10126308 2.0579679 -0.23776135 451 24595712 1951 21 1127 1951
-0.07680124 2.0808461 -0.24068241 562 24789504 2483 21 1044 2483
-0.048087999 1.9518304 -0.22328883 470 24984064 1826 21 1109 1826
-0.025458442 2.0612917 -0.23789412 508 25181696 2200 21 1041 2200
-0.00015719737 2.0991123 -0.24293959 786 25375744 3528 21 1115 3528
0.022068106 1.8135281 -0.20470028 59 25572352 200 21 948 200
0.044858728 1.8349192 -0.20762134 145 25767168 499 21 1021 499
0.067482397 1.837202 -0.20801966 191 25962240 659 21 1031 659
0.089583941 1.8273261 -0.20682469 143 26156544 489 21 1024 489
0.11139244 1.8161963 -0.20549694 128 26351872 433 21 1046 433
0.1337446 1.8156811 -0.20562971 147 26546176 498 21 931 498
0.15610087 1.8148906 -0.20576249 171 26740992 579 21 1036 579
0.1788469 1.8177701 -0.20642637 194 26935552 661 21 943 661
0.20092157 1.8134683 -0.20616081 186 27131136 633 21 944 633
0.22328192 1.8118498 -0.20629358 208 27323648 708 21 977 708
0.2450988 1.8060271 -0.20589526 168 27517440 570 21 1025 570
0.26709753 1.801903 -0.20576249 193 27713280 654 21 988 654
0.26177439 1.6282232 -0.18265957 67 27905280 187 21 972 187
0.24138145 1.3924726 -0.15105903 31 28100608 64 21 998 64
0.2544575 1.3679693 -0.14813797 50 28296192 100 21 976 100
0.2731601 1.3744645 -0.14946572 45 28492544 91 21 981 91
0.28548789 1.349677 -0.14654467 64 28688384 125 21 982 125
0.32962191 1.468886 -0.16340715 26 28884992 61 21 1079 61
0.35495433 1.4955881 -0.16765596 19 29079552 46 21 1063 46
0 0 -0 9 29276672 0 21 947 0
0.38952929 1.4787595 -0.16659375 46 29471744 111 21 938 111
0.4124068 1.4910619 -0.16898371 71 29668352 174 21 984 174
0.42045555 1.4506686 -0.16407102 29 29862656 68 21 1003 68
0.43505985 1.4349669 -0.16261049 75 30059520 173 21 1008 173
0.45353463 1.4323546 -0.16300881 45 30254848 105 21 969 105
0.46610156 1.4116237 -0.16088441 50 30450944 113 21 1037 113
0.48854977 1.4207928 -0.16300881 15 30646016 36 21 935 36
0.5012722 1.4016262 -0.16114996 59 30842112 134 21 1022 134
0.51774365 1.3935113 -0.16088441 105 31037696 237 21 973 237
0.54301184 1.4083208 -0.16393824 77 31234304 180 21 961 180
0.56319827 1.4089131 -0.16500044 72 31428352 170 21 995 170
0.58499813 1.4128836 -0.16659375 53 31625472 127 21 990 127
0.60697955 1.4165295 -0.16818705 65 31821824 158 21 1031 158
0.97062725 2.1900082 -0.28263941 29 32016640 172 21 1037 172
1.0032088 2.1905472 -0.28449827 40 32211456 239 21 1077 239
0.54171938 1.1459492 -0.13154106 116 32407040 190 21 1022 190
0.54530525 1.1178391 -0.12835445 328 32602112 517 21 933 517
0.55363309 1.10044 -0.12676114 594 32796160 918 21 1098 918
0.5657258 1.090924 -0.12636282 450 32990720 692 21 1125 692
0.57766855 1.0812774 -0.12596449 411 33184000 630 21 983 630
0.59710813 1.0853945 -0.12769057 250 33378816 391 21 1038 391
0.73986912 1.3065028 -0.16287604 42 33572352 97 21 1027 97
1.2490296 2.1433189 -0.29405811 43 33768704 273 21 1007 273
0.83082813 1.3865612 -0.17827798 37 33959680 100 21 1034 100
0.85974163 1.3956677 -0.18133181 37 34154240 103 21 966 103
0.86725754 1.3699406 -0.17894186 43 34348288 116 21 1032 116
0.91697937 1.4098703 -0.18704116 32 34543616 94 21 985 94
0 0 -0 7 34740992 0 21 1057 0
1.0427155 1.5201498 -0.20868355 16 34935552 57 21 975 57
1.0875483 1.5445127 -0.21479121 14 35130624 53 21 974 53
1.0628675 1.4708092 -0.20483306 8 35328256 29 21 967 29
0 0 -0 6 35522816 0 21 936 0
1.0932407 1.4371836 -0.20363808 30 35721216 102 21 913 102
1.1217725 1.437723 -0.20602803 64 35917312 219 21 991 219
1.1275623 1.4091475 -0.20350531 64 36113408 214 21 958 214
1.1435121 1.3936723 -0.20323975 57 36310272 190 21 1052 190
1.1515936 1.3689182 -0.20138089 95 36505600 312 21 966 312
1.178665 1.3666903 -0.20350531 44 36702208 148 21 997 148
1.9544141 2.2103746 -0.35699365 28 36898304 254 21 997 254
2.065269 2.2787488 -0.37372333 198 37095424 1912 21 1039 1912
2.1079197 2.2692072 -0.3766444 228 37288704 2231 21 1085 2231
2.1656821 2.2747502 -0.38248649 189 37485824 1904 21 1015 1904
2.2225091 2.2777941 -0.38806307 240 37680640 2481 21 985 2481
2.2825363 2.2825844 -0.39417073 235 37875968 2500 21 1022 2500
2.349396 2.2924688 -0.40147337 232 38069760 2552 21 1007 2552
2.4240153 2.3078835 -0.41010377 222 38265344 2538 21 1056 2538
2.4935498 2.3164096 -0.41767198 240 38458880 2838 21 1007 2838
2.5474942 2.3089292 -0.42231911 208 38655232 2511 21 1015 2511
2.6216762 2.3181949 -0.4305512 355 38850816 4434 21 1013 4434
2.5846267 2.2295325 -0.41899973 141 39046400 1680 21 991 1680
1.5067123 1.2680107 -0.22554602 296 39240960 1171 21 1009 1171
1.5359515 1.2607419 -0.22793597 38 39438080 155 21 1053 155
1.5567243 1.2461333 -0.2288654 22 39632640 92 21 978 92
1.5851835 1.237301 -0.23112258 17 39828736 73 21 947 73
0.24657054 0.18804549 -0.0032800436 38 40024832 3 21 1024 3
0.24885958 0.18500553 -0.0032800436 209 40218368 20 21 1161 20
0.22219074 0.16103886 0.0014998696 1231 40413184 95 21 1083 95
0.2144253 0.15145265 0.0030931742 4237 40609024 299 21 1611 299
0.2358841 0.16226512 -9.3434799e-05 4867 40804352 408 21 1690 408
0 0 -0 0 40998400 0 21 4872 0
0 0 -0 0 41194240 0 21 4919 0
0 0 -0 0 41387520 0 21 4948 0
0 0 -0 0 41582592 0 21 4459 0
0.23518814 0.14138168 0.0014998696 1364 41776640 105 21 1027 105
0.25488934 0.14896363 -0.0012884132 771 41973248 68 21 1041 68
0.25928545 0.14728984 -0.0016867393 99 42166016 9 21 946 9
0.31838554 0.17563304 -0.010449913 11 42361856 1 21 920 1
0.30215943 0.16190305 -0.0076616309 15 42556416 1 21 990 1
2.9374559 1.524084 -0.40505832 44 42751744 497 21 1031 497
2.940001 1.4799025 -0.40266836 161 42947328 1783 21 1003 1783
2.9347804 1.4324121 -0.3992162 205 43143168 2234 21 967 2234
2.944073 1.392477 -0.39802122 195 43337216 2112 21 1043 2112
2.93841 1.3459277 -0.39470184 180 43533056 1920 21 1045 1920
2.8985236 1.2848712 -0.38646975 163 43726336 1673 21 1054 1673
0.27394024 0.11781339 -0.0016867393 479 43921152 43 21 1185 43
0.25338757 0.10534216 0.0014998696 1480 44115456 114 21 1269 114
2.4542389 0.98157561 -0.31583327 194 44308992 1383 21 1104 1383
0.29473689 0.11406952 -0.004076696 55 44502272 5 21 1070 5
0.2961145 0.11044405 -0.004076696 71 44696832 7 21 1082 7
2.7108171 0.97002244 -0.34743381 142 44893184 1203 21 1046 1203
0.29311213 0.10120981 -0.0032800436 593 45089280 58 21 1201 58
0.26045045 0.086416386 0.0014998696 2862 45284352 220 21 1140 220
0.27849948 0.088599876 -0.00089008705 849 45479936 74 21 1101 74
2.9457967 0.89365035 -0.37412167 70 45675776 681 21 1016 681
2.9536855 0.85660571 -0.37372333 69 45870848 668 21 1106 668
2.9611092 0.81950223 -0.37332499 43 46067456 419 21 1026 419
2.967109 0.78209311 -0.37279391 67 46261248 648 21 1023 648
2.9486005 0.73864228 -0.36894342 104 46458624 983 21 1064 983
2.5119128 0.59664768 -0.30760118 133 46653440 906 21 1083 906
2.8662295 0.64370078 -0.35526755 244 46850304 2147 21 1114 2147
2.8700342 0.60765857 -0.35473645 278 47045632 2440 21 1089 2440
2.8801916 0.57297283 -0.35513479 220 47241472 1937 21 1044 1937
0.26971102 0.05057862 0.0014998696 649 47436544 50 21 1156 50
0.27031139 0.047265042 0.0014998696 1515 47633920 116 21 1190 116
2.9130294 0.46877557 -0.35699365 234 47827456 2077 21 1173 2077
2.8960128 0.42965046 -0.3539398 242 48024064 2117 21 1017 2117
1.9562447 0.26586226 -0.22620989 119 48220416 473 21 1141 473
0.28410944 0.035399191 -9.3434799e-05 228 48415744 19 21 1144 19
0.28452247 0.031910066 -9.3434799e-05 457 48610304 38 21 1268 38
0.28489262 0.028416134 -9.3434799e-05 416 48805120 34 21 1134 34
0.28324488 0.024748065 0.00017211595 408 49000704 33 21 1178 33
0.28253877 0.021197546 0.00030489132 390 49196288 31 21 1149 31
0.27684191 0.017364744 0.0011015435 343 49391360 27 21 1123 27
0.28099397 0.014160262 0.00057044206 382 49583616 30 21 1084 30
0.28213707 0.010747341 0.00043766669 351 49778432 28 21 1098 28
0.27927515 0.0072116284 0.0008359928 345 49972736 27 21 1024 27
0.27835155 0.0037718946 0.00096876814 330 50167808 26 21 1043 26
0.28035918 0.00035559258 0.0007032174 326 50360320 26 21 1103 26
0.28034243 -0.0030848726 0.0007032174 296 50555648 23 21 1168 23
0.27433839 -0.0063782809 0.0014998696 168 50749184 13 21 1028 13
1.9520966 -0.071726769 -0.2234216 49 50943744 192 21 1030 192
1.9500794 -0.095627852 -0.22328883 59 51139072 231 21 992 231
1.9537054 -0.11985555 -0.22395271 50 51334144 197 21 980 197
1.9590068 -0.14433265 -0.22488214 195 51528704 769 21 953 769
1.9600505 -0.16861725 -0.22528046 100 51725312 396 21 986 396
1.9627656 -0.19314367 -0.22594434 61 51918080 244 21 954 244
0.29937714 -0.032844812 -0.0020850655 367 52114944 33 21 1135 33
0.28419635 -0.034694642 -9.3434799e-05 1439 52311552 120 21 1019 120
0.26705325 -0.035910118 0.0021637466 838 52504320 62 21 1295 62
1.952885 -0.28951043 -0.22620989 123 52699904 488 21 1255 488
3.0402606 -0.48913112 -0.37425444 526 52894208 5081 21 1203 5081
3.0242639 -0.52470744 -0.37292668 361 53090816 3467 21 1152 3467
0.2980985 -0.055142414 -0.002350616 87 53286912 8 21 1032 8
0.29545522 -0.058409452 -0.0020850655 101 53483008 9 21 984 9
0.29083768 -0.061209209 -0.0015539639 95 53677312 8 21 1000 8
0.28813055 -0.064339094 -0.0012884132 97 53874176 8 21 1139 8
0.2853907 -0.067411818 -0.0010228624 120 54069248 10 21 1172 10
0.27877349 -0.06946332 -0.00022621018 168 54264320 14 21 1048 14
0.29994297 -0.07869149 -0.0032800436 940 54458368 92 21 1081 92
0.25310445 -0.069672458 0.0030931742 4336 54655232 306 21 1313 306
0.28745058 -0.082991019 -0.0018195147 415 54849792 38 21 1110 38
0.27502927 -0.083058417 -0.00022621018 114 55046144 9 21 1120 9
0.2673755 -0.084331147 0.0007032174 106 55241984 8 21 1041 8
2.7677305 -0.91426283 -0.35221371 73 55437568 637 21 1012 637
0.27553457 -0.094415329 -0.00075731165 297 55632640 25 21 982 25
0.25849128 -0.092111304 0.0014998696 1416 55829248 109 21 1052 109
0.25827047 -0.095621891 0.0013670942 441 56023808 34 21 1114 34
2.6307654 -1.0147139 -0.33946729 153 56220160 1243 21 1051 1243
0.25676626 -0.1022995 0.0012343189 207 56417536 16 21 1180 16
0.25823852 -0.10658089 0.0008359928 344 56610816 27 21 1072 27
0.2714861 -0.1159915 -0.0012884132 246 56805376 21 21 1175 21
2.4690783 -1.0943669 -0.32353425 230 57001216 1713 21 1032 1713
2.4770885 -1.134492 -0.32672083 125 57196032 949 21 1054 949
4.9518995 -2.3423078 -0.69557083 45 57391616 1396 21 980 1396
0.26813966 -0.13047746 -0.0016867393 570 57587712 51 21 1024 51
0.27271518 -0.13687822 -0.0026161668 2041 57780992 194 21 1012 194
0.27101496 -0.14021455 -0.0026161668 2134 57976064 203 21 975 203
0.26577765 -0.14166048 -0.0020850655 2287 58170624 211 21 1006 211
0.23015705 -0.12626895 0.0030931742 3672 58368256 259 21 1071 259
0.22859021 -0.12908383 0.0030931742 3678 58560256 259 21 1044 259
0.24839565 -0.14435861 -0.00022621018 2835 58754816 239 21 1011 239
0.24745552 -0.14790557 -0.00035898553 2839 58949376 240 21 1061 240
0.24393435 -0.14989102 -9.3434799e-05 2807 59144448 235 21 1047 235
0.24207659 -0.15287319 -9.3434799e-05 1751 59340032 147 21 989 147
0.25015131 -0.16231938 -0.0016867393 75 59534080 6 21 981 6
0 -0 -0 12 59728640 0 21 989 0
3.292716 -2.2591169 -0.49667332 24 59924480 402 21 954 402
3.2485394 -2.2879374 -0.49401781 34 60116992 558 21 960 558
3.5190156 -2.5436497 -0.54341024 10 60310784 205 21 975 205
0 -0 -0 8 60508672 0 21 979 0
0.79831618 -0.60704958 -0.096090026 11 60702464 11 21 991 11
0 -0 -0 6 60896512 0 21 935 0
0.79478437 -0.63574964 -0.098081656 12 61092096 13 21 1003 13
0 -0 -0 6 61288704 0 21 970 0
0.74026841 -0.62251419 -0.091310114 139 61485056 133 21 1016 133
0.78510386 -0.67687458 -0.10060439 45 61680128 49 21 1009 49
0.77005655 -0.68054837 -0.099409409 36 61874176 39 21 1010 39
2.3933024 -2.1691172 -0.3944363 12 62070528 135 21 961 135
2.3512557 -2.1841555 -0.39164799 24 62266880 257 21 1033 257
3.2745903 -3.1178169 -0.5674426 20 62463488 429 21 1004 429
2.2806315 -2.2252781 -0.38859418 21 62658560 223 21 1001 223
3.1368227 -3.136961 -0.5560239 21 62854144 431 21 1045 431
3.0627933 -3.1390355 -0.54925239 26 63049984 522 21 994 522
3.006958 -3.1584365 -0.54593301 28 63247360 558 21 921 558
2.9450397 -3.1704066 -0.54141861 15 63443456 300 21 955 300
2.8799565 -3.1776638 -0.5362404 18 63639552 352 21 934 352
2.8072648 -3.1748948 -0.52946883 10 63836928 195 21 995 195
2.73508 -3.1708257 -0.52269727 17 64035584 317 21 955 317
2.6710792 -3.1745708 -0.51751906 15 64231424 275 21 964 275
2.6092882 -3.1795254 -0.51273912 23 64427776 409 21 956 409
2.5502584 -3.1865416 -0.50849032 13 64625664 231 21 1003 231
2.4932814 -3.1949356 -0.50463986 11 64821248 196 21 970 196
2.4394853 -3.2063589 -0.50145322 18 65017088 309 21 978 309
2.3970029 -3.2320728 -0.50078934 20 65212160 340 21 1010 340
2.3530962 -3.255621 -0.49985993 20 65409024 340 21 969 340
2.2998433 -3.2656126 -0.49680609 20 65604096 337 21 958 337
2.2433376 -3.269886 -0.49295563 12 65799424 203 21 983 203
2.179368 -3.26173 -0.48724627 25 65992192 401 21 1020 401
2.1229653 -3.2633026 -0.48326302 17 66188800 275 21 934 275
2.0626132 -3.2572865 -0.47821754 16 66383872 252 21 986 252
2.0105295 -3.2629435 -0.47516373 11 66578944 175 21 957 175
1.9565814 -3.264415 -0.47157878 26 66770688 393 21 986 393
1.8969141 -3.2547808 -0.46640053 50 66966016 731 21 1023 731
1.8407116 -3.2493534 -0.46201894 49 67160320 707 21 928 707
1.7954423 -3.262145 -0.46055841 27 67355136 391 21 964 391
1.7482687 -3.2708199 -0.45856678 37 67548672 528 21 983 528
1.6947645 -3.2665124 -0.4547163 17 67742976 243 21 1002 243
1.6532152 -3.2844076 -0.45431799 25 67937792 355 21 930 355
1.6145245 -3.3080108 -0.45484909 20 68133888 284 21 1004 284
0 -0 -0 12 68327936 0 21 889 0
0 -0 -0 6 68522240 0 21 964 0
0 -0 -0 8 68718336 0 21 1035 0
0 -0 -0 6 68911616 0 21 940 0
0 -0 -0 6 69106176 0 21 985 0
0 -0 -0 8 69303040 0 21 884 0
0.86722499 -2.2478535 -0.28449827 15 69501184 93 21 935 93
0.85165823 -2.2908442 -0.28914541 57 69697280 350 21 1000 350
0.8224805 -2.2983232 -0.2887471 35 69893888 216 21 1023 216
0.79711556 -2.3166785 -0.28994206 48 70087936 296 21 1071 296
0.77173436 -2.3356974 -0.29126984 50 70285312 308 21 1240 308
0.74839973 -2.3620002 -0.29365978 20 70480384 125 21 1257 125
0 -0 -0 7 70678016 0 21 1052 0
0.073735923 -0.25298321 0.0029603988 79 70872064 5 21 980 5
0.91383845 -3.3021412 -0.42072582 46 71068672 558 21 993 558
0.87854987 -3.3332341 -0.4235141 335 71263488 4062 21 1002 4062
0.8385427 -3.3476102 -0.42404521 335 71461120 4071 21 999 4071
0.79419452 -3.3441474 -0.42218634 252 71655680 3037 21 1053 3037
0.75287986 -3.3526745 -0.42205358 123 71852032 1487 21 988 1487
0.71455312 -3.3752365 -0.42391241 178 72047616 2165 21 986 2165
0.67114741 -3.3740299 -0.42258465 270 72242432 3261 21 1013 3261
0.62497818 -3.3566768 -0.4191325 233 72435712 2774 21 958 2774
0.51668024 -2.9773707 -0.36655346 19 72631040 181 21 1046 181
0.54367173 -3.3788321 -0.42019472 461 72826880 5504 21 1025 5504
0.5010047 -3.3774059 -0.4191325 629 73019904 7475 21 1046 7475
0.4596543 -3.3842819 -0.41926527 577 73215488 6861 21 1023 6861
0.41724083 -3.3827817 -0.41833586 524 73409536 6203 21 1059 6203
0.37406039 -3.3728704 -0.41634423 456 73606400 5352 21 1039 5352
0.33293304 -3.3801661 -0.41674256 450 73801472 5292 21 1010 5292
0.29074869 -3.376097 -0.41568035 434 73997056 5081 21 1036 5081
0.25024337 -3.3922608 -0.41740644 452 74190848 5332 21 1021 5332
0.2081109 -3.387162 -0.41634423 456 74388992 5353 21 1030 5353
0.16706333 -3.4003503 -0.41780475 454 74583040 5363 21 1065 5363
0.1252141 -3.399173 -0.41740644 493 74781952 5814 21 1035 5814
0.083491586 -3.4004536 -0.41740644 542 74975232 6392 21 1002 6392
0.041840885 -3.4081595 -0.41833586 589 75170048 6973 21 1133 6973
1.3941984e-05 -3.4123809 -0.41886696 596 75364608 7068 21 1231 7068
-0.0025694908 -0.23871748 0.0062797829 167 75560192 9 21 1001 9
-0.081213586 -3.3092966 -0.40519109 17 75753472 199 21 1320 199
-0.12313484 -3.3437078 -0.409971 11 75948800 135 21 1350 135
-0 -0 -0 6 76143872 0 21 1275 0
-0 -0 -0 300 76341248 0 21 913 0
-0.017202986 -0.23811068 0.0062797829 308 76535040 18 21 1038 18
-0.020464258 -0.24183157 0.0057486817 316 76730624 19 21 1033 19
-0 -0 -0 39 76925184 0 21 1265 0
-0 -0 -0 12 77117696 0 21 1403 0
-0 -0 -0 36 77311232 0 21 1329 0
-0.032706209 -0.24348249 0.0053503555 331 77507072 20 21 1035 20
-0.035982728 -0.24502361 0.0050848047 286 77702144 18 21 988 18
-0 -0 -0 7 77898240 0 21 1198 0
-0.043680619 -0.2538321 0.003757051 220 78094592 14 21 944 14
-0.048062917 -0.26009762 0.0028276234 185 78288640 13 21 955 13
-0.052992318 -0.26823696 0.001632645 141 78485248 10 21 967 10
-0.056896158 -0.27047536 0.0012343189 133 78680320 10 21 1030 10
-0.059776489 -0.26782271 0.0014998696 120 78877952 9 21 1034 9
-0.063516818 -0.26899761 0.0012343189 109 79072768 8 21 980 8
-0.07066799 -0.28358057 -0.00089008705 78 79269632 6 21 1022 6
-0.077680632 -0.29610944 -0.0027489422 72 79464704 6 21 985 6
-0.083953053 -0.30468601 -0.004076696 59 79661312 6 21 1021 6
-0.090171121 -0.31219992 -0.0052716741 48 79858176 5 21 952 5
-0.092268594 -0.30537924 -0.0044750222 39 80055040 4 21 1043 4
-0.11696958 -0.37036228 -0.013769298 29 80251648 4 21 966 4
-0.11217547 -0.34066638 -0.0097860368 31 80448768 4 21 961 4
-0.34244266 -0.99624127 -0.10286158 33 80642816 38 21 997 38
-0.11883201 -0.33314499 -0.0091221603 41 80839680 5 21 999 5
-0.13154715 -0.35488671 -0.012441545 47 81037056 6 21 986 6
-0.15373272 -0.39948037 -0.019080313 31 81230336 5 21 943 5
-0.14316192 -0.35891345 -0.013503747 34 81424640 5 21 986 5
-0.41692609 -1.007247 -0.10777426 26 81619968 32 21 1019 32
-0.44175446 -1.0312047 -0.11202307 26 81817088 34 21 937 34
-0.45839319 -1.0347668 -0.11335082 18 82011392 24 21 942 24
-0.47807515 -1.0443819 -0.11560801 25 82204416 34 21 1020 34
-0 -0 -0 20 82396160 0 21 1021 0
-0.51356268 -1.0528202 -0.11866184 22 82593792 31 21 1007 31
-0.53357536 -1.060603 -0.12078625 31 82788352 45 21 1020 45
-0.54472417 -1.0504564 -0.12025514 27 82983168 39 21 947 39
-0.19914065 -0.37328726 -0.018416436 91 83176448 16 21 952 16
-0.2156567 -0.39252192 -0.021735821 536 83371520 109 21 1106 109
-0.22241181 -0.39329526 -0.022266923 143 83564032 29 21 981 29
-0.22322802 -0.38368616 -0.021204719 467 83758848 93 21 1043 93
-0.22944856 -0.38346815 -0.021603044 252 83954688 51 21 1076 51
-0.23257692 -0.37809229 -0.021204719 250 84148224 50 21 979 50
-0.23348671 -0.36934856 -0.020275291 186 84342528 36 21 1024 36
-0.23043339 -0.35482508 -0.018416436 209 84538624 38 21 976 38
-0.2457851 -0.36845154 -0.021071944 140 84731904 28 21 970 28
-0.23907182 -0.3490631 -0.018416436 190 84928000 34 21 1019 34
-0.23820017 -0.33881047 -0.017221458 338 85122816 59 21 1032 59
-0.27718189 -0.38405496 -0.02518798 63 85317376 14 21 951 14
-0.30195138 -0.40768966 -0.029702343 40 85512704 10 21 988 10
-0.31173351 -0.41026336 -0.030764546 15 85710080 4 21 978 4
-0.27161425 -0.34859082 -0.020939168 165 85906432 33 21 989 33
-0.32046917 -0.40094197 -0.030498995 29 86104320 7 21 1020 7
-1.4057467 -1.713135 -0.25860709 122 86301184 613 21 988 613
-1.4011352 -1.6654224 -0.25329608 12 86497792 61 21 978 61
-1.3955681 -1.6180856 -0.24798505 75 86694144 352 21 954 352
-1.4317352 -1.6193988 -0.25130445 24 86890752 117 21 999 117
-1.4282006 -1.5760062 -0.2466573 102 87087104 473 21 991 473
-1.4487824 -1.5598135 -0.24692285 62 87280384 288 21 1029 288
-0.35232019 -0.37053263 -0.030233445 21 87475456 5 21 1004 5
-1.4533968 -1.4897414 -0.24054964 6 87670528 29 21 970 29
-0.72788996 -0.72827721 -0.099674962 83 87866112 90 21 919 90
-0.73464382 -0.71721369 -0.09927664 17 88061952 19 21 934 19
-0.76205546 -0.7259118 -0.1027288 13 88256512 15 21 1015 15
-1.4840748 -1.3788605 -0.23311421 17 88451328 74 21 952 74
-1.4891324 -1.3498962 -0.2309898 63 88648192 262 21 919 262
-1.4974172 -1.3242995 -0.22952928 45 88842240 186 21 967 186
-1.502297 -1.2961146 -0.22753765 35 89038080 143 21 975 143
-1.5112631 -1.271839 -0.22634266 48 89233664 193 21 1041 193
-1.5152632 -1.2437673 -0.22435103 55 89430528 218 21 937 218
-1.5180297 -1.2151711 -0.22222663 55 89625088 214 21 953 214
-1.526576 -1.1915735 -0.22116444 46 89820672 178 21 965 178
-1.5174178 -1.1547484 -0.21718116 57 90016768 213 21 964 213
-1.5235125 -1.1301371 -0.21585341 71 90211328 262 21 991 262
-1.2657357 -0.91513908 -0.17097534 81 90409216 202 21 1029 202
-1.2306772 -0.8670122 -0.16340715 110 90602496 255 21 982 255
-1.2191558 -0.83670753 -0.15982221 150 90799616 335 21 1003 335
-1.226035 -0.81948137 -0.1592911 150 90994176 333 21 995 333
-1.2227051 -0.79572785 -0.1571667 210 91189248 456 21 989 456
-1.2265159 -0.77695227 -0.15623727 242 91380224 520 21 1021 520
-1.2308947 -0.75872338 -0.15544061 209 91576064 446 21 1040 446
-1.2333112 -0.73948562 -0.15437841 271 91768832 572 21 1024 572
-1.2414366 -0.72379631 -0.15424564 205 91963136 432 21 1043 432
-1.2640241 -0.71632254 -0.15637004 135 92157440 291 21 1029 291
-1.3039806 -0.71795857 -0.16114996 66 92351744 150 21 1024 150
-0.84326684 -0.45105511 -0.089849584 94 92545536 88 21 962 88
-0.87689304 -0.45527664 -0.094098397 14 92740608 14 21 1035 14
-0 -0 -0 7 92932864 0 21 956 0
-0 -0 -0 6 93128960 0 21 941 0
-0 -0 -0 6 93324032 0 21 957 0
-0 -0 -0 8 93517312 0 21 973 0
-1.3961114 -0.61909378 -0.16632821 19 93710848 47 21 924 47
-0 -0 -0 5 93906688 0 21 935 0
-0 -0 -0 16 94103040 0 21 982 0
-0 -0 -0 6 94299904 0 21 1019 0
-1.4747448 -0.56910098 -0.17349806 18 94496512 47 21 999 47
-1.4221566 -0.52886581 -0.16500044 14 94691584 34 21 993 34
-1.3426811 -0.48066387 -0.15278511 25 94888960 53 21 985 53
-1.2913049 -0.44448891 -0.14468582 30 95084288 58 21 993 58
-1.264663 -0.41804188 -0.14017145 43 95281920 78 21 994 78
-1.2526896 -0.39710495 -0.1377815 55 95476480 98 21 953 98
-1.2603139 -0.38256544 -0.13817982 47 95673344 84 21 905 84
-1.2687215 -0.36817443 -0.13871092 51 95868672 92 21 903 92
-1.2817414 -0.35495579 -0.1399059 50 96064768 91 21 1006 91
-1.3300891 -0.35081533 -0.14601357 22 96260096 44 21 919 44
-0 -0 -0 6 96455680 0 21 1027 0
-0 -0 -0 7 96652032 0 21 965 0
-0 -0 -0 6 96847872 0 21 1018 0
-0.50208092 -0.10662885 -0.030498995 46 97041408 12 21 1023 12
-0.57237232 -0.11418076 -0.039926045 156 97236992 54 21 1011 54
-0.57373041 -0.10714827 -0.039926045 193 97432320 67 21 1023 67
-0.57500207 -0.10009965 -0.039926045 221 97626368 76 21 1005 76
-0.53900123 -0.087056845 -0.034880582 66 97820928 20 21 1022 20
-0 -0 -0 6 98015488 0 21 1018 0
-0 -0 -0 8 98208768 0 21 1004 0
-0 -0 -0 62 98402816 0 21 1549 0
-0 -0 -0 18 98598912 0 21 2328 0
-0 -0 -0 3 98791424 0 21 3012 0
-0 -0 -0 1 98987776 0 21 3705 0
-0 -0 -0 0 99181824 0 21 3746 0
-0 -0 -0 2 99377664 0 21 3359 0
-0 -0 -0 4 99569664 0 21 2793 0
-0 -0 -0 3 99766784 0 21 2964 0
-0 -0 -0 4 0 0 22 2882 0
-0 -0 -0 9 197376 0 22 2809 0
-0 0 -0 0 392192 0 22 3509 0
-0 0 -0 0 587264 0 22 2973 0
-0 0 -0 1 781312 0 22 2646 0
-0 0 -0 6 978432 0 22 2137 0
-0 0 -0 0 1171200 0 22 2726 0
-0 0 -0 2 1365248 0 22 3038 0
-0 0 -0 0 1559552 0 22 2925 0
-0 0 -0 2 1756160 0 22 1879 0
-0 0 -0 4 1950720 0 22 1677 0
-0 0 -0 4 2145024 0 22 1636 0
-0 0 -0 5 2341120 0 22 1642 0
-0 0 -0 6 2535936 0 22 1598 0
-0.25680768 0.037732046 -0.0025322728 931 2727680 64 22 695 64
-0 0 -0 3 2923264 0 22 1619 0
-0.25580436 0.044023059 -0.0025322728 896 3117056 62 22 775 62
-0.25621581 0.047339745 -0.0026888798 874 3310080 61 22 780 61
-0.25367826 0.050094765 -0.0023756661 901 3504128 61 22 752 61
-0.259808 0.054636642 -0.003471914 758 3699200 55 22 735 55
-0.26008159 0.058037274 -0.0036285208 770 3895040 56 22 785 56
-0.26031071 0.061452817 -0.0037851278 676 4091136 49 22 767 49
-0.26049504 0.064882688 -0.0039417343 698 4288256 51 22 749 51
-0.26636434 0.069837257 -0.0050379825 571 4480768 44 22 757 44
-0.26548725 0.073100694 -0.0050379825 418 4677888 32 22 735 32
-0.29871801 0.086259842 -0.010675829 300 4873216 29 22 737 29
-0.28629574 0.086477406 -0.0087965466 154 5069568 14 22 708 14
-0 0 -0 6 5262848 0 22 745 0
-0 0 -0 6 5459968 0 22 787 0
-0 0 -0 6 5654528 0 22 785 0
-0.27147886 0.09675993 -0.0070738713 152 5851136 13 22 760 13
-0 0 -0 5 6048000 0 22 945 0
-0 0 -0 6 6243072 0 22 872 0
-0.25581232 0.10191789 -0.0050379825 192 6439424 15 22 702 15
-0 0 -0 6 6635776 0 22 953 0
-0.25686499 0.10972206 -0.0056644096 237 6829824 19 22 766 19
-0.24105303 0.10646049 -0.0031587002 329 7026432 23 22 693 23
-0.2496054 0.11393584 -0.0048813755 470 7221760 36 22 750 36
-0.2508668 0.11825744 -0.005351196 524 7417088 41 22 779 41
-0.28312317 0.1377925 -0.011302256 782 7610368 79 22 778 79
-0.34316173 0.17234766 -0.022264736 979 7803648 148 22 829 148
-0.35066393 0.18155028 -0.023987411 1209 7999488 193 22 896 193
-0.34928063 0.18630546 -0.024144018 1234 8192000 198 22 944 198
-0.37638515 0.20677282 -0.02946865 2128 8386048 403 22 1065 403
-0.37381938 0.21137607 -0.02946865 2723 8577280 516 22 1099 516
-0.37119734 0.21594749 -0.02946865 1963 8771072 372 22 1082 372
-0.33632997 0.20118803 -0.02351759 242 8966144 38 22 824 38
-0.33047259 0.20322734 -0.022891164 34 9162240 5 22 701 5
-0.32711941 0.20673895 -0.022734556 31 9355520 4 22 724 4
-1.6548696 1.076407 -0.27440175 95 9551360 380 22 739 380
-1.6628857 1.1109025 -0.27847353 147 9747456 604 22 740 604
-1.6605289 1.1390488 -0.28066602 186 9944320 774 22 809 774
-1.6577301 1.1673034 -0.28285852 225 10140672 949 22 790 949
-1.6512846 1.193345 -0.2844246 222 10336256 945 22 818 945
-1.6507943 1.2241107 -0.28724352 237 10532096 1027 22 818 1027
-1.6576549 1.2610239 -0.29162851 214 10728192 952 22 804 952
-1.6630763 1.2976795 -0.29585689 214 10922240 977 22 788 977
-1.6647604 1.3321867 -0.29945886 177 11119872 825 22 825 825
-1.6658453 1.3669285 -0.3030608 177 11314688 843 22 775 843
-1.6693482 1.4044392 -0.30728918 227 11506432 1108 22 782 1108
-1.6729262 1.4428843 -0.31167418 225 11699712 1128 22 743 1128
-1.6787682 1.4842434 -0.31668562 178 11895040 917 22 796 917
-1.6918924 1.5332569 -0.32341969 191 12090368 1021 22 773 1021
-1.6946559 1.574072 -0.32811791 186 12284672 1021 22 776 1021
-1.6945233 1.6131395 -0.33234629 220 12479744 1236 22 778 1236
-1.6915638 1.6503686 -0.33610487 188 12672768 1076 22 845 1076
-1.6998144 1.6996391 -0.34252575 198 12868608 1173 22 803 1173
-1.7202102 1.7627889 -0.35192215 247 13064192 1537 22 797 1537
-1.780844 1.8703274 -0.37087157 349 13261568 2387 22 779 2387
-1.7638072 1.8985535 -0.37228104 644 13455872 4442 22 911 4442
-1.7098694 1.8863887 -0.36507714 370 13651968 2460 22 802 2460
-1.6898625 1.9109291 -0.36586016 298 13846272 1989 22 794 1989
-1.681766 1.9494729 -0.36961871 828 14043648 5635 22 913 5635
-1.6418211 1.9510691 -0.36570355 382 14241280 2546 22 850 2546
-1.6083577 1.9596168 -0.36335444 414 14437632 2730 22 806 2730
-1.5724648 1.964554 -0.36037892 353 14635776 2292 22 838 2292
-1.5366948 1.9689076 -0.3574034 386 14834432 2470 22 786 2470
-1.4974687 1.9679649 -0.35348821 349 15029760 2190 22 804 2190
-1.4579111 1.9655656 -0.34941643 383 15226368 2353 22 803 2353
-1.4215328 1.9664974 -0.34612769 371 15423232 2241 22 804 2241
-1.3864901 1.9684502 -0.34315217 378 15618048 2248 22 824 2248
-1.3538499 1.9730991 -0.34080306 378 15812864 2221 22 790 2221
-1.3245974 1.982173 -0.33939359 354 16009472 2063 22 779 2063
-1.2937112 1.9883432 -0.33751431 382 16204288 2205 22 818 2205
-1.2607609 1.9907176 -0.33500862 351 16397824 1998 22 837 1998
-1.2274303 1.9917438 -0.33234629 365 16591616 2049 22 775 2049
-1.1932505 1.9905595 -0.32937077 369 16785152 2040 22 817 2040
-1.1632638 1.9956656 -0.32764807 362 16979456 1981 22 805 1981
-1.1284652 1.9917428 -0.32435936 451 17172736 2425 22 841 2425
-1.0996532 1.997653 -0.32294989 417 17367808 2228 22 873 2228
-1.0708668 2.0031571 -0.32154042 394 17559296 2086 22 804 2086
-1.0393829 2.0029964 -0.31919131 468 17754880 2445 22 819 2445
-0.8571164 1.7024014 -0.26359588 306 17948416 1143 22 877 1143
-0.86431277 1.7704874 -0.27377534 174 18143488 693 22 751 693
-0.85814178 1.8139971 -0.27956977 194 18339328 802 22 757 802
-0.86377782 1.8854549 -0.29021904 184 18534400 812 22 787 812
-0.85097903 1.9193901 -0.29429084 221 18728704 1000 22 786 1000
-0.80401921 1.8752195 -0.28489441 110 18925568 470 22 790 470
-0.81382084 1.9643342 -0.29851922 274 19121920 1271 22 800 1271
-0.80138648 2.00352 -0.30353063 307 19317504 1467 22 820 1467
-0.53296715 1.381041 -0.19609834 90 19512320 202 22 791 202
-0.506347 1.3615547 -0.19171335 197 19706368 426 22 771 426
-0.48660684 1.3592962 -0.19030388 217 19900160 464 22 804 464
-0.46250206 1.3436838 -0.18670192 175 20097280 364 22 868 364
-0.43792573 1.3248743 -0.18263015 179 20293888 357 22 816 357
-0.41447827 1.3075507 -0.17887159 190 20489728 367 22 786 367
-0.3903766 1.2860739 -0.17448659 176 20687616 326 22 766 326
-0.36879054 1.2708468 -0.17119785 185 20881664 332 22 824 332
-0.34684789 1.2524308 -0.16743928 185 21078272 320 22 807 320
-0.32767826 1.2422668 -0.16509017 202 21274368 342 22 829 342
-0.30665201 1.2232003 -0.16133161 210 21470976 343 22 756 343
-0.28796872 1.2114959 -0.1588259 213 21663744 338 22 839 338
-0.26897058 1.1966285 -0.15585038 191 21860096 296 22 868 296
-0.24547449 1.1582896 -0.14911628 143 22053632 205 22 784 205
-0.2270053 1.1399032 -0.14567094 103 22249728 143 22 751 143
-0.20830227 1.1173571 -0.14159915 61 22445312 81 22 770 81
-0.35539007 2.0472305 -0.29084548 151 22640128 669 22 805 669
-0.32616407 2.0260839 -0.28677371 315 22836736 1360 22 807 1360
-0.30069709 2.026026 -0.28614727 325 23033088 1399 22 762 1399
-0.27514791 2.0246699 -0.28536424 346 23227392 1482 22 804 1482
-0.25028139 2.027894 -0.28536424 341 23422720 1460 22 780 1460
-0.22515966 2.0288494 -0.28505102 338 23619328 1445 22 813 1445
-0.2001489 2.0304766 -0.28489441 378 23814144 1615 22 780 1615
-0.17513213 2.031796 -0.28473783 436 24008960 1860 22 785 1860
-0.15069352 2.0406871 -0.28583404 339 24203008 1455 22 800 1455
-0.11022338 1.7910013 -0.24589932 363 24399360 1199 22 808 1199
-0.10105072 2.0536354 -0.28740013 386 24595712 1678 22 859 1678
-0.077219166 2.0922265 -0.29335117 572 24789504 2573 22 779 2573
-0.047677603 1.9350381 -0.2682941 432 24984064 1660 22 813 1660
-0.025417654 2.0579383 -0.28771335 438 25181696 1902 22 826 1902
-0.00015650026 2.1055031 -0.29523048 827 25375744 3763 22 893 3763
0.022061829 1.8130212 -0.24887484 69 25572352 233 22 761 233
0.044016574 1.8007655 -0.24699555 70 25767168 234 22 688 234
0.065856196 1.7931809 -0.24589932 51 25962240 169 22 736 169
0.087419197 1.7833595 -0.24448985 48 26156544 157 22 752 157
0.10717367 1.7476497 -0.23900861 37 26351872 117 22 697 117
0.12766601 1.7333982 -0.23697272 53 26546176 164 22 745 164
0.14740063 1.7139888 -0.23415379 36 26740992 109 22 758 109
0.16522463 1.6796154 -0.22898577 40 26935552 117 22 753 117
0.18331735 1.6548839 -0.22538382 40 27131136 114 22 713 114
0.20046534 1.6270239 -0.22131203 33 27323648 91 22 701 91
0.21735671 1.6019322 -0.21771008 34 27517440 91 22 743 91
0.23337285 1.5747204 -0.2137949 30 27713280 78 22 794 78
0.24875441 1.5473604 -0.20987974 32 27905280 81 22 730 81
0.26704833 1.5402988 -0.20925331 19 28100608 48 22 746 48
0.28140789 1.5126319 -0.20533814 18 28296192 44 22 718 44
0.27507925 1.3841072 -0.18513586 100 28492544 204 22 800 204
0.31189582 1.474351 -0.20032673 43 28688384 101 22 713 101
0.32909888 1.4665581 -0.1997003 47 28884992 109 22 759 109
0.34661439 1.4604872 -0.19938707 36 29079552 83 22 745 83
0.35778829 1.4292988 -0.19500209 33 29276672 74 22 731 74
0.38889959 1.4763715 -0.20345886 72 29471744 172 22 743 172
0.39829132 1.4400767 -0.19829082 53 29668352 122 22 732 122
0.40189877 1.3867046 -0.19030388 26 29862656 56 22 749 56
0.41917232 1.3826134 -0.19046049 34 30059520 73 22 738 73
0.42715609 1.34912 -0.18576229 14 30254848 29 22 735 29
0.44460943 1.3465899 -0.1862321 16 30450944 33 22 769 33
0.46270767 1.3457021 -0.18701513 29 30646016 60 22 747 60
0.48784035 1.3640997 -0.19108692 41 30842112 89 22 713 89
0.50695276 1.3644906 -0.19218317 53 31037696 115 22 758 115
0.5261479 1.3646169 -0.19327942 74 31234304 163 22 725 163
0.54212052 1.3562235 -0.19296619 64 31428352 140 22 740 140
0.55947882 1.3512936 -0.19327942 60 31625472 132 22 781 132
0.57796526 1.3488648 -0.19406244 66 31821824 146 22 757 146
0.59487474 1.3425735 -0.19421905 72 32016640 159 22 790 159
0.60595733 1.3234997 -0.19218317 48 32211456 104 22 766 104
0.52754062 1.1159793 -0.15710323 240 32407040 375 22 782 375
0.54379553 1.1147467 -0.15804288 324 32602112 511 22 792 511
0.55343676 1.1000502 -0.15663341 496 32796160 771 22 813 771
0.56734937 1.0940524 -0.15679002 542 32990720 845 22 788 845
0.58119804 1.0878788 -0.15694663 407 33184000 635 22 796 635
0.59879118 1.0884516 -0.15835609 272 33378816 431 22 754 431
0.67734903 1.1961675 -0.17934141 44 33572352 85 22 747 85
0.69147938 1.1869121 -0.17918479 45 33768704 87 22 789 87
0.7070083 1.1800313 -0.17949802 35 33959680 68 22 748 68
0.72195405 1.1721072 -0.17965461 32 34154240 62 22 747 62
0.73734021 1.1648282 -0.17996784 34 34348288 66 22 738 66
0.74565339 1.1465862 -0.17824516 61 34543616 117 22 719 117
0.77283895 1.157057 -0.18200372 24 34740992 48 22 760 48
0.7813912 1.1393425 -0.18043765 42 34935552 82 22 753 82
0.7913323 1.1240158 -0.17934141 43 35130624 83 22 772 83
