# .PCD v0.7 - Point Cloud Data file format
VERSION 0.7
FIELDS x y z intensity t reflectivity ring noise range
SIZE 4 4 4 4 4 2 2 2 4
TYPE F F F F U U U U U
COUNT 1 1 1 1 1 1 1 1 1
WIDTH 773
HEIGHT 1
VIEWPOINT 0 0 0 1 0 0 0
POINTS 773
DATA ascii
1.8800584 0.56976676 0.73572814 274 45699328 1197 1 1141 1197
1.8932379 0.54848492 0.73809129 331 45895168 1454 1 1170 1454
1.8934751 0.52345622 0.73572814 256 46089984 1117 1 1159 1117
1.9043076 0.50137836 0.73741609 292 46286336 1281 1 1145 1281
1.9084905 0.47751525 0.73674095 284 46483456 1243 1 1127 1243
1.9251977 0.45666406 0.74079198 108 46679040 479 1 1130 479
1.7835716 0.73823434 0.67619377 224 44136192 929 2 1224 929
1.80659 0.72192019 0.68126267 310 44332544 1306 2 1253 1306
1.8117727 0.69833237 0.67999548 383 44527104 1608 2 1206 1608
1.8202059 0.67604655 0.67999548 332 44722176 1392 2 1270 1392
1.8265786 0.65302068 0.67936182 366 44916480 1534 2 1178 1534
1.8389398 0.63209724 0.68094587 374 45113344 1574 2 1207 1574
1.8267416 0.60294658 0.67397612 113 45307904 466 2 1130 466
1.8638461 0.58992344 0.68443078 314 45506048 1337 2 1135 1337
1.8736683 0.56783152 0.68538117 356 45699328 1519 2 1203 1519
1.8823175 0.54532349 0.68601483 350 45895168 1497 2 1203 1497
1.8906963 0.52268857 0.68664843 358 46089984 1533 2 1198 1533
1.8795397 0.49486247 0.68062907 66 46286336 278 2 1163 278
1.8946726 0.47406077 0.68379718 46 46483456 196 2 1124 196
1.8911183 0.44858721 0.68062907 27 46679040 115 2 1096 115
1.927949 0.43239778 0.69140053 299 46874880 1299 2 1189 1299
1.9293979 0.40792227 0.69013333 336 47071232 1455 2 1178 1455
1.9342585 0.38421488 0.69013333 288 47266048 1247 2 1189 1247
1.7697526 0.75771719 0.62765348 475 43942656 1934 3 1346 1934
1.7586135 0.72754729 0.62085217 115 44136192 460 3 1287 460
1.7798301 0.71086973 0.62499207 47 44332544 193 3 1317 193
1.787528 0.68863171 0.62469637 57 44527104 233 3 1306 233
1.8056959 0.67029911 0.62794918 291 44722176 1187 3 1365 1187
1.8191833 0.6500175 0.62972343 388 44916480 1592 3 1365 1592
1.8125669 0.62268132 0.62499207 57 45113344 233 3 1325 233
1.8200717 0.60039145 0.62499207 46 45307904 188 3 1326 188
1.8336784 0.58002663 0.62706202 52 45506048 214 3 1291 214
1.8406581 0.55748087 0.62706202 41 45699328 170 3 1293 170
1.8556194 0.53724056 0.62972343 185 45895168 760 3 1391 760
1.8574684 0.51315778 0.62824488 305 46089984 1246 3 1347 1246
1.8682451 0.49153957 0.62972343 50 46286336 208 3 1316 208
1.8676488 0.46695563 0.62765348 52 46483456 214 3 1358 214
1.8778863 0.44510221 0.62913203 36 46679040 151 3 1306 151
1.9018509 0.42619842 0.63504618 299 46874880 1249 3 1304 1249
1.9172195 0.40499753 0.63829893 409 47071232 1726 3 1380 1726
1.9257932 0.38218287 0.63948178 387 47266048 1640 3 1318 1640
1.9303381 0.35852167 0.63948178 417 47462144 1767 3 1351 1767
1.9458883 0.33675909 0.64303029 380 47659008 1630 3 1347 1630
1.952704 0.31330815 0.64391738 380 47853312 1635 3 1300 1635
1.9705771 0.29141545 0.64835304 65 48048640 286 3 1373 286
1.7238911 0.7894305 0.571769 139 43555840 542 4 1116 542
1.7369665 0.76977426 0.57286417 536 43749376 2095 4 1154 2095
1.7436297 0.74726498 0.57204282 211 43942656 824 4 1025 824
1.7500024 0.72470826 0.57122141 60 44136192 235 4 1036 235
1.7551914 0.70175099 0.5701263 40 44332544 157 4 987 157
1.7681581 0.6818887 0.57149523 47 44527104 185 4 984 185
1.7854089 0.66348779 0.57423311 196 44722176 772 4 965 772
1.7934165 0.64152813 0.57423311 495 44916480 1944 4 1053 1944
1.8002445 0.61915922 0.57395935 519 45113344 2037 4 1042 2037
1.8077068 0.59702086 0.57395935 512 45307904 2010 4 1064 2010
1.8534095 0.58698118 0.58545858 89 45506048 366 4 1046 366
1.8227345 0.55275661 0.57423311 379 45699328 1489 4 1094 1489
1.8487804 0.53596717 0.57998276 526 45895168 2110 4 1078 2110
1.8561454 0.51349568 0.58025652 519 46089984 2086 4 1012 2086
1.863237 0.49092412 0.58053035 527 46286336 2119 4 1034 2119
1.8700542 0.46825582 0.58080411 527 46483456 2121 4 1041 2121
1.8868895 0.44793567 0.58408964 70 46679040 286 4 1080 286
1.9006906 0.42664108 0.58655375 390 46874880 1604 4 1059 1604
1.904842 0.40308562 0.58627993 506 47071232 2077 4 1070 2077
1.9134185 0.38042939 0.5873751 511 47266048 2106 4 1066 2106
1.9217253 0.35762328 0.58847028 400 47462144 1656 4 1042 1656
1.9354459 0.33565542 0.59120822 56 47659008 236 4 1042 236
1.9403688 0.31203178 0.59148198 57 47853312 240 4 1003 240
1.9611773 0.29073235 0.59641021 100 48048640 428 4 1007 428
1.9598321 0.26599795 0.59504128 476 48244224 2017 4 1080 2017
1.9677216 0.24251507 0.59641021 437 48441856 1860 4 1045 1860
2.0078318 0.22247368 0.60708809 234 48637184 1036 4 1038 1036
1.7056996 0.80656797 0.52275091 476 43360000 1811 5 1274 1811
1.7110687 0.78356177 0.52149314 543 43555840 2055 5 1257 2055
1.7240951 0.76407313 0.52249938 600 43749376 2283 5 1312 2283
1.7369002 0.74438256 0.52350563 551 43942656 2102 5 1260 2102
1.748587 0.72412246 0.52426028 575 44136192 2205 5 1290 2205
1.7591389 0.70332831 0.52476346 570 44332544 2186 5 1219 2186
1.7685405 0.6820361 0.525015 158 44527104 607 5 1118 607
1.7713332 0.65826029 0.52350563 459 44722176 1752 5 1231 1752
1.7820117 0.63745111 0.52426028 476 44916480 1826 5 1304 1826
1.7897 0.61553508 0.52426028 533 45113344 2039 5 1249 2039
1.798957 0.59413308 0.52476346 515 45307904 1978 5 1310 1978
1.8125716 0.57405657 0.52652436 81 45506048 314 5 1150 314
1.8222585 0.55261236 0.52727908 63 45699328 245 5 1122 245
1.8344804 0.53182465 0.52878845 68 45895168 266 5 1172 266
1.8380699 0.50849909 0.52803373 264 46089984 1027 5 1179 1027
1.8554031 0.48886168 0.53105253 453 46286336 1782 5 1151 1782
1.8697125 0.46817032 0.53331655 75 46483456 298 5 1161 298
1.8800255 0.44630763 0.53457439 48 46679040 192 5 1142 192
1.8863052 0.42341501 0.53482592 53 46874880 212 5 1154 212
1.8970406 0.40143636 0.53633529 69 47071232 279 5 1109 279
1.8875844 0.37529832 0.5325619 320 47266048 1268 5 1161 1268
1.8987087 0.35334468 0.5343228 414 47462144 1651 5 1150 1651
1.9219745 0.33332187 0.53935409 57 47659008 233 5 1110 233
1.928787 0.3101716 0.54010874 47 47853312 192 5 1165 192
1.9314907 0.28633735 0.53985721 52 48048640 213 5 1158 213
1.9482861 0.26443315 0.54337907 582 48244224 2405 5 1179 2405
1.9533055 0.24074116 0.54388219 532 48441856 2202 5 1173 2202
1.9599606 0.2171786 0.54488844 504 48637184 2095 5 1254 2095
1.9721102 0.19405642 0.54740405 493 48832512 2069 5 1198 2069
1.9810932 0.17042035 0.54916501 492 49025536 2080 5 1213 2080
1.9849658 0.1462383 0.54966813 448 49222400 1896 5 1250 1896
1.6915307 0.82541841 0.47550493 486 43164928 1819 6 1141 1819
1.7094532 0.80834204 0.47756621 110 43360000 417 6 1109 417
1.6997715 0.77839112 0.47252753 58 43555840 216 6 988 216
1.7127557 0.75905061 0.47344366 80 43749376 298 6 1091 298
1.7165726 0.73567569 0.47206947 465 43942656 1712 6 1256 1712
1.7218735 0.71306628 0.47115335 427 44136192 1566 6 1224 1566
1.7395337 0.69549447 0.47344366 63 44332544 235 6 995 235
1.7479374 0.67409533 0.47344366 56 44527104 209 6 1059 209
1.7579031 0.65327251 0.47390172 59 44722176 221 6 1066 221
1.7694538 0.63296181 0.47481784 45 44916480 169 6 1114 169
1.7816907 0.61278224 0.475963 173 45113344 650 6 1101 650
1.7909251 0.59148222 0.47642106 371 45307904 1396 6 1076 1396
1.7989768 0.56975394 0.47665009 91 45506048 344 6 1066 344
1.805833 0.54763484 0.47665009 63 45699328 239 6 1017 239
1.8161573 0.52651668 0.47756621 73 45895168 277 6 1104 277
1.815914 0.50237447 0.475963 308 46089984 1156 6 1093 1156
1.835121 0.48352215 0.47916943 499 46286336 1899 6 1130 1899
1.8409164 0.46096596 0.47916943 486 46483456 1850 6 1093 1850
1.8464346 0.43834037 0.47916943 488 46679040 1857 6 1162 1857
1.8611729 0.41777885 0.48145974 87 46874880 336 6 1050 336
1.8585407 0.39329726 0.47962749 418 47071232 1595 6 1158 1595
1.8746843 0.3727361 0.48237586 535 47266048 2067 6 1082 2067
1.8858163 0.3509481 0.48397905 582 47462144 2263 6 1164 2263
1.8976541 0.32910895 0.48581129 574 47659008 2249 6 1171 2249
1.9073164 0.30672324 0.48718548 584 47853312 2304 6 1095 2304
1.9638977 0.29113507 0.49978217 80 48048640 334 6 1108 334
1.9354906 0.26269901 0.49222416 566 48244224 2282 6 1107 2282
1.9433993 0.2395222 0.49336931 518 48441856 2100 6 1130 2100
1.9519974 0.21629778 0.4947435 497 48637184 2026 6 1056 2026
1.9467546 0.19156638 0.49291125 282 48832512 1141 6 1089 1141
1.9567176 0.16832821 0.4947435 70 49025536 287 6 1008 287
1.9557235 0.14408961 0.4940564 58 49222400 237 6 1082 237
1.9777482 0.12132674 0.49886605 286 49416704 1187 6 1112 1187
2.0072837 0.098424733 0.50550795 439 49612032 1874 6 1077 1874
2.0093131 0.07382042 0.50573695 438 49803520 1872 6 1131 1872
1.6586362 0.86076432 0.42644724 252 42773760 921 7 1609 921
1.6690742 0.8403455 0.42644724 446 42970624 1628 7 1540 1628
1.6792608 0.81980008 0.42644724 66 43164928 243 7 1362 243
1.6874254 0.79829466 0.42603517 58 43360000 213 7 1415 213
1.6962049 0.77711987 0.42582914 77 43555840 283 7 1350 283
1.7020351 0.75466055 0.42500499 73 43749376 267 7 1409 267
1.7066705 0.73178989 0.42397484 277 43942656 1001 7 1435 1001
1.7182345 0.71191448 0.42459294 527 44136192 1907 7 1522 1907
1.7277501 0.69113868 0.42479897 531 44332544 1923 7 1566 1923
1.7315363 0.66812414 0.42376879 344 44527104 1240 7 1503 1240
1.7597846 0.65432376 0.42830154 50 44722176 187 7 1398 187
1.7510968 0.62674713 0.42459294 358 44916480 1297 7 1457 1297
1.7697604 0.60903007 0.42706534 510 45113344 1868 7 1490 1868
1.77803 0.58757335 0.42727137 542 45307904 1988 7 1507 1988
1.7869724 0.56630081 0.42768344 518 45506048 1905 7 1495 1905
1.7984694 0.54574907 0.42871359 590 45699328 2180 7 1485 2180
1.8163095 0.52690727 0.43118599 124 45895168 466 7 1368 466
1.8113211 0.50144804 0.42871359 440 46089984 1625 7 1527 1625
1.8230158 0.48067832 0.42994979 553 46286336 2055 7 1562 2055
1.8297265 0.45850858 0.43015584 525 46483456 1953 7 1496 1953
1.8371195 0.43647251 0.43056789 548 46679040 2044 7 1492 2044
1.8385181 0.41303816 0.42974377 62 46874880 232 7 1423 232
1.8472776 0.39125589 0.43056789 56 47071232 211 7 1378 211
1.8538594 0.36893907 0.43097997 60 47266048 227 7 1339 227
1.8832601 0.3508158 0.43633685 260 47462144 1000 7 1361 1000
1.8903159 0.32818046 0.43695495 476 47659008 1834 7 1488 1834
1.8835733 0.30324987 0.43468857 87 47853312 334 7 1354 334
1.8900567 0.28054312 0.43530667 60 48048640 232 7 1355 232
1.902084 0.25851238 0.43716097 74 48244224 288 7 1348 288
1.9157963 0.23646788 0.43942735 71 48441856 279 7 1380 279
1.9204991 0.21315581 0.43983939 395 48637184 1544 7 1342 1544
1.9229702 0.18957227 0.43983939 266 48832512 1040 7 1400 1040
1.9699993 0.16981731 0.44931695 60 49025536 248 7 1343 248
1.9787662 0.14613277 0.45075917 70 49222400 291 7 1360 291
1.9862707 0.12219864 0.45199537 76 49416704 317 7 1369 317
1.9846886 0.097671121 0.45137727 511 49612032 2111 7 1499 2111
1.991605 0.07352405 0.45261347 547 49803520 2274 7 1382 2274
2.0001833 0.049269717 0.45426175 594 49998848 2488 7 1438 2488
2.0114005 0.024851598 0.4565281 564 50191616 2387 7 1495 2387
2.0252538 0.0001652541 0.45941257 570 50387456 2446 7 1423 2446
2.0446727 -0.024930036 0.46353325 186 50582528 816 7 1357 816
1.6462476 0.88014472 0.38033432 448 42579200 1619 8 1314 1619
1.6499425 0.85625494 0.37887233 517 42773760 1853 8 1297 1853
1.6533 0.83240759 0.37741032 547 42970624 1940 8 1259 1940
1.6633904 0.81205636 0.37741032 559 43164928 1986 8 1344 1986
1.6732304 0.79158288 0.37741032 549 43360000 1947 8 1257 1947
1.6837122 0.77139944 0.37759307 552 43555840 1963 8 1301 1963
1.6903552 0.74948466 0.37704483 445 43749376 1575 8 1240 1575
1.7021362 0.72984678 0.37759307 531 43942656 1889 8 1365 1889
1.7127811 0.70965624 0.37795857 532 44136192 1893 8 1281 1893
1.7222736 0.68894935 0.37814131 503 44332544 1796 8 1291 1796
1.7333504 0.66882372 0.37868959 559 44527104 2000 8 1316 2000
1.7358978 0.64544779 0.37759307 71 44722176 252 8 1196 252
1.7501678 0.62641484 0.37887233 36 44916480 130 8 1114 130
1.7577231 0.60489041 0.37887233 63 45113344 226 8 1100 226
1.7706151 0.58512467 0.37996882 406 45307904 1462 8 1223 1462
1.773913 0.5621652 0.37923783 550 45506048 1974 8 1336 1974
1.7919683 0.54377776 0.38143083 70 45699328 255 8 1175 255
1.800395 0.52229404 0.38179633 45 45895168 164 8 1139 164
1.8066688 0.50016111 0.38179633 68 46089984 248 8 1101 248
1.8174241 0.47920519 0.38271007 42 46286336 154 8 1169 154
1.83652 0.46020949 0.3852686 115 46483456 427 8 1201 427
1.8133317 0.43082604 0.37978607 434 46679040 1560 8 1236 1560
1.8357494 0.41241676 0.38307559 67 46874880 246 8 1207 246
1.8425958 0.39026526 0.38344109 50 47071232 184 8 1133 184
1.8453177 0.367241 0.38307559 52 47266048 191 8 1157 191
1.8680501 0.34798563 0.38654783 288 47462144 1077 8 1164 1077
1.8750859 0.3255395 0.38709608 586 47659008 2201 8 1289 2201
1.880881 0.30281696 0.3874616 532 47853312 2000 8 1259 2000
1.8883455 0.28028947 0.38819259 561 48048640 2117 8 1264 2117
1.8955399 0.2576243 0.38892359 108 48244224 410 8 1159 410
1.9083164 0.23554614 0.39075109 544 48441856 2081 8 1277 2081
1.9188806 0.2129765 0.39221311 551 48637184 2126 8 1244 2126
1.9252634 0.18979788 0.3929441 498 48832512 1929 8 1208 1929
1.937243 0.1670001 0.39477161 516 49025536 2020 8 1239 2020
1.9469905 0.14379233 0.39623362 512 49222400 2022 8 1206 2022
1.9387953 0.11928713 0.39440611 156 49416704 610 8 1130 610
1.9705545 0.096978299 0.40007135 510 49612032 2056 8 1227 2056
1.9774911 0.073005743 0.40116787 470 49803520 1905 8 1221 1905
1.9811867 0.048805453 0.40171611 533 49998848 2169 8 1177 2169
1.9934336 0.024633059 0.40390912 145 50191616 597 8 1148 597
2.0102994 0.00016688535 0.40701589 53 50387456 222 8 1170 222
2.0160487 -0.024575626 0.40811238 58 50582528 245 8 1095 245
2.0352523 -0.049798496 0.41176739 442 50777088 1897 8 1239 1897
2.0315406 -0.074661545 0.41121912 479 50970624 2050 8 1204 2050
2.0393093 -0.10002118 0.41286388 245 51167232 1058 8 1171 1058
1.60865 0.88523459 0.32944316 564 42383872 1955 9 1328 1955
1.6307127 0.87147427 0.33151042 89 42579200 312 9 1282 312
1.6220019 0.84139985 0.32801199 172 42773760 589 9 1251 589
1.6489627 0.82986122 0.33103335 510 42970624 1786 9 1355 1786
1.6536981 0.80696672 0.33007923 605 43164928 2106 9 1444 2106
1.6679393 0.7887218 0.33087432 549 43360000 1921 9 1314 1921
1.6667199 0.76326376 0.32896608 74 43555840 255 9 1217 255
1.6768636 0.74315286 0.32912511 59 43749376 204 9 1228 204
1.6849494 0.72213048 0.32896608 65 43942656 224 9 1221 224
1.6945964 0.70177674 0.32912511 69 44136192 239 9 1196 239
1.6865784 0.67433465 0.32626277 155 44332544 528 9 1309 528
1.7149934 0.66139811 0.32976121 64 44527104 222 9 1223 222
1.7248316 0.6409902 0.33007923 44 44722176 153 9 1215 153
1.7353567 0.6207726 0.3305563 54 44916480 188 9 1259 188
1.7419102 0.59910947 0.33039728 60 45113344 209 9 1236 209
1.7331929 0.57242823 0.32769394 244 45307904 837 9 1361 837
1.7542059 0.55558461 0.33007923 586 45506048 2040 9 1384 2040
1.7637262 0.53487492 0.3305563 554 45699328 1933 9 1395 1933
1.7739503 0.51428986 0.33119237 476 45895168 1670 9 1355 1670
1.7924985 0.49590167 0.33325961 79 46089984 280 9 1230 280
1.7994038 0.47411895 0.33341864 307 46286336 1095 9 1314 1095
1.8022132 0.45128295 0.33294159 555 46483456 1970 9 1376 1970
1.8104973 0.42981657 0.33341864 524 46679040 1866 9 1339 1866
1.8214155 0.40886289 0.33437276 537 46874880 1923 9 1390 1923
1.8301594 0.38729733 0.33500883 517 47071232 1860 9 1395 1860
1.836711 0.36519396 0.33532688 176 47266048 637 9 1318 637
1.8478488 0.34389025 0.33644003 390 47462144 1418 9 1330 1418
1.859712 0.32253647 0.33771217 496 47659008 1816 9 1416 1816
1.8674291 0.3003169 0.33834827 515 47853312 1894 9 1392 1894
1.8709739 0.27737805 0.33834827 577 48048640 2122 9 1387 2122
1.8830419 0.25559077 0.33977944 100 48244224 370 9 1282 370
1.899755 0.23415175 0.3420057 65 48441856 245 9 1196 245
1.9024853 0.21082121 0.3420057 68 48637184 256 9 1242 256
1.9000164 0.18697646 0.3412106 302 48832512 1130 9 1221 1130
1.9021678 0.16364625 0.3412106 372 49025536 1392 9 1265 1392
1.9286484 0.14210014 0.34518611 71 49222400 273 9 1234 273
1.9341886 0.118663 0.34582219 60 49416704 234 9 1318 234
1.9493046 0.095592886 0.34804845 54 49612032 211 9 1232 211
1.9582238 0.071953192 0.34932062 64 49803520 252 9 1250 252
1.9717901 0.048228696 0.35138786 474 49998848 1893 9 1248 1893
1.9761823 0.024075508 0.35202396 131 50191616 525 9 1202 525
1.9921254 -0.00018158146 0.35456827 64 50387456 261 9 1238 261
1.9959219 -0.024677591 0.35520434 80 50582528 327 9 1280 327
2.0023775 -0.049340326 0.35631749 293 50777088 1207 9 1251 1207
2.0312192 -0.075007424 0.36108807 486 50970624 2064 9 1329 2064
2.0380344 -0.10031775 0.36236024 472 51167232 2017 9 1268 2017
2.0465038 -0.12592821 0.36395043 473 51360768 2040 9 1273 2040
2.0536656 -0.15168865 0.3653816 489 51556352 2133 9 1314 2133
2.0614858 -0.17772871 0.36697179 287 51752704 1265 9 1341 1265
1.6031106 0.88218778 0.28438491 87 42383872 300 10 1303 300
1.6181852 0.86478269 0.28506261 59 42579200 205 10 1313 205
1.6304348 0.84577203 0.28533369 57 42773760 196 10 1257 196
1.6406908 0.8257004 0.28533369 67 42970624 233 10 1340 233
1.6480284 0.80420148 0.28492707 345 43164928 1185 10 1349 1185
1.638962 0.77502662 0.28208068 645 43360000 2162 10 1431 2162
1.6483494 0.75485569 0.28208068 252 43555840 847 10 1301 847
1.6574885 0.7345711 0.28208068 71 43749376 238 10 1249 238
1.6590921 0.71105504 0.28099632 75 43942656 249 10 1242 249
1.7043113 0.70579755 0.28641802 356 44136192 1238 10 1316 1238
1.6852429 0.673801 0.28235176 623 44332544 2094 10 1427 2094
1.6933846 0.65306979 0.28235176 622 44527104 2090 10 1394 2090
1.7022001 0.63258511 0.2824873 598 44722176 2014 10 1334 2014
1.7126335 0.61264938 0.28289393 588 44916480 1986 10 1385 1986
1.7312664 0.59545112 0.28452045 461 45113344 1577 10 1396 1577
1.7299755 0.57136631 0.28330055 639 45307904 2163 10 1429 2163
1.7396905 0.5509907 0.28370717 646 45506048 2194 10 1397 2194
1.7482175 0.53017521 0.28397825 643 45699328 2189 10 1404 2189
1.7574468 0.50950897 0.28438491 661 45895168 2258 10 1390 2258
1.7549723 0.48552823 0.28316501 184 46089984 624 10 1346 624
1.7732539 0.46723461 0.28492707 63 46286336 219 10 1290 219
1.7826988 0.44640073 0.28546923 66 46483456 227 10 1281 227
1.7899705 0.42494795 0.28574032 430 46679040 1487 10 1327 1487
1.8066516 0.40555194 0.28736684 627 46874880 2192 10 1415 2192
1.8114923 0.383351 0.28736684 96 47071232 335 10 1284 335
1.821891 0.36225042 0.28818008 81 47266048 285 10 1247 285
1.8369141 0.34185755 0.28967106 51 47462144 181 10 1280 181
1.8468283 0.32030469 0.29048431 52 47659008 189 10 1303 189
1.8515981 0.29777429 0.29061985 69 47853312 250 10 1300 250
1.8600132 0.27575538 0.29129755 497 48048640 1793 10 1411 1793
1.8720933 0.25410694 0.29251745 80 48244224 294 10 1344 294
1.8770373 0.23135635 0.29278854 82 48441856 302 10 1315 302
1.8826894 0.20863156 0.29319516 71 48637184 259 10 1257 259
1.9068005 0.18764269 0.29617709 266 48832512 998 10 1361 998
1.9040239 0.16380556 0.29549938 498 49025536 1857 10 1388 1857
1.9098431 0.14071834 0.29604155 501 49222400 1875 10 1471 1875
1.9193375 0.11775482 0.29712591 500 49416704 1887 10 1289 1887
1.9394403 0.095111087 0.29970121 69 49612032 268 10 1332 268
1.9394712 0.071267821 0.29956567 471 49803520 1810 10 1406 1810
1.9600093 0.04794284 0.30227652 599 49998848 2349 10 1404 2349
1.9683757 0.023981918 0.30336085 633 50191616 2503 10 1416 2503
1.9804111 -0.00017825911 0.30498737 666 50387456 2666 10 1358 2666
1.9733249 -0.02439386 0.30403858 383 50582528 1523 10 1307 1523
1.9817911 -0.048829116 0.30525845 374 50777088 1501 10 1309 1501
2.0067852 -0.074100524 0.30878258 517 50970624 2128 10 1323 2128
2.0156202 -0.09921024 0.31013799 542 51167232 2254 10 1317 2254
2.00634 -0.12344925 0.30905366 423 51360768 1745 10 1391 1745
2.0313518 -0.15003631 0.3127133 66 51556352 283 10 1305 283
2.0342932 -0.17537925 0.31339103 59 51752704 254 10 1332 254
2.0704408 -0.20412825 0.31867719 380 51946240 1681 10 1311 1681
2.0628562 -0.22897294 0.31799948 596 52141568 2621 10 1350 2621
2.073657 -0.25597197 0.31989706 393 52337408 1751 10 1397 1751
1.5814861 0.89574903 0.23798031 575 42188288 1926 11 1093 1926
1.5871347 0.87340069 0.23731254 666 42383872 2214 11 1173 2214
1.5933503 0.8515172 0.23675606 443 42579200 1466 11 1078 1466
1.6248538 0.84287852 0.23942715 78 42773760 266 11 1033 266
1.6102164 0.8103717 0.23631087 580 42970624 1909 11 1178 1909
1.6200397 0.79055089 0.23631087 668 43164928 2199 11 1128 2199
1.629619 0.77061099 0.23631087 675 43360000 2222 11 1081 2222
1.6389529 0.75055498 0.23631087 660 43555840 2173 11 1096 2173
1.6462226 0.72958106 0.23608828 641 43749376 2107 11 1066 2107
1.6705815 0.7159763 0.23798031 105 43942656 353 11 1018 353
1.6829149 0.69694197 0.23842549 133 44136192 449 11 1029 449
1.6765752 0.67033756 0.23664476 603 44332544 1994 11 1086 1994
1.6828204 0.64899814 0.23642217 586 44527104 1933 11 1105 1933
1.6925211 0.62899047 0.23664476 592 44722176 1957 11 1070 1957
1.7001123 0.60817325 0.23664476 99 44916480 329 11 997 329
1.7102671 0.58823353 0.23697865 72 45113344 240 11 1024 240
1.7211317 0.56844753 0.23742382 78 45307904 261 11 1017 261
1.7298727 0.54788351 0.23764642 75 45506048 252 11 965 252
1.7421724 0.52834332 0.2383142 94 45699328 317 11 1052 317
1.7532974 0.50830698 0.23887067 97 45895168 329 11 1018 329
1.760361 0.48701784 0.23898196 80 46089984 272 11 996 272
1.7662048 0.46537882 0.23898196 84 46286336 285 11 1037 285
1.7717828 0.44366974 0.23898196 58 46483456 198 11 1016 198
1.7790278 0.42235252 0.23920456 92 46679040 313 11 1026 313
1.7908647 0.40201157 0.23998362 587 46874880 2004 11 1109 2004
1.7985801 0.38062128 0.24031751 658 47071232 2253 11 1130 2253
1.8060397 0.35910207 0.2406514 601 47266048 2066 11 1132 2066
1.8269203 0.33999979 0.24254341 78 47462144 275 11 990 275
1.8319342 0.31772467 0.24265471 202 47659008 709 11 1062 709
1.8406013 0.29600808 0.24321119 573 47853312 2018 11 1205 2018
1.8480275 0.27398095 0.24365638 575 48048640 2032 11 1261 2032
1.8512505 0.25128216 0.24365638 615 48244224 2176 11 1210 2176
1.8561674 0.2287883 0.24387896 638 48441856 2261 11 1118 2261
1.8785905 0.20817818 0.24610488 331 48637184 1199 11 1083 1199
1.8810037 0.18510932 0.24610488 395 48832512 1431 11 1124 1431
1.8969957 0.16320233 0.24766301 507 49025536 1863 11 1208 1863
1.9048023 0.14034794 0.24833079 538 49222400 1988 11 1177 1988
1.9073731 0.11702318 0.24844208 507 49416704 1876 11 1193 1876
1.9106507 0.093704931 0.24866468 99 49612032 369 11 989 369
1.9255605 0.070759408 0.2502228 50 49803520 190 11 1062 190
1.9382058 0.047413778 0.25155836 62 49998848 237 11 1069 237
1.9644783 0.023935191 0.25445205 503 50191616 1969 11 1058 1969
1.9517049 -0.00017011758 0.25300521 318 50387456 1229 11 1102 1229
1.9763986 -0.024432454 0.25578758 70 50582528 279 11 1004 279
1.9838977 -0.04888143 0.25667796 61 50777088 245 11 999 245
1.9940727 -0.073628686 0.2579022 54 50970624 220 11 984 220
2.0009596 -0.098485835 0.25879255 151 51167232 616 11 1004 616
2.0015841 -0.12315571 0.25901514 409 51360768 1667 11 1061 1667
2.010824 -0.14851624 0.26023939 57 51556352 236 11 1050 236
2.0147905 -0.17369422 0.26090717 57 51752704 238 11 1023 238
2.0490994 -0.20202021 0.26502511 119 51946240 513 11 996 513
2.0672078 -0.22945677 0.26736233 535 52141568 2347 11 1089 2347
2.0711403 -0.2556608 0.26814139 563 52337408 2486 11 1105 2486
2.0757246 -0.28212982 0.26903173 527 52532736 2343 11 1153 2343
2.0789871 -0.30860361 0.26981083 519 52728832 2323 11 1220 2323
2.094666 -0.33725572 0.27203673 295 52923648 1346 11 1093 1346
1.5662787 0.88713986 0.19229284 609 42188288 1991 12 1778 1991
1.5761745 0.86737227 0.19220568 652 42383872 2130 12 1719 2130
1.5875785 0.84843427 0.19229284 668 42579200 2184 12 1745 2184
1.5961018 0.82797128 0.19211853 69 42773760 225 12 1589 225
1.6132617 0.81190348 0.19281578 63 42970624 207 12 1626 207
1.6204174 0.79073507 0.19255431 70 43164928 230 12 1631 230
1.6092834 0.76100004 0.19054973 564 43360000 1805 12 1779 1805
1.6230301 0.7432673 0.1909855 575 43555840 1846 12 1712 1846
1.6393156 0.72652179 0.19168276 79 43749376 256 12 1634 256
1.6416976 0.70360452 0.19107266 65 43942656 209 12 1678 209
1.647447 0.68226248 0.1908112 81 44136192 260 12 1669 260
1.6612457 0.66421223 0.19133413 68 44332544 220 12 1600 220
1.6915807 0.65237451 0.19342586 140 44527104 464 12 1610 464
1.684517 0.62601781 0.19203138 574 44722176 1872 12 1764 1872
1.6892582 0.60429305 0.19176991 327 44916480 1063 12 1731 1063
1.7219833 0.59226048 0.19412312 83 45113344 277 12 1681 277
1.7319596 0.57202113 0.19438457 83 45307904 278 12 1650 278
1.7075065 0.54080486 0.19150844 182 45506048 588 12 1669 588
1.722595 0.52241063 0.19229284 610 45699328 1993 12 1706 1993
1.7307897 0.50178677 0.19246715 638 45895168 2091 12 1742 2091
1.7377772 0.48077497 0.19255431 648 46089984 2127 12 1771 2127
1.7464364 0.46017444 0.19281578 668 46286336 2201 12 1736 2201
1.7645152 0.44185147 0.19394881 469 46483456 1567 12 1762 1567
1.7717432 0.4206247 0.19412312 668 46679040 2235 12 1725 2235
1.7796876 0.39950499 0.19438457 656 46874880 2204 12 1802 2204
1.7854308 0.37784144 0.19447173 637 47071232 2142 12 1796 2142
1.7870017 0.35532081 0.19421028 705 47266048 2363 12 1774 2363
1.7961246 0.33427513 0.19464605 431 47462144 1450 12 1700 1450
1.794202 0.31118855 0.19412312 86 47659008 288 12 1568 288
1.8047707 0.29025331 0.1947332 83 47853312 280 12 1655 280
1.8259349 0.2707102 0.19630201 477 48048640 1639 12 1664 1639
1.8498499 0.25109234 0.19813228 660 48244224 2322 12 1817 2322
1.8162087 0.22387137 0.19490752 317 48441856 1070 12 1681 1070
1.862386 0.20638579 0.19874237 73 48637184 261 12 1736 261
1.8717184 0.18419746 0.19935246 55 48832512 196 12 1636 196
1.8797932 0.16172586 0.1998754 51 49025536 183 12 1621 183
1.8836232 0.13879173 0.2000497 85 49222400 305 12 1692 305
1.9020884 0.11670002 0.20153135 352 49416704 1291 12 1804 1291
1.9043722 0.09339828 0.20161851 71 49612032 261 12 1598 261
1.9113482 0.070239976 0.20214145 61 49803520 225 12 1662 225
1.9220252 0.047021158 0.203013 72 49998848 269 12 1625 269
1.9224576 0.023431413 0.203013 291 50191616 1088 12 1742 1088
1.946509 -0.00016864394 0.20510474 558 50387456 2133 12 1845 2133
1.9503448 -0.02410532 0.20545337 608 50582528 2335 12 1794 2335
1.9339679 -0.047641553 0.20405887 378 50777088 1430 12 1718 1430
1.9740535 -0.072885655 0.20763226 114 50970624 452 12 1726 452
1.9799753 -0.097448982 0.20824234 492 51167232 1953 12 1741 1953
1.9935449 -0.12265953 0.20954968 557 51360768 2244 12 1757 2244
1.9988439 -0.14762913 0.21015976 507 51556352 2053 12 1706 2053
2.0117693 -0.17343318 0.2114671 539 51752704 2220 12 1715 2220
2.0144463 -0.19859725 0.21190289 105 51946240 437 12 1779 437
2.0494812 -0.22748584 0.2152148 554 52141568 2378 12 1752 2378
2.0613651 -0.25445238 0.21652214 569 52337408 2478 12 1764 2478
2.0649972 -0.28066978 0.21713223 579 52532736 2538 12 1735 2538
2.0702658 -0.30730739 0.21791664 461 52728832 2040 12 1777 2040
1.5578941 0.88239318 0.14783372 685 42188288 2206 13 1117 2206
1.5519902 0.85407031 0.1466407 424 42383872 1338 13 972 1338
1.5773194 0.84295434 0.14770815 80 42579200 259 13 1003 259
1.5848869 0.82215661 0.14751977 95 42773760 306 13 1023 306
1.5921819 0.80130029 0.1473314 103 42970624 330 13 993 330
1.5992041 0.78038895 0.14714304 86 43164928 275 13 944 275
1.6221951 0.7671023 0.14808489 387 43360000 1254 13 986 1254
1.6142442 0.73924607 0.14689186 710 43555840 2251 13 1043 2251
1.6250193 0.72018951 0.14701745 654 43749376 2077 13 1011 2077
1.6346523 0.70058674 0.14708024 509 43942656 1618 13 996 1618
1.6375935 0.67818433 0.1467035 75 44136192 239 13 927 239
1.65228 0.66062969 0.14714304 409 44332544 1302 13 1003 1302
1.6593312 0.63994503 0.14708024 641 44527104 2037 13 1147 2037
1.6661239 0.61918682 0.14701745 710 44722176 2254 13 1082 2254
1.681115 0.60138196 0.14751977 595 44916480 1907 13 1132 1907
1.690256 0.58135563 0.14764535 642 45113344 2061 13 1055 2061
1.6820989 0.55556512 0.1466407 428 45307904 1350 13 1055 1350
1.7040141 0.53969955 0.14764535 113 45506048 364 13 975 364
1.7105087 0.51874804 0.14764535 688 45699328 2210 13 1145 2210
1.7177043 0.49799612 0.14770815 728 45895168 2341 13 1118 2341
1.726572 0.47767749 0.14789651 661 46089984 2130 13 1170 2130
1.7245828 0.4544211 0.1473942 382 46286336 1221 13 1107 1221
1.7484249 0.43782592 0.14858721 77 46483456 253 13 996 253
1.753666 0.41633707 0.14858721 94 46679040 309 13 956 309
1.7625384 0.39565912 0.14883837 85 46874880 281 13 935 281
1.7692139 0.37441313 0.14896396 99 47071232 328 13 932 328
1.7726964 0.35247952 0.14890116 304 47266048 1000 13 945 1000
1.783757 0.33197606 0.1493407 89 47462144 297 13 924 297
1.7975303 0.31176507 0.14996861 80 47659008 269 13 987 269
1.8051624 0.29031622 0.15021977 69 47853312 233 13 1067 233
1.8135254 0.26887304 0.15053372 79 48048640 269 13 977 269
1.836468 0.24927874 0.15178953 545 48244224 1881 13 1090 1881
1.8245305 0.22489536 0.15084767 732 48441856 2487 13 1187 2487
1.8460004 0.20457338 0.15204069 560 48637184 1942 13 1076 1942
1.8622774 0.18327029 0.15291975 74 48832512 262 13 1020 262
1.8703524 0.16091555 0.1532965 83 49025536 296 13 982 296
1.8751723 0.13817075 0.15348487 539 49222400 1915 13 1102 1915
1.8817074 0.11545369 0.15379882 568 49416704 2028 13 1195 2028
1.8839794 0.092402235 0.15386161 494 49612032 1767 13 1130 1767
1.894945 0.069640473 0.15448952 479 49803520 1730 13 1120 1730
1.9026411 0.046550807 0.15492906 318 49998848 1158 13 1093 1158
1.9200343 0.023402361 0.15599649 543 50191616 2013 13 1117 2013
1.9291592 -0.00016372325 0.15656161 664 50387456 2483 13 1166 2483
1.9310077 -0.023862522 0.15668719 606 50582528 2272 13 1134 2272
1.9305695 -0.04755716 0.15668719 580 50777088 2173 13 1129 2173
1.9667422 -0.072614282 0.15901044 84 50970624 329 13 987 329
1.9726807 -0.097088546 0.15944996 71 51167232 280 13 1033 280
1.973333 -0.12141202 0.15957555 104 51360768 410 13 1041 410
1.9896098 -0.14694534 0.16070578 541 51556352 2165 13 1041 2165
1.9936228 -0.17186531 0.16108252 94 51752704 380 13 1034 380
2.0082479 -0.19798498 0.16214997 59 51946240 244 13 953 244
2.0126104 -0.22338636 0.16258949 77 52141568 319 13 1022 319
2.0176415 -0.24904697 0.16309182 73 52337408 305 13 997 305
2.0401452 -0.27728727 0.16472438 628 52532736 2675 13 1106 2675
1.5441698 0.85012323 0.10267955 498 42383872 1551 14 1586 1551
1.5588925 0.83346468 0.10286974 630 42579200 1973 14 1511 1973
1.5672289 0.81335169 0.10279366 687 42773760 2146 14 1482 2146
1.5761994 0.7936089 0.10275563 597 42970624 1864 14 1455 1864
1.5849215 0.7737686 0.10271759 585 43164928 1825 14 1490 1825
1.5942974 0.7542609 0.10271759 733 43360000 2286 14 1518 2286
1.6025248 0.7342236 0.10267955 670 43555840 2088 14 1507 2088
1.6114142 0.71450287 0.10267955 672 43749376 2092 14 1515 2092
1.6191424 0.69428092 0.10264151 680 43942656 2115 14 1540 2115
1.6617007 0.68850458 0.10404895 169 44136192 550 14 1440 550
1.6384768 0.65544891 0.10275563 80 44332544 251 14 1419 251
1.6473292 0.63565248 0.10279366 75 44527104 236 14 1455 236
1.6596891 0.61712968 0.10298386 556 44722176 1747 14 1553 1747
1.6680782 0.59705281 0.1030219 600 44916480 1889 14 1519 1889
1.6554352 0.56971353 0.10222308 252 45113344 775 14 1470 775
1.6793815 0.55499625 0.10290778 90 45307904 284 14 1395 284
1.6860658 0.53434587 0.10290778 77 45506048 242 14 1495 242
1.6915398 0.51332504 0.10286974 89 45699328 280 14 1459 280
1.6986715 0.49280679 0.10290778 75 45895168 237 14 1433 237
1.7219269 0.47671983 0.10359249 491 46089984 1573 14 1421 1573
1.7247485 0.45478952 0.10347836 361 46286336 1152 14 1453 1152
1.7156593 0.42994946 0.10290778 98 46483456 308 14 1497 308
1.7295566 0.41094038 0.10325013 91 46679040 290 14 1435 290
1.7344692 0.38968512 0.10325013 78 46874880 248 14 1489 248
1.7625837 0.37333569 0.10416307 523 47071232 1701 14 1525 1701
1.7601718 0.35031408 0.1038968 719 47266048 2321 14 1473 2321
1.7584437 0.32759088 0.10366856 743 47462144 2382 14 1541 2382
1.7800537 0.30906054 0.10435326 607 47659008 1986 14 1482 1986
1.7985115 0.28957281 0.10492385 411 47853312 1368 14 1472 1368
1.7940217 0.26630837 0.10461954 554 48048640 1828 14 1527 1828
1.8090371 0.24588542 0.10507601 704 48244224 2351 14 1538 2351
1.8168771 0.22427832 0.1052662 694 48441856 2331 14 1512 2331
1.826445 0.20273578 0.10553247 604 48637184 2045 14 1583 2045
1.8357567 0.1809921 0.10579874 563 48832512 1921 14 1493 1921
1.8448087 0.1590503 0.10606502 79 49025536 274 14 1351 274
1.8516045 0.13676669 0.10625521 71 49222400 247 14 1440 247
1.8671069 0.1148907 0.10678776 432 49416704 1515 14 1477 1515
1.8713704 0.09211655 0.10690188 502 49612032 1767 14 1569 1767
1.8833447 0.069548406 0.10732031 280 49803520 997 14 1526 997
1.9070327 0.046993166 0.1081952 65 49998848 238 14 1503 238
1.9154595 0.023684632 0.10849951 59 50191616 218 14 1513 218
1.926598 0.00017601578 0.10891794 68 50387456 255 14 1440 255
1.9354478 -0.023577662 0.1092603 92 50582528 347 14 1439 347
1.9300178 -0.047203649 0.1090701 302 50777088 1130 14 1485 1130
1.9532596 -0.071769729 0.10998303 72 50970624 278 14 1426 278
1.9582201 -0.096028671 0.11021127 62 51167232 241 14 1384 241
1.9628787 -0.12042013 0.1104395 68 51360768 265 14 1516 265
1.9712187 -0.14523479 0.11081989 484 51556352 1896 14 1519 1896
1.9822305 -0.17052972 0.1113144 623 51752704 2472 14 1500 2472
1.9849609 -0.19533217 0.1115046 572 51946240 2282 14 1487 2282
1.9784417 -0.21923499 0.11135244 160 52141568 638 14 1396 638
1.9964291 -0.24606803 0.11215126 593 52337408 2406 14 1527 2406
1.5772001 0.7941125 0.060311086 251 42970624 785 15 1407 785
1.5805358 0.77162868 0.060214575 709 43164928 2197 15 1342 2197
1.5871741 0.7508927 0.06017321 768 43360000 2372 15 1294 2372
1.5944508 0.73052651 0.060145635 692 43555840 2131 15 1281 2131
1.6014671 0.71009493 0.060118061 716 43749376 2202 15 1331 2202
1.6137367 0.69196445 0.06017321 104 43942656 321 15 1134 321
1.6230305 0.67249185 0.060186997 87 44136192 269 15 1185 269
1.6330178 0.65326649 0.060214575 85 44332544 264 15 1153 264
1.6427773 0.63389719 0.06024215 89 44527104 276 15 1201 276
1.6551189 0.61543143 0.060311086 83 44722176 259 15 1165 259
1.6597221 0.594064 0.060269725 582 44916480 1809 15 1211 1809
1.654595 0.56942463 0.060090486 685 45113344 2098 15 1242 2098
1.6719024 0.55252635 0.06024215 558 45307904 1731 15 1237 1731
1.6976218 0.53800541 0.060517903 122 45506048 387 15 1220 387
1.7107943 0.51916355 0.060614415 82 45699328 262 15 1213 262
1.6901461 0.49033549 0.060228363 577 45895168 1792 15 1295 1792
1.6998909 0.47062421 0.060283512 696 46089984 2167 15 1229 2167
1.7103727 0.45100218 0.060352448 597 46286336 1868 15 1237 1868
1.7157784 0.42997929 0.060352448 710 46483456 2224 15 1263 2224
1.7248172 0.4098154 0.060407601 635 46679040 1998 15 1183 1998
1.7394727 0.39080814 0.060545478 170 46874880 541 15 1171 541
1.7480506 0.37026063 0.060600627 704 47071232 2248 15 1282 2248
1.7554047 0.34936637 0.060641993 687 47266048 2203 15 1274 2203
1.7615259 0.3281644 0.060669567 696 47462144 2235 15 1275 2235
1.7634499 0.30618137 0.060641993 716 47659008 2296 15 1271 2296
1.756215 0.28277197 0.060490325 126 47853312 399 15 1189 399
1.7842802 0.26486444 0.060835019 76 48048640 248 15 1188 248
1.7873962 0.24294864 0.060835019 96 48244224 313 15 1136 313
1.7981821 0.22197458 0.060945321 81 48441856 267 15 1167 267
1.8146843 0.20143284 0.061138347 577 48637184 1925 15 1247 1925
1.8269705 0.18012771 0.061276224 89 48832512 301 15 1180 301
1.8390056 0.1585512 0.0614141 85 49025536 290 15 1176 290
1.8477932 0.13648598 0.061510615 72 49222400 248 15 1184 248
1.8563153 0.11422888 0.061607126 74 49416704 256 15 1195 256
1.8725578 0.092174746 0.061813943 303 49612032 1066 15 1260 1066
1.8665533 0.068931781 0.061717428 602 49803520 2101 15 1225 2101
1.8802536 0.046338696 0.061896667 460 49998848 1628 15 1273 1628
1.9006772 0.023504831 0.06217242 82 50191616 297 15 1153 297
1.905822 0.00017828208 0.062241361 81 50387456 295 15 1172 295
1.9116797 -0.023283377 0.062324084 553 50582528 2025 15 1311 2025
1.9202465 -0.046962705 0.062448174 612 50777088 2262 15 1330 2262
1.9265201 -0.070781939 0.062544689 563 50970624 2096 15 1357 2096
1.9344947 -0.094860516 0.062668778 543 51167232 2041 15 1310 2041
1.9531453 -0.11982108 0.062944531 213 51360768 816 15 1222 816
1.9565138 -0.14414848 0.063013472 543 51556352 2091 15 1233 2091
1.9625672 -0.16883425 0.06312377 564 51752704 2191 15 1233 2191
1.9643279 -0.19329771 0.063178919 638 51946240 2491 15 1316 2491
1.9707521 -0.21838138 0.063303009 697 52141568 2743 15 1199 2743
1.9907484 -0.24536675 0.063620128 195 52337408 784 15 1278 784
1.5885972 0.70472652 0.016943308 531 43749376 1606 16 1044 1606
1.5980446 0.68557298 0.016932139 695 43942656 2106 16 983 2106
1.6063374 0.6659109 0.016932139 687 44136192 2082 16 975 2082
1.6134597 0.64577717 0.016943308 473 44332544 1432 16 919 1432
1.6026047 0.61873025 0.017166706 159 44527104 471 16 918 471
1.6297592 0.60633487 0.016932139 584 44722176 1768 16 991 1768
1.6370772 0.58628953 0.016932139 626 44916480 1897 16 1007 1897
1.6460396 0.56680661 0.016909799 648 45113344 1966 16 1030 1966
1.6538208 0.54687822 0.016898628 687 45307904 2089 16 974 2089
1.6632669 0.5274483 0.016865119 693 45506048 2112 16 1023 2112
1.6763123 0.50903004 0.016786931 111 45699328 343 16 929 343
1.6824327 0.48842078 0.016786931 89 45895168 275 16 930 275
1.6921544 0.46880499 0.01674225 593 46089984 1831 16 1010 1831
1.6987469 0.44825926 0.016731082 643 46286336 1989 16 925 1989
1.7060597 0.42786533 0.016708741 658 46483456 2038 16 1055 2038
1.7150732 0.40782157 0.016664062 104 46679040 326 16 867 326
1.718973 0.38652512 0.016675232 76 46874880 238 16 952 238
1.7245651 0.36560875 0.016664062 93 47071232 291 16 922 291
1.731864 0.34500358 0.016630553 85 47266048 267 16 922 267
1.7389164 0.32427424 0.016597042 96 47462144 302 16 978 302
1.757543 0.30547586 0.016429495 379 47659008 1209 16 998 1209
1.7641209 0.28436184 0.016395984 102 47853312 328 16 987 328
1.7744014 0.26371947 0.016317796 79 48048640 257 16 890 257
1.7804766 0.24232888 0.016284285 84 48244224 273 16 986 273
1.7862934 0.22082886 0.016250776 148 48441856 482 16 950 482
1.7978134 0.19988418 0.016150247 604 48637184 1980 16 965 1980
1.8021212 0.17800336 0.016127907 624 48832512 2049 16 993 2049
1.8071586 0.15613271 0.016094398 589 49025536 1942 16 992 1942
1.8318746 0.13563773 0.015837491 410 49222400 1387 16 933 1387
1.8463758 0.11394557 0.015692282 333 49416704 1142 16 980 1142
1.8456376 0.091180854 0.015714623 607 49612032 2076 16 988 2076
1.8526131 0.068746395 0.015647603 584 49803520 2011 16 1018 2011
1.8583153 0.046129834 0.015591754 595 49998848 2058 16 1071 2058
1.862741 0.023371316 0.015547074 585 50191616 2033 16 1081 2033
1.8978853 0.00051314913 0.015156128 88 50387456 320 16 950 320
1.9037479 -0.022850094 0.01508911 77 50582528 282 16 933 282
1.9083223 -0.046332661 0.01503326 470 50777088 1715 16 1077 1715
1.9086094 -0.069783963 0.01502209 538 50970624 1964 16 1072 1964
1.9195942 -0.093788274 0.014888051 202 51167232 748 16 985 748
1.9372618 -0.11850137 0.014675824 68 51360768 260 16 870 260
1.9426423 -0.14278008 0.014597635 67 51556352 257 16 894 257
1.944729 -0.16695145 0.014552956 75 51752704 285 16 855 285
1.9634315 -0.19286056 0.014318388 353 51946240 1378 16 1002 1378
1.960917 -0.21694036 0.014318388 343 52141568 1338 16 935 1338
1.5950017 0.63806832 -0.024746003 364 44332544 1077 17 1080 1077
1.6148332 0.62312144 -0.025211032 604 44527104 1813 17 1060 1813
1.6204848 0.60256189 -0.02513949 611 44722176 1832 17 998 1832
1.6286981 0.58296722 -0.025175262 596 44916480 1788 17 1009 1788
1.6376195 0.56358671 -0.025246805 613 45113344 1842 17 1131 1842
1.6444122 0.54344815 -0.025246805 529 45307904 1590 17 970 1590
1.6614374 0.52654654 -0.025640292 103 45506048 316 17 939 316
1.6725556 0.50756848 -0.025819151 82 45699328 253 17 934 253
1.6824976 0.48811841 -0.025962237 73 45895168 226 17 982 226
1.6922137 0.46850055 -0.026105324 83 46089984 258 17 949 258
1.6997683 0.44820842 -0.026176866 129 46286336 401 17 922 401
1.6935072 0.42440325 -0.025747608 605 46483456 1849 17 973 1849
1.6995602 0.40382016 -0.025783379 532 46679040 1629 17 961 1629
1.7160889 0.3855598 -0.026212638 102 46874880 318 17 960 318
1.7206911 0.3644717 -0.026212638 103 47071232 321 17 949 321
1.7220936 0.34274417 -0.026105324 138 47266048 429 17 909 429
1.7379599 0.3237794 -0.026534583 645 47462144 2021 17 1046 2021
1.7408177 0.30225685 -0.026498811 724 47659008 2265 17 1046 2265
1.7483425 0.28150618 -0.026641898 620 47853312 1950 17 1041 1950
1.7575967 0.26090929 -0.026856527 678 48048640 2147 17 944 2147
1.7725495 0.24093387 -0.027285786 585 48244224 1878 17 903 1878
1.7842994 0.22026384 -0.027607732 577 48441856 1870 17 1019 1870
1.7908411 0.19879133 -0.027750818 646 48637184 2103 17 1006 2103
1.7941403 0.17689782 -0.02778659 584 48832512 1903 17 960 1903
1.7971717 0.15495329 -0.02782236 585 49025536 1909 17 997 1909
1.8138878 0.13398868 -0.028358936 369 49222400 1225 17 918 1225
1.8263679 0.1123923 -0.028752424 64 49416704 216 17 987 216
1.8335985 0.090265058 -0.028967053 59 49612032 202 17 914 202
1.8435563 0.068087265 -0.029288998 63 49803520 217 17 918 217
1.8492483 0.045580946 -0.029467857 573 49998848 1966 17 1011 1966
1.8616599 0.023030248 -0.029897114 118 50191616 412 17 907 412
1.8737947 0.00018177573 -0.030326374 66 50387456 234 17 938 234
1.8806508 -0.02289919 -0.030576775 67 50582528 240 17 952 240
1.8912177 -0.046246924 -0.030970264 56 50777088 203 17 901 203
1.9164735 -0.070410796 -0.031900324 320 50970624 1181 17 980 1181
1.9094762 -0.093628705 -0.031685695 440 51167232 1612 17 1044 1612
1.9081835 -0.11705387 -0.031685695 389 51360768 1426 17 1044 1426
1.9305228 -0.14222842 -0.032544214 67 51556352 254 17 939 254
1.9326147 -0.1662516 -0.032687303 216 51752704 817 17 944 817
1.9244618 -0.18936686 -0.03247267 448 51946240 1680 17 1029 1680
1.6319224 0.56162745 -0.066617228 517 45113344 1545 18 1240 1545
1.6301608 0.53874189 -0.066077203 637 45307904 1886 18 1230 1886
1.6414074 0.52020353 -0.066377215 593 45506048 1765 18 1239 1765
1.6467123 0.49973208 -0.066317216 430 45699328 1279 18 1172 1279
1.6642255 0.48282173 -0.067037255 79 45895168 239 18 1082 239
1.6719493 0.46289501 -0.067157261 220 46089984 665 18 1154 665
1.674608 0.44157988 -0.066977248 634 46286336 1908 18 1245 1908
1.6799008 0.42099661 -0.066977248 595 46483456 1793 18 1157 1793
1.6878542 0.40104154 -0.067157261 565 46679040 1708 18 1224 1708
1.6907007 0.37986156 -0.067037255 685 46874880 2066 18 1195 2066
1.7059771 0.36135843 -0.067697287 566 47071232 1728 18 1170 1728
1.7220316 0.34273183 -0.068417326 105 47266048 325 18 1147 325
1.7241451 0.32120883 -0.068297319 497 47462144 1535 18 1178 1535
1.7328745 0.30087948 -0.068597339 628 47659008 1951 18 1236 1951
1.7354507 0.27943331 -0.068537332 563 47853312 1747 18 1186 1747
1.7397366 0.25826198 -0.068597339 485 48048640 1507 18 1231 1507
1.7675031 0.24024905 -0.070097417 96 48244224 308 18 1063 308
1.7782439 0.21951763 -0.070577443 71 48441856 229 18 1128 229
1.7867566 0.19833882 -0.070937462 74 48637184 241 18 1147 241
1.8009769 0.17757042 -0.071657501 63 48832512 207 18 1205 207
1.8060038 0.15571289 -0.071837515 179 49025536 591 18 1157 591
1.8157427 0.13412531 -0.072317541 62 49222400 207 18 1079 207
1.8222336 0.11213876 -0.072617553 61 49416704 205 18 1146 205
1.8264635 0.08991532 -0.072797567 65 49612032 219 18 1178 219
1.8314195 0.067641564 -0.07303758 70 49803520 236 18 1224 236
1.8341074 0.045210909 -0.073157586 482 49998848 1629 18 1258 1629
1.841511 0.02278517 -0.073577605 555 50191616 1890 18 1251 1890
1.8516339 0.00018419308 -0.074177638 596 50387456 2051 18 1246 2051
1.8764498 -0.022847174 -0.075677723 381 50582528 1347 18 1242 1347
1.8830134 -0.046044622 -0.076097742 242 50777088 862 18 1197 862
1.8892891 -0.069406569 -0.076517768 432 50970624 1550 18 1239 1550
1.8982651 -0.093076713 -0.077117801 469 51167232 1701 18 1241 1701
1.8999689 -0.11654829 -0.077297807 456 51360768 1662 18 1294 1662
1.9023776 -0.14014922 -0.07753782 454 51556352 1658 18 1282 1658
1.9044925 -0.16382676 -0.077777833 439 51752704 1610 18 1246 1610
1.6399611 0.49768496 -0.10760882 318 45699328 942 19 1092 942
1.646902 0.47780004 -0.1076932 502 45895168 1488 19 1052 1488
1.654562 0.45808536 -0.10786194 497 46089984 1477 19 1018 1477
1.661986 0.43825457 -0.10803069 525 46286336 1564 19 1056 1564
1.6711053 0.41879445 -0.10836819 560 46483456 1676 19 1103 1676
1.6770883 0.39848602 -0.10845256 506 46679040 1517 19 1095 1517
1.6789352 0.37722093 -0.10819944 435 46874880 1300 19 963 1300
1.7048846 0.36112726 -0.11005566 85 47071232 262 19 967 262
1.7091879 0.34017852 -0.11005566 88 47266048 271 19 929 271
1.712254 0.31899625 -0.10997128 80 47462144 247 19 953 247
1.718985 0.29847097 -0.1102244 78 47659008 241 19 946 241
1.7146479 0.27608845 -0.10954941 194 47853312 591 19 1021 591
1.7366345 0.25780219 -0.11115251 502 48048640 1560 19 1043 1560
1.7436168 0.23700756 -0.11149 85 48244224 267 19 942 267
1.7523277 0.21632405 -0.11199625 70 48441856 222 19 890 222
1.7607926 0.19546233 -0.11250249 54 48637184 173 19 967 173
1.7660336 0.17413266 -0.1127556 269 48832512 856 19 975 856
1.7839218 0.15381373 -0.11410558 485 49025536 1568 19 1050 1568
1.7886562 0.13213027 -0.1143587 504 49222400 1635 19 1050 1635
1.7951158 0.11047572 -0.11478057 505 49416704 1648 19 1008 1648
1.8042983 0.088828839 -0.11545556 471 49612032 1550 19 1046 1550
1.8172017 0.067119442 -0.11646804 418 49803520 1394 19 1037 1394
1.828846 0.045082323 -0.11739615 470 49998848 1587 19 1064 1587
1.8382288 0.022745248 -0.11815551 510 50191616 1738 19 1094 1738
1.8413588 0.00018531393 -0.11840864 498 50387456 1703 19 1101 1703
1.8442115 -0.022448014 -0.11866175 370 50582528 1270 19 1019 1270
1.8756733 -0.045863632 -0.1213617 64 50777088 229 19 958 229
1.8779565 -0.068987928 -0.12161482 45 50970624 163 19 941 163
1.8779638 -0.092077151 -0.1216992 46 51167232 166 19 957 166
1.8896216 -0.11591146 -0.12279605 365 51360768 1320 19 1018 1320
1.8979942 -0.1398254 -0.12363979 444 51556352 1621 19 1156 1621
1.6573966 0.41567245 -0.14894591 414 46483456 1224 20 1191 1224
1.6652741 0.39599162 -0.14927199 518 46679040 1538 20 1200 1538
1.6738878 0.37639779 -0.14970677 528 46874880 1574 20 1188 1574
1.6774082 0.35562232 -0.14959806 348 47071232 1036 20 1208 1036
1.7011452 0.33889112 -0.15177193 99 47266048 302 20 1137 302
1.7090849 0.31871802 -0.1522067 74 47462144 227 20 1126 227
1.7011142 0.29568076 -0.15090239 227 47659008 686 20 1163 686
1.7154105 0.276521 -0.15209801 476 47853312 1455 20 1164 1455
1.7196579 0.25559539 -0.1522067 472 48048640 1445 20 1193 1445
1.72562 0.23487483 -0.15253279 493 48244224 1515 20 1171 1515
1.7342919 0.21441163 -0.15318495 488 48441856 1509 20 1263 1509
1.7456846 0.19409975 -0.1541632 294 48637184 919 20 1136 919
1.7528815 0.17315042 -0.15470666 290 48832512 912 20 1126 912
1.7618071 0.1522243 -0.15546751 487 49025536 1543 20 1205 1543
1.7665167 0.13081233 -0.15579359 495 49222400 1574 20 1185 1574
1.7709655 0.10930768 -0.15611967 468 49416704 1493 20 1167 1493
1.8029526 0.089081071 -0.15948917 150 49612032 496 20 1117 496
1.8207978 0.067572482 -0.16133696 32 49803520 108 20 1111 108
1.8244712 0.045296788 -0.16166304 45 49998848 153 20 1097 153
1.8288658 0.022953365 -0.16209781 49 50191616 167 20 1088 167
1.8300037 0.00050870632 -0.1622065 111 50387456 378 20 1055 378
1.8427943 -0.022106033 -0.16361952 51 50582528 176 20 1132 176
1.8463594 -0.044815611 -0.16405429 39 50777088 135 20 1166 135
1.8506373 -0.067652524 -0.16459775 52 50970624 182 20 1067 182
1.8526465 -0.090503737 -0.16492383 39 51167232 137 20 1088 137
1.8841392 -0.11524119 -0.16851072 293 51360768 1057 20 1254 1057
1.6763608 0.35509199 -0.19128998 234 47071232 702 21 1399 702
1.6825364 0.33488023 -0.19155551 381 47266048 1144 21 1317 1144
1.7054652 0.27461195 -0.19314882 405 47853312 1233 21 1354 1233
1.7126285 0.25424391 -0.19367993 405 48048640 1239 21 1358 1239
1.7156194 0.23320816 -0.19367993 205 48244224 625 21 1273 625
1.8461162 -0.067811705 -0.20921464 121 50970624 421 21 1209 421
