# .PCD v0.7 - Point Cloud Data file format
VERSION 0.7
FIELDS x y z intensity t reflectivity ring noise range
SIZE 4 4 4 4 4 2 2 2 4
TYPE F F F F U U U U U
COUNT 1 1 1 1 1 1 1 1 1
WIDTH 214
HEIGHT 1
VIEWPOINT 0 0 0 1 0 0 0
POINTS 214
DATA ascii
3.6924677 -1.1712308 1.3253335 149 55264512 2499 2 971 2499
3.6643097 -1.2119857 1.3205814 202 55460096 3361 2 920 3361
3.6375029 -1.2528447 1.3164629 126 55655680 2082 2 1080 2082
3.7183769 -1.1301318 1.234742 274 55068672 4546 3 1033 4546
3.6823766 -1.1687391 1.2276452 82 55264512 1353 3 965 1353
3.6868014 -1.2201443 1.233855 140 55460096 2325 3 1015 2325
3.6607134 -1.2615591 1.2303065 332 55655680 5466 3 1072 5466
3.6260726 -1.2996165 1.2240967 315 55851264 5134 3 1049 5134
3.6098514 -1.3440162 1.2240967 271 56047360 4418 3 1053 4418
3.7821078 -1.0474073 1.149195 144 54676992 2400 4 826 2400
3.749573 -1.0881097 1.1434454 37 54872576 613 4 777 613
3.7331772 -1.1332026 1.142624 129 55068672 2127 4 770 2127
3.700654 -1.1731144 1.1371481 42 55264512 687 4 786 687
3.6850662 -1.2181369 1.1368744 30 55460096 493 4 740 493
3.6561995 -1.2585696 1.1327676 123 55655680 1992 4 770 1992
3.6350467 -1.3013964 1.1311247 53 55851264 858 4 747 858
3.6323242 -1.3509364 1.1352316 34 56047360 554 4 799 554
3.6047058 -1.391252 1.1319461 317 56243200 5120 4 788 5120
3.5748606 -1.4303793 1.128113 290 56439296 4653 4 772 4653
3.8325999 -0.96077627 1.059334 305 54285824 5091 5 1157 5091
3.8195853 -1.0074888 1.0590825 408 54481152 6811 5 976 6811
3.7854819 -1.048342 1.0532966 389 54676992 6426 5 913 6426
3.7714026 -1.0944469 1.0530449 154 54872576 2549 5 948 2549
3.7521315 -1.1389581 1.0515356 324 55068672 5333 5 957 5333
3.7304916 -1.1825764 1.0495231 234 55264512 3843 5 886 3843
3.6973207 -1.2221891 1.0444919 74 55460096 1214 5 858 1214
3.6591663 -1.2595912 1.0382028 336 55655680 5387 5 925 5387
3.68717 -1.320063 1.0502778 121 55851264 1997 5 872 1997
3.6180813 -1.3456376 1.0356871 61 56047360 970 5 854 970
3.6292856 -1.4007416 1.0434856 278 56243200 4508 5 914 4508
3.5776784 -1.431507 1.0339262 47 56439296 745 5 855 745
3.5473254 -1.470114 1.0304043 67 56632320 1056 5 825 1056
3.5138969 -1.5070477 1.0261278 433 56828160 6773 5 903 6773
3.8758154 -0.92121309 0.96998179 444 54091520 7440 6 832 7440
3.8396702 -0.96254945 0.96402699 59 54285824 978 6 800 978
3.8190982 -1.0073603 0.96196574 152 54481152 2506 6 789 2506
3.8055108 -1.0538908 0.96173668 365 54676992 6023 6 904 6023
3.7642467 -1.0923696 0.95486575 57 54872576 926 6 795 926
3.7589409 -1.1410259 0.95692706 304 55068672 4967 6 898 4967
3.7251701 -1.1808889 0.95211738 298 55264512 4805 6 841 4805
3.7168679 -1.2286527 0.95372063 127 55460096 2055 6 838 2055
3.6877048 -1.2694181 0.95028514 365 55655680 5860 6 855 5860
3.6645179 -1.3119507 0.94845289 365 55851264 5840 6 820 5840
3.6371944 -1.3527483 0.94570458 310 56047360 4931 6 781 4931
3.6239526 -1.3986827 0.94662064 329 56243200 5242 6 811 5242
3.6019971 -1.4412403 0.94547552 285 56439296 4530 6 828 4530
3.5615592 -1.4760146 0.93974978 315 56632320 4957 6 898 4957
3.5387053 -1.5176904 0.93860459 437 56828160 6843 6 804 6843
3.5251532 -1.5633699 0.93997878 230 57024000 3614 6 772 3614
3.4941993 -1.6012383 0.93700141 338 57217792 5272 6 840 5272
3.930449 -0.83213568 0.87889659 285 53700096 4816 7 1055 4816
3.9046655 -0.87687355 0.87560004 58 53896192 981 7 995 981
3.898371 -0.9258548 0.87663019 288 54091520 4839 7 1066 4839
3.8459005 -0.96339566 0.86777079 47 54285824 780 7 1053 780
3.8318963 -1.0100193 0.86735868 59 54481152 975 7 1077 975
3.8163841 -1.0561832 0.86674058 119 54676992 1957 7 1090 1957
3.7965569 -1.1010281 0.86529839 42 54872576 696 7 993 696
3.7752688 -1.1452614 0.86365008 52 55068672 853 7 1066 853
3.743207 -1.1858866 0.85973549 115 55264512 1858 7 1134 1858
3.7004986 -1.2225207 0.85355449 40 55460096 643 7 1051 643
3.7009478 -1.2732527 0.85705703 189 55655680 3034 7 1020 3034
3.6970212 -1.3228601 0.85973549 163 55851264 2630 7 1142 2630
3.6594138 -1.3602847 0.85499668 58 56047360 931 7 1079 931
3.6287515 -1.3998047 0.85190618 352 56243200 5570 7 1109 5570
3.5913126 -1.4362339 0.84737349 206 56439296 3227 7 1066 3227
3.613194 -1.4966778 0.85643893 168 56632320 2693 7 1038 2693
3.5432923 -1.5189232 0.84469503 464 56828160 7211 7 1075 7211
3.5440662 -1.5710167 0.84922779 226 57024000 3558 7 1042 3558
3.5165141 -1.6107211 0.84737349 320 57217792 5010 7 1082 5010
3.4832149 -1.6474757 0.84428298 356 57413632 5528 7 1140 5528
3.4680116 -1.6926719 0.84551919 335 57609472 5218 7 1101 5218
3.4329946 -1.7280613 0.84222263 238 57804544 3676 7 1187 3676
3.9715536 -0.79004776 0.78604007 422 53504512 7175 8 962 7175
3.9442465 -0.83505821 0.78275055 467 53700096 7869 8 978 7869
3.9154766 -0.8793025 0.77927828 352 53896192 5880 8 916 5880
3.9015217 -0.92660344 0.77873003 503 54091520 8383 8 962 8383
3.8898571 -0.97441131 0.77873003 506 54285824 8431 8 999 8431
3.8490868 -1.0145521 0.77324754 186 54481152 3063 8 940 3063
3.8325567 -1.0606607 0.77251655 481 54676992 7884 8 981 7884
3.8296387 -1.1106254 0.77452677 181 54872576 2993 8 897 2993
3.7856159 -1.1484014 0.76867878 181 55068672 2945 8 919 2945
3.7609286 -1.191503 0.76666856 374 55264512 6035 8 981 6035
3.7301543 -1.2323211 0.76356179 69 55460096 1102 8 849 1102
3.7184696 -1.2792828 0.76429278 175 55655680 2801 8 850 2801
3.7135987 -1.3287936 0.76648575 182 55851264 2946 8 863 2946
3.6638381 -1.3619297 0.75990677 75 56047360 1186 8 850 1186
3.6266699 -1.3990015 0.75588626 184 56243200 2893 8 871 2893
3.6238341 -1.4492437 0.75881028 86 56439296 1356 8 831 1356
3.5948775 -1.4890884 0.75661725 87 56632320 1378 8 870 1378
3.5916946 -1.5396777 0.75972402 202 56828160 3206 8 880 3206
3.5455668 -1.571682 0.75424153 204 57024000 3189 8 883 3189
3.5331633 -1.6183493 0.75570351 156 57217792 2452 8 882 2452
3.4872649 -1.6493918 0.75040376 337 57413632 5189 8 855 5189
3.4755967 -1.6963749 0.75223124 152 57609472 2354 8 832 2354
3.4457364 -1.7344767 0.75040376 182 57804544 2804 8 845 2804
3.4276829 -1.7784421 0.75113475 399 57998592 6172 8 883 6172
3.4003983 -1.8175899 0.75003827 353 58193664 5443 8 948 5443
3.9674375 -0.84069675 0.68691939 393 53700096 6639 9 1113 6639
3.9443002 -0.88650441 0.68485218 77 53896192 1303 9 968 1303
3.9119935 -0.92981565 0.68135375 374 54091520 6215 9 1048 6215
3.8849669 -0.97390926 0.6788094 512 54285824 8437 9 1100 8437
3.8612676 -1.0184877 0.67690116 175 54481152 2875 9 1011 2875
3.825644 -1.0594686 0.67308468 457 54676992 7400 9 1005 7400
3.8019252 -1.1033077 0.67133546 407 54872576 6556 9 1022 6556
3.7890444 -1.150167 0.67149448 364 55068672 5868 9 972 5868
3.7661748 -1.1938919 0.67006332 425 55264512 6819 9 984 6819
3.7249944 -1.2313399 0.66561079 328 55460096 5192 9 1001 5192
3.7198718 -1.2804945 0.66736001 390 55655680 6205 9 980 6205
3.6759939 -1.3160605 0.66258937 432 55851264 6769 9 1048 6769
3.6540151 -1.359006 0.66163528 183 56047360 2868 9 920 2868
3.6398261 -1.4048109 0.66211236 343 56243200 5370 9 972 5370
3.641561 -1.4570752 0.66545177 346 56439296 5473 9 981 5473
3.5960457 -1.4903109 0.66068119 136 56632320 2127 9 960 2127
3.5720427 -1.5319923 0.65972704 412 56828160 6401 9 935 6401
3.5538764 -1.5761118 0.65988606 322 57024000 5006 9 973 5006
3.5441399 -1.6241298 0.66163528 229 57217792 3584 9 952 3584
3.5052025 -1.6586299 0.65829587 433 57413632 6692 9 1045 6692
3.4686167 -1.69372 0.65543354 233 57609472 3572 9 1005 3572
3.4546249 -1.7397109 0.65670568 245 57804544 3772 9 973 3772
3.4268823 -1.7787889 0.65559256 371 57998592 5686 9 1003 5686
3.4117603 -1.8244333 0.6568647 326 58193664 5016 9 1019 5016
3.3813317 -1.8618768 0.65543354 322 58390272 4933 9 1044 4933
3.3556523 -1.9017701 0.65495646 342 58584064 5234 9 956 5234
3.9114423 -0.92968458 0.58406967 493 54091520 8126 10 1124 8126
3.9007001 -0.97785497 0.58420521 226 54285824 3733 10 1065 3733
3.8567932 -1.017307 0.57973236 60 54481152 982 10 1023 982
3.8287418 -1.0603268 0.57756364 257 54676992 4142 10 1040 4142
3.8392289 -1.1141371 0.58095223 130 54872576 2128 10 993 2128
3.8006189 -1.1536816 0.5774281 57 55068672 930 10 915 930
3.7937307 -1.2026302 0.57851243 446 55264512 7204 10 1088 7204
3.7297719 -1.2329197 0.57146424 148 55460096 2340 10 934 2340
3.7227921 -1.2815001 0.57268411 229 55655680 3628 10 973 3628
3.7067859 -1.327088 0.57268411 453 55851264 7164 10 1053 7164
3.6716495 -1.3655666 0.56997323 140 56047360 2199 10 1014 2199
3.6546154 -1.4105207 0.56997323 385 56243200 6028 10 1043 6028
3.6315119 -1.4530532 0.56915998 402 56439296 6275 10 1030 6275
3.582289 -1.4846081 0.56455153 190 56632320 2918 10 1084 2918
3.5838323 -1.53705 0.56753349 489 56828160 7589 10 1009 7589
3.547493 -1.57328 0.56495816 531 57024000 8156 10 1056 8156
3.5270185 -1.6162819 0.56482261 453 57217792 6960 10 962 6960
3.5167696 -1.6641046 0.56631362 476 57413632 7348 10 1078 7348
3.4925227 -1.7053962 0.56577146 409 57609472 6304 10 1029 6304
3.4571741 -1.740995 0.56360275 408 57804544 6239 10 1024 6239
3.429394 -1.780093 0.56265396 385 57998592 5864 10 1049 5864
3.4169014 -1.8271831 0.56414491 404 58193664 6189 10 1049 6189
3.3924861 -1.8680203 0.56387383 417 58390272 6383 10 1048 6383
3.3744786 -1.9124422 0.56468707 372 58584064 5709 10 1081 5709
3.3413415 -1.9482177 0.56319612 370 58777344 5648 10 1064 5648
3.8691738 -1.0715282 0.48405463 512 54676992 8358 11 821 8358
3.835691 -1.1131099 0.48171741 185 54872576 2991 11 771 2991
3.8074789 -1.1557647 0.480048 60 55068672 966 11 753 966
3.8072188 -1.2069073 0.48171741 202 55264512 3265 11 778 3265
3.768533 -1.2457368 0.47893503 77 55460096 1230 11 805 1230
3.7501431 -1.2909181 0.47860116 94 55655680 1501 11 755 1501
3.7321479 -1.3361708 0.47837856 137 55851264 2184 11 740 2184
3.6754191 -1.3669691 0.47359285 96 56047360 1497 11 797 1497
3.6648571 -1.4144746 0.47437191 111 56243200 1738 11 758 1738
3.6527593 -1.4615573 0.47503969 222 56439296 3482 11 818 3482
3.6106799 -1.4963773 0.472146 144 56632320 2230 11 791 2230
3.6066577 -1.5468422 0.47392672 290 56828160 4524 11 823 4524
3.5656021 -1.5813134 0.47125563 354 57024000 5455 11 830 5455
3.5477352 -1.625778 0.47147822 325 57217792 5016 11 772 5016
3.5041628 -1.6581377 0.46858454 495 57413632 7534 11 853 7534
3.5031962 -1.7106096 0.47103307 369 57609472 5683 11 784 5683
3.475728 -1.7503408 0.47025397 408 57804544 6261 11 765 6261
3.4425209 -1.7869085 0.46880713 399 57998592 6082 11 794 6082
3.4203336 -1.829019 0.46880713 523 58193664 7970 11 838 7970
3.4002426 -1.8722923 0.46914104 568 58390272 8670 11 810 8670
3.8329432 -1.1634971 0.38525566 419 55068672 6791 12 1355 6791
3.7898889 -1.2014118 0.38264099 507 55264512 8089 12 1347 8089
3.7691853 -1.2459526 0.38211805 422 55460096 6717 12 1361 6717
3.7536118 -1.2921125 0.38211805 136 55655680 2160 12 1267 2160
3.7243428 -1.3333756 0.38089788 528 55851264 8341 12 1369 8341
3.6843581 -1.3702946 0.37871897 179 56047360 2788 12 1252 2788
3.6393847 -1.4046406 0.3761043 185 56243200 2837 12 1276 2837
3.6496196 -1.4603006 0.37871897 438 56439296 6833 12 1361 6833
3.6167006 -1.4988732 0.37732449 125 56632320 1945 12 1309 1945
3.6035278 -1.5454994 0.37784743 300 56828160 4663 12 1308 4663
3.5733633 -1.5847564 0.37680155 417 57024000 6436 12 1316 6436
3.5599861 -1.6313934 0.37741163 324 57217792 5008 12 1252 5008
3.5216897 -1.6664335 0.37566853 418 57413632 6411 12 1290 6411
3.5000796 -1.7090873 0.37558138 367 57609472 5627 12 1327 5627
3.4859607 -1.7554952 0.37627861 443 57804544 6803 12 1252 6803
3.4597349 -1.7958459 0.37584284 456 57998592 6995 12 1421 6995
3.7969909 -1.255147 0.28678915 566 55460096 9092 13 798 9092
3.7529929 -1.2918993 0.28490543 380 55655680 6014 13 792 6014
3.7293401 -1.3351651 0.28440312 521 55851264 8213 13 795 8213
3.7061269 -1.3783934 0.28396356 540 56047360 8481 13 776 8481
3.6880019 -1.4234101 0.28390077 481 56243200 7547 13 820 7547
3.6637707 -1.4659643 0.28346124 518 56439296 8100 13 826 8100
3.6196907 -1.5001128 0.28170311 412 56632320 6354 13 794 6354
3.6211874 -1.5530754 0.28308451 588 56828160 9167 13 812 9167
3.6018562 -1.597396 0.28308451 678 57024000 10570 13 810 10570
3.5602083 -1.6314952 0.28157753 414 57217792 6379 13 753 6379
3.5498421 -1.6797583 0.28226823 589 57413632 9125 13 778 9125
3.5110261 -1.7144338 0.28101242 515 57609472 7896 13 805 7896
3.4888318 -1.7569413 0.28094962 342 57804544 5242 13 797 5242
3.7399068 -1.3382101 0.18678378 473 55851264 7480 14 1191 7480
3.7091539 -1.3787796 0.1862132 230 56047360 3615 14 1093 3615
3.6789029 -1.4191566 0.18568064 112 56243200 1751 14 1083 1751
3.6519327 -1.460484 0.18530025 448 56439296 6946 14 1203 6946
3.6586609 -1.5155166 0.18632731 219 56632320 3445 14 1149 3445
3.6039701 -1.5449414 0.18484378 332 56828160 5118 14 1150 5118
3.5975289 -1.594722 0.18537633 660 57024000 10239 14 1197 10239
3.5540681 -1.6279272 0.18438731 332 57217792 5089 14 1088 5089
3.544663 -1.6765467 0.18484378 528 57413632 8137 14 1176 8137
3.7539902 -1.4481304 0.091443636 304 56243200 4927 15 1187 4927
3.670022 -1.4677203 0.090464711 367 56439296 5750 15 912 5750
3.6600482 -1.5160913 0.090588801 114 56632320 1801 15 956 1801
3.6301401 -1.556163 0.090423346 139 56828160 2182 15 939 2182
3.6135123 -1.6018091 0.090464711 458 57024000 7167 15 996 7167
3.3709934 -2.1931343 0.091416061 258 59557120 4179 15 1123 4179
3.4184172 -2.1639152 -0.008836763 221 59362816 3624 16 732 3624
3.3815467 -2.1991584 -0.0087027242 412 59557120 6717 16 968 6717
