# .PCD v0.7 - Point Cloud Data file format
VERSION 0.7
FIELDS x y z intensity t reflectivity ring noise range
SIZE 4 4 4 4 4 2 2 2 4
TYPE F F F F U U U U U
COUNT 1 1 1 1 1 1 1 1 1
WIDTH 349
HEIGHT 1
VIEWPOINT 0 0 0 1 0 0 0
POINTS 349
DATA ascii
2.8003087 0.13715811 0.48528245 167 49583104 1354 9 1356 1354
2.8274331 0.10372122 0.48941696 228 49777920 1873 9 1267 1873
2.8442848 0.06939964 0.49196127 181 49973504 1504 9 1243 1504
2.8567686 0.034632687 0.49386951 182 50167808 1525 9 1274 1525
2.8826478 -0.00043414786 0.49800402 202 50363136 1722 9 1272 1722
2.8942716 -0.035957381 0.49991226 207 50558720 1781 9 1220 1781
2.9044693 -0.071741439 0.50166148 213 50754304 1846 9 1210 1846
2.9319813 -0.10844028 0.50627303 224 50948352 1980 9 1231 1980
2.9708588 -0.14640968 0.51279283 195 51143680 1770 9 1268 1770
2.989532 -0.18413289 0.5161323 173 51339008 1595 9 1208 1595
3.0146155 -0.2228466 0.52058482 167 51533824 1567 9 1258 1567
3.026408 -0.26109853 0.52297014 163 51729152 1553 9 1293 1553
3.0396783 -0.29986739 0.52567345 134 51923968 1283 9 1247 1283
2.4635503 0.68140179 0.38373765 380 46063360 2536 10 1341 2536
2.4765172 0.65238017 0.38441536 344 46257664 2305 10 1338 2305
2.4958701 0.62482595 0.38604188 365 46453760 2467 10 1381 2467
2.51299 0.59643728 0.38739732 311 46648576 2121 10 1325 2121
2.528821 0.56750536 0.38861719 348 46843648 2388 10 1375 2388
2.5385027 0.53704482 0.38902381 349 47038720 2401 10 1356 2401
2.5449018 0.50585306 0.38902381 219 47235072 1507 10 1366 1507
2.5626068 0.47675803 0.39065033 28 47430400 194 10 1280 194
2.574122 0.44628963 0.39146358 22 47626496 158 10 1352 158
2.5823395 0.41513893 0.3918702 189 47821824 1324 10 1292 1324
2.6097815 0.38675568 0.3949877 310 48017408 2204 10 1400 2204
2.6104038 0.35416827 0.39444554 255 48212480 1809 10 1365 1809
2.6617544 0.32791603 0.40095156 63 48408832 468 10 1322 468
2.6439133 0.29283115 0.39796963 26 48604672 187 10 1283 187
2.6532238 0.26094523 0.39878288 32 48800512 232 10 1255 232
2.6937377 0.23158601 0.40393353 316 48996096 2354 10 1277 2354
2.7032936 0.1990205 0.40488231 290 49192448 2178 10 1362 2178
2.7144325 0.16637622 0.40610218 199 49388032 1506 10 1336 1506
2.7370512 0.13406844 0.4089486 48 49583104 374 10 1305 374
2.7474015 0.1007962 0.41016847 20 49777920 154 10 1275 154
2.7870603 0.06801109 0.41545463 265 49973504 2106 10 1363 2106
2.790657 0.033840086 0.41586128 228 50167808 1816 10 1336 1816
2.8077052 -0.00041289299 0.41816548 152 50363136 1228 10 1314 1228
2.7936192 -0.034693576 0.4162679 25 50558720 199 10 1247 199
2.8098209 -0.069391094 0.41857213 23 50754304 185 10 1259 185
2.8711333 -0.10618184 0.4271113 177 50948352 1496 10 1313 1496
2.8725829 -0.14155376 0.42751792 132 51143680 1120 10 1322 1120
2.9022739 -0.17874724 0.43185529 161 51339008 1387 10 1283 1387
2.9196234 -0.21581246 0.43456614 245 51533824 2147 10 1316 2147
2.9394584 -0.25358605 0.43768364 161 51729152 1436 10 1322 1436
2.9016159 -0.28622991 0.43293965 19 51923968 172 10 1311 172
2.9687836 -0.3296985 0.44269872 59 52119552 538 10 1201 538
2.4149075 0.63616037 0.3141064 244 46257664 1545 11 1009 1545
2.4649515 0.61709052 0.31900343 46 46453760 305 11 993 305
2.4655697 0.58518988 0.31822434 42 46648576 277 11 1027 277
2.4628682 0.55271482 0.3171114 174 46843648 1126 11 1048 1126
2.4782162 0.52429998 0.31811306 229 47038720 1492 11 1008 1492
2.4600949 0.4890089 0.31533065 82 47235072 526 11 1016 526
2.4961991 0.46441334 0.31878084 197 47430400 1289 11 1045 1289
2.5085647 0.43493351 0.3195599 342 47626496 2249 11 1023 2249
2.5235252 0.40569276 0.32067284 338 47821824 2239 11 1071 2239
2.5528903 0.37833318 0.32345524 156 48017408 1056 11 1029 1056
2.5642345 0.34791106 0.32423431 30 48212480 208 11 991 208
2.5732424 0.31702462 0.32479078 34 48408832 235 11 1015 235
2.5927434 0.28717121 0.32657152 249 48604672 1720 11 1061 1720
2.6029954 0.25601253 0.32735059 262 48800512 1818 11 1068 1818
2.6099017 0.22439043 0.32779577 285 48996096 1982 11 1132 1982
2.6511121 0.19518626 0.33213627 39 49192448 283 11 1035 283
2.6622353 0.16318427 0.33313796 28 49388032 206 11 1026 206
2.6501408 0.12982352 0.3315798 89 49583104 639 11 986 639
2.7001975 0.099070981 0.3370333 325 49777920 2407 11 1028 2407
2.7061775 0.066048481 0.33758977 300 49973504 2230 11 1095 2230
2.7266583 0.033072818 0.33981568 121 50167808 916 11 1001 916
2.7248714 -0.00038939997 0.33959308 30 50363136 229 11 1046 229
2.72963 -0.033890121 0.34014955 30 50558720 231 11 981 231
2.7707348 -0.068420492 0.34482399 271 50754304 2112 11 1108 2112
2.7945142 -0.10333802 0.34760636 232 50948352 1842 11 1038 1842
2.8128872 -0.13860412 0.34983227 176 51143680 1417 11 1054 1417
2.8208933 -0.17372434 0.35094523 208 51339008 1687 11 1049 1687
2.8353975 -0.20957556 0.35283723 172 51533824 1411 11 1086 1411
2.861325 -0.24683528 0.35606483 13 51729152 115 11 918 115
2.8828049 -0.28437176 0.3588472 22 51923968 193 11 982 193
2.9087291 -0.32302132 0.36218607 194 52119552 1688 11 979 1688
2.9163814 -0.36015475 0.36352161 206 52314368 1806 11 1024 1806
2.9206045 -0.39712232 0.36452326 194 52508672 1710 11 1079 1710
2.3456519 0.61792767 0.24702665 149 46257664 889 12 1713 889
2.3752854 0.59465736 0.24903123 432 46453760 2612 12 1675 2612
2.3862813 0.56638384 0.24937986 435 46648576 2643 12 1746 2643
2.3998563 0.53858376 0.24998994 438 46843648 2671 12 1690 2671
2.3955636 0.50682676 0.24903123 231 47038720 1397 12 1670 1397
2.4123509 0.47952613 0.24998994 49 47235072 300 12 1612 300
2.4268687 0.45152536 0.25077435 138 47430400 848 12 1670 848
2.447932 0.42443049 0.25216883 204 47626496 1270 12 1677 1270
2.4323008 0.39104116 0.25033855 50 47821824 307 12 1610 307
2.4398725 0.36160132 0.25060004 50 48017408 308 12 1576 308
2.5161896 0.34139967 0.25696242 215 48212480 1399 12 1615 1399
2.5132685 0.30964479 0.25635231 377 48408832 2437 12 1615 2437
2.5277708 0.27998456 0.25731102 348 48604672 2269 12 1652 2269
2.5567935 0.25147527 0.25957707 165 48800512 1103 12 1798 1103
2.5527391 0.21948422 0.25896698 23 48996096 153 12 1648 153
2.566169 0.1889447 0.25992569 31 49192448 209 12 1550 209
2.5921583 0.15889895 0.26201743 280 49388032 1903 12 1708 1903
2.6068482 0.127709 0.26315045 302 49583104 2079 12 1767 2079
2.6141925 0.095927656 0.26367339 309 49777920 2136 12 1791 2136
2.6350908 0.064323574 0.2654165 33 49973504 232 12 1621 232
2.6436508 0.032077655 0.26611376 29 50167808 206 12 1603 206
2.6697464 -0.00037376562 0.26837981 133 50363136 957 12 1620 957
2.6894629 -0.03338578 0.27012292 266 50558720 1940 12 1644 1940
2.6948261 -0.066535495 0.27064586 262 50754304 1920 12 1626 1920
2.7226765 -0.10067168 0.27317336 80 50948352 605 12 1760 605
2.7291958 -0.13446884 0.27387062 90 51143680 679 12 1607 679
2.7641294 -0.17022081 0.27709538 157 51339008 1221 12 1729 1221
2.762826 -0.20420168 0.27718255 24 51533824 188 12 1538 188
2.777977 -0.23963398 0.27875134 27 51729152 212 12 1638 212
2.7966373 -0.27586034 0.28066877 253 51923968 2015 12 1694 2015
2.8098731 -0.31203002 0.28215042 225 52119552 1820 12 1713 1820
2.8443904 -0.35125479 0.28554949 79 52314368 655 12 1646 655
2.8823109 -0.39191037 0.28929719 35 52508672 301 12 1581 301
2.8713722 -0.42637253 0.28877425 110 52704256 935 12 1638 935
2.3070681 0.57759041 0.18481734 243 46453760 1383 13 1037 1383
2.3392305 0.55522412 0.1864499 111 46648576 648 13 1033 648
2.3604753 0.52975225 0.18739176 47 46843648 280 13 976 280
2.3648458 0.50033283 0.18726617 41 47038720 244 13 984 244
2.3610184 0.46933058 0.18663827 262 47235072 1527 13 1063 1527
2.3901494 0.44469953 0.18814524 417 47430400 2480 13 1031 2480
2.4013267 0.41635731 0.18852198 432 47626496 2580 13 1022 2580
2.4190655 0.38891545 0.18933825 244 47821824 1474 13 1037 1474
2.4335284 0.3606621 0.18996616 210 48017408 1280 13 984 1280
2.4328263 0.33010164 0.1896522 358 48212480 2170 13 1022 2170
2.4594767 0.30302569 0.1910964 196 48408832 1211 13 1068 1211
2.4590421 0.27238241 0.19084524 28 48604672 176 13 972 176
2.468159 0.24277093 0.19122197 52 48800512 326 13 946 326
2.523654 0.21698788 0.19454987 257 48996096 1659 13 1037 1659
2.500248 0.18410085 0.19291732 461 49192448 2912 13 1041 2912
2.5172613 0.15431887 0.19385917 384 49388032 2457 13 1026 2457
2.5229528 0.12361133 0.19411033 135 49583104 869 13 981 869
2.5492136 0.093552805 0.1956801 36 49777920 239 13 986 239
2.5601473 0.062505081 0.196308 47 49973504 314 13 953 314
2.5976458 0.031526111 0.19863126 330 50167808 2240 13 1053 2240
2.599833 -0.00035393712 0.19875684 313 50363136 2127 13 1080 2127
2.6215878 -0.03253353 0.20013823 250 50558720 1729 13 1054 1729
2.6628954 -0.065742575 0.20277543 43 50754304 311 13 977 311
2.6718616 -0.098785624 0.20340334 35 50948352 256 13 997 256
2.6794193 -0.13200933 0.20396845 187 51143680 1356 13 1022 1356
2.6855667 -0.16537184 0.20447077 354 51339008 2577 13 1073 2577
2.69926 -0.19949464 0.20547542 158 51533824 1167 13 1027 1167
2.7015803 -0.23303324 0.20578937 321 51729152 2375 13 1021 2375
2.7094421 -0.26724741 0.20648007 304 51923968 2268 13 993 2268
2.7595222 -0.30643174 0.20987076 124 52119552 965 13 983 965
2.7367346 -0.3379457 0.20867774 21 52314368 165 13 1013 165
2.8243501 -0.38402161 0.21451725 57 52508672 470 13 1015 470
2.8135018 -0.41777149 0.21414052 263 52704256 2140 13 1114 2140
2.8199868 -0.4541719 0.214894 219 52897536 1799 13 994 1799
2.8427165 -0.49369949 0.21671492 143 53092352 1199 13 1108 1199
2.2808285 0.54179537 0.12481824 358 46648576 1974 14 1463 1974
2.2960806 0.51573485 0.12516059 485 46843648 2694 14 1483 2694
2.3061471 0.48834699 0.12531275 461 47038720 2569 14 1454 2569
2.3158867 0.46078962 0.1254649 419 47235072 2343 14 1492 2343
2.3233316 0.43270102 0.12554099 124 47430400 697 14 1467 697
2.3491428 0.40774292 0.12633981 42 47626496 243 14 1427 243
2.352983 0.37872601 0.12630177 45 47821824 260 14 1418 260
2.3792 0.35304612 0.12713863 243 48017408 1411 14 1505 1411
2.3942454 0.32530123 0.12755705 399 48212480 2335 14 1488 2335
2.4010324 0.29626229 0.12767117 360 48408832 2115 14 1442 2115
2.4313035 0.26974654 0.12869823 248 48604672 1491 14 1430 1491
2.4165301 0.23812932 0.12801352 397 48800512 2348 14 1487 2348
2.4252439 0.20897061 0.12824176 461 48996096 2740 14 1494 2740
2.4495504 0.18080826 0.12907861 236 49192448 1430 14 1443 1430
2.4635537 0.1514689 0.12953508 32 49388032 200 14 1359 200
2.4692192 0.1214216 0.12968723 31 49583104 194 14 1391 194
2.5074716 0.092468187 0.13109468 312 49777920 1971 14 1475 1971
2.5104156 0.061739523 0.13117076 384 49973504 2428 14 1515 2428
2.5179784 0.031013289 0.13143703 412 50167808 2619 14 1474 2619
2.5651355 0.00010636214 0.13322486 88 50363136 584 14 1420 584
2.5389645 -0.03105014 0.13223585 45 50558720 295 14 1369 295
2.5443861 -0.062352598 0.13246408 43 50754304 283 14 1393 283
2.5953562 -0.095489688 0.13444211 338 50948352 2287 14 1479 2287
2.5939889 -0.12733151 0.13444211 338 51143680 2287 14 1507 2287
2.6321268 -0.16160956 0.13596368 229 51339008 1599 14 1433 1599
2.6389143 -0.19456021 0.13630602 47 51533824 334 14 1418 334
2.6383193 -0.22710079 0.1363821 57 51729152 405 14 1400 405
2.6671562 -0.26259768 0.13759935 114 51923968 824 14 1472 824
2.6756511 -0.29663104 0.13805582 21 52119552 156 14 1474 156
2.6807351 -0.33054492 0.13839817 92 52314368 678 14 1359 678
2.7071724 -0.36758912 0.13957737 277 52508672 2075 14 1467 2075
2.7162957 -0.40283683 0.14010993 286 52704256 2166 14 1418 2166
2.768369 -0.44535297 0.14231618 53 52897536 422 14 1446 422
2.7912471 -0.48424903 0.14341931 23 53092352 190 14 1430 190
2.79983 -0.52121067 0.14398991 130 53287680 1060 14 1493 1060
2.214606 0.49744847 0.067260072 468 46843648 2414 15 1194 2414
2.2655432 0.4797557 0.067894302 63 47038720 339 15 1203 339
2.2742021 0.45250276 0.067935668 45 47235072 243 15 1184 243
2.2825329 0.42510948 0.067977026 58 47430400 314 15 1147 314
2.3053114 0.40014237 0.068225205 392 47626496 2147 15 1251 2147
2.313997 0.37245744 0.068280354 481 47821824 2643 15 1257 2643
2.3223498 0.34461954 0.068335511 467 48017408 2580 15 1296 2580
2.3333397 0.317036 0.068432018 170 48212480 948 15 1294 948
2.3628569 0.29155803 0.068790503 45 48408832 256 15 1187 256
2.366257 0.26254019 0.068790503 61 48604672 346 15 1233 346
2.3633299 0.23289542 0.068707772 224 48800512 1264 15 1232 1264
2.3958967 0.2064466 0.069121405 395 48996096 2290 15 1304 2290
2.4022386 0.17732351 0.069176555 429 49192448 2490 15 1275 2490
2.4132159 0.14838186 0.069300644 313 49388032 1831 15 1217 1831
2.4228446 0.11914844 0.069410942 329 49583104 1938 15 1253 1938
2.4341168 0.089774385 0.069548823 411 49777920 2440 15 1263 2440
2.4650233 0.060630161 0.069962449 229 49973504 1394 15 1212 1394
2.4985762 0.030777292 0.070417441 34 50167808 214 15 1131 214
2.5037653 0.00011305659 0.070486382 40 50363136 252 15 1152 252
2.4755828 -0.030265378 0.07010033 248 50558720 1521 15 1236 1521
2.5200071 -0.061751466 0.070720777 371 50754304 2359 15 1229 2359
2.5150628 -0.09252353 0.07066562 378 50948352 2396 15 1270 2396
2.5397041 -0.12465873 0.071024105 86 51143680 558 15 1126 558
2.5679235 -0.15765813 0.071437731 31 51339008 207 15 1157 207
2.5568206 -0.18849562 0.071313642 64 51533824 423 15 1153 423
2.5961559 -0.22346526 0.071892723 321 51729152 2180 15 1239 2180
2.5991886 -0.25589597 0.071975455 314 51923968 2143 15 1230 2143
2.628648 -0.29141331 0.072430447 200 52119552 1400 15 1215 1400
2.6308281 -0.32438394 0.072513171 167 52314368 1175 15 1203 1175
2.6395297 -0.35839462 0.072692409 291 52508672 2066 15 1276 2066
2.6566925 -0.39398888 0.072995737 37 52704256 269 15 1145 269
2.6486959 -0.42608404 0.072954372 23 52897536 167 15 1167 167
2.6708524 -0.46334502 0.073340431 164 53092352 1207 15 1186 1207
2.7062511 -0.50377709 0.073919512 258 53287680 1958 15 1204 1958
2.718498 -0.5406574 0.074181475 258 53482240 1985 15 1186 1985
2.7732852 -0.58703035 0.075050101 77 53677056 619 15 1256 619
2.2058606 0.46753266 0.011168483 559 47038720 2848 16 1001 2848
2.2173162 0.44159901 0.011101464 517 47235072 2649 16 947 2649
2.2304325 0.41582063 0.011012105 493 47430400 2542 16 1013 2542
2.2402933 0.38927355 0.010956256 492 47626496 2549 16 989 2549
2.2508249 0.36270589 0.010889236 64 47821824 337 16 896 337
2.259063 0.33564463 0.010844557 63 48017408 333 16 933 333
2.2669749 0.30843574 0.010799877 59 48212480 313 16 879 313
2.3033388 0.28463468 0.010431271 344 48408832 1859 16 926 1859
2.3056645 0.25623745 0.010442441 421 48604672 2270 16 973 2270
2.30565 0.22762989 0.010475951 487 48800512 2619 16 975 2619
2.334172 0.20155115 0.010185534 251 48996096 1382 16 957 1382
2.3673835 0.17517449 0.0098392684 46 49192448 263 16 941 263
2.371351 0.14623262 0.0098169278 38 49388032 219 16 922 219
2.3769619 0.117318 0.0097722486 175 49583104 995 16 960 995
2.3852174 0.088398285 0.0096940594 348 49777920 1987 16 995 1987
2.3941197 0.059318181 0.0096047008 355 49973504 2040 16 1014 2040
2.4226635 0.030279595 0.0092919441 216 50167808 1273 16 982 1273
2.4148531 0.00054698461 0.0093813026 398 50363136 2326 16 1031 2326
2.4166777 -0.02911143 0.009358963 415 50558720 2429 16 1075 2429
2.4491265 -0.059573241 0.0089903576 231 50754304 1391 16 949 1391
2.4632001 -0.090174399 0.008822809 46 50948352 284 16 920 284
2.4609091 -0.12034586 0.0088339793 48 51143680 295 16 969 295
2.4702258 -0.15120971 0.0087111108 224 51339008 1377 16 954 1377
2.5120625 -0.18474557 0.008219636 400 51533824 2543 16 928 2543
2.5125949 -0.21581571 0.0081861261 384 51729152 2449 16 952 2449
2.5396113 -0.24957123 0.0078510307 80 51923968 521 16 851 521
2.5502713 -0.28225949 0.0076946518 37 52119552 249 16 918 249
2.5704336 -0.31647009 0.0074265748 72 52314368 488 16 927 488
2.5703199 -0.34852746 0.0073818956 333 52508672 2246 16 965 2246
2.5945342 -0.38429606 0.007057969 256 52704256 1767 16 951 1767
2.6044316 -0.41848779 0.0068904208 211 52897536 1474 16 937 1474
2.620775 -0.45417616 0.0066446839 283 53092352 2007 16 965 2007
2.6218855 -0.48758367 0.0065664947 268 53287680 1913 16 907 1913
2.6363003 -0.52381682 0.0063319271 31 53482240 230 16 910 230
2.6511958 -0.56068361 0.0060861898 23 53677056 175 16 883 175
2.7065575 -0.60719311 0.0053713182 213 53872128 1646 16 905 1646
2.1739562 0.43257394 -0.042596038 496 47235072 2444 17 988 2444
2.1830306 0.40659487 -0.042739127 507 47430400 2506 17 975 2506
2.1947484 0.38097033 -0.042989526 424 47626496 2111 17 968 2111
2.216032 0.35670573 -0.043597642 118 47821824 600 17 883 600
2.2172768 0.32904515 -0.043490328 478 48017408 2409 17 1003 2409
2.2241187 0.30221415 -0.043597642 486 48212480 2457 17 951 2457
2.2306354 0.27526471 -0.04370496 472 48408832 2393 17 943 2393
2.2457647 0.24919116 -0.044134218 136 48604672 699 17 897 699
2.2774956 0.22445095 -0.045171596 55 48800512 292 17 920 292
2.2820699 0.19665694 -0.04524314 35 48996096 188 17 936 188
2.2992613 0.16973875 -0.045779712 230 49192448 1228 17 997 1228
2.321121 0.14273395 -0.046495143 402 49388032 2182 17 946 2182
2.3197031 0.1140927 -0.046387829 406 49583104 2198 17 969 2198
2.3369076 0.086204574 -0.046960175 325 49777920 1784 17 982 1784
2.3487792 0.057789218 -0.047353663 51 49973504 287 17 880 287
2.3563066 0.029046815 -0.047604065 53 50167808 299 17 894 299
2.3794708 0.00012661501 -0.048426811 114 50363136 650 17 979 650
2.4012773 -0.02934536 -0.049213789 398 50558720 2302 17 1005 2302
2.3977394 -0.058736615 -0.049106471 333 50754304 1923 17 939 1923
2.4128168 -0.088746421 -0.049678817 124 50948352 729 17 928 729
2.4175351 -0.11864358 -0.04989345 394 51143680 2315 17 991 2315
2.4288642 -0.1490996 -0.050358478 379 51339008 2251 17 962 2251
2.4427979 -0.18007229 -0.050930824 311 51533824 1874 17 912 1874
2.4712698 -0.212697 -0.052039746 30 51729152 190 17 921 190
2.4814026 -0.24428208 -0.052504778 45 51923968 285 17 935 285
2.4831843 -0.2752656 -0.052683633 249 52119552 1562 17 895 1562
2.4984641 -0.30804375 -0.053363297 433 52314368 2753 17 976 2753
2.5034082 -0.33989197 -0.05368524 370 52508672 2368 17 989 2368
2.5376012 -0.37631008 -0.055080332 57 52704256 381 17 935 381
2.5347655 -0.40773976 -0.055151876 42 52897536 283 17 880 283
2.5571408 -0.4436014 -0.05615348 99 53092352 673 17 912 673
2.5868731 -0.48153713 -0.057441261 289 53287680 2009 17 941 2009
2.5915504 -0.51539159 -0.057834748 225 53482240 1577 17 993 1577
2.5977404 -0.54984719 -0.05829978 289 53677056 2045 17 991 2045
2.6288245 -0.59022766 -0.059694871 313 53872128 2280 17 959 2280
2.646663 -0.62844938 -0.060624935 296 54066432 2198 17 978 2198
2.1224587 0.42233634 -0.092958659 208 47235072 982 18 1328 982
2.134351 0.3975369 -0.093378685 167 47430400 790 18 1226 790
2.1459534 0.37250903 -0.093798704 37 47626496 177 18 1189 177
2.1552906 0.34693915 -0.094098724 51 47821824 245 18 1170 245
2.16926 0.32192788 -0.094698757 84 48017408 407 18 1115 407
2.193819 0.29810232 -0.095958821 454 48212480 2236 18 1151 2236
2.200284 0.27152458 -0.096138835 467 48408832 2305 18 1243 2305
2.2123797 0.24549252 -0.09667886 397 48604672 1974 18 1244 1974
2.2271464 0.21949752 -0.097398899 319 48800512 1605 18 1218 1605
2.2266886 0.19189388 -0.097218893 403 48996096 2021 18 1164 2021
2.2298713 0.16462785 -0.097278893 460 49192448 2309 18 1228 2309
2.2396944 0.13774031 -0.097758919 223 49388032 1128 18 1143 1128
2.277108 0.11200479 -0.099919036 51 49583104 267 18 1203 267
2.284296 0.084272526 -0.10027906 36 49777920 190 18 1136 190
2.3130994 0.056917224 -0.10195915 126 49973504 678 18 1173 678
2.3036425 0.028406244 -0.10135911 427 50167808 2276 18 1144 2276
2.3128014 0.0001338875 -0.10189915 489 50363136 2625 18 1249 2625
2.3276007 -0.028433129 -0.10279919 362 50558720 1970 18 1221 1970
2.3370554 -0.057240289 -0.10339922 56 50754304 308 18 1159 308
2.3411648 -0.086099491 -0.10369924 38 50948352 211 18 1094 211
2.3459139 -0.11511723 -0.10405926 46 51143680 256 18 1152 256
2.3811882 -0.14616534 -0.10627939 354 51339008 2023 18 1213 2023
2.3901656 -0.17618412 -0.10693942 396 51533824 2283 18 1256 2283
2.4007521 -0.20661663 -0.10771947 355 51729152 2070 18 1201 2070
2.4149232 -0.23772712 -0.10873952 398 51923968 2355 18 1150 2355
2.4306741 -0.26943654 -0.10987958 396 52119552 2379 18 1186 2379
2.432138 -0.29985586 -0.1101796 358 52314368 2159 18 1126 2159
2.4342098 -0.33048603 -0.11053962 301 52508672 1825 18 1177 1825
2.091367 0.38953874 -0.14262383 235 47430400 1073 19 1122 1073
2.1107163 0.36639881 -0.14388943 328 47626496 1519 19 1084 1519
2.118989 0.34110221 -0.14422692 361 47821824 1679 19 993 1679
2.129915 0.31609598 -0.14481755 367 48017408 1717 19 1035 1717
2.1454821 0.29154277 -0.14583002 290 48212480 1372 19 1034 1372
2.1558208 0.26604551 -0.14642064 54 48408832 260 19 963 260
2.1589234 0.23957023 -0.14642064 45 48604672 217 19 987 217
2.1527758 0.21218085 -0.14566128 29 48800512 140 19 937 140
2.196914 0.1893331 -0.14920495 338 48996096 1658 19 993 1658
2.2020531 0.1625789 -0.14945808 363 49192448 1785 19 1076 1785
2.2058716 0.13566607 -0.14962684 356 49388032 1755 19 985 1755
2.2262797 0.10951332 -0.15122993 237 49583104 1190 19 1004 1190
2.2394052 0.082624003 -0.15224241 239 49777920 1212 19 1021 1212
2.2382581 0.055088144 -0.15207367 367 49973504 1857 19 1013 1857
2.2527146 0.027786791 -0.1532549 434 50167808 2221 19 1023 2221
2.2688291 0.00013868415 -0.15460487 392 50363136 2036 19 997 2036
2.282609 -0.027876059 -0.1557861 390 50558720 2052 19 963 2052
2.2970369 -0.056253519 -0.1570517 347 50754304 1850 19 929 1850
2.2732713 -0.083591416 -0.1551111 114 50948352 597 19 1038 597
2.0742767 0.36045575 -0.19231457 279 47626496 1256 20 1302 1256
2.0824697 0.33560598 -0.19274934 320 47821824 1442 20 1168 1442
2.0913477 0.31075522 -0.19329281 341 48017408 1543 20 1182 1543
2.1009138 0.28587085 -0.19394496 309 48212480 1411 20 1289 1411
2.1111698 0.26092014 -0.19470581 314 48408832 1442 20 1333 1442
2.1191528 0.23554134 -0.19524929 282 48604672 1301 20 1392 1301
2.1327658 0.21059087 -0.19644491 327 48800512 1521 20 1155 1521
2.1302376 0.18397592 -0.19590145 239 48996096 1107 20 1173 1107
2.1442313 0.1586991 -0.19720577 81 49192448 380 20 1183 380
2.7324946 -0.50816995 -0.26600868 56 53287680 444 20 1337 444
2.7416525 -0.54476553 -0.26774776 39 53482240 309 20 1249 309
2.7503216 -0.58166194 -0.26948687 27 53677056 216 20 1234 216
