# .PCD v0.7 - Point Cloud Data file format
VERSION 0.7
FIELDS x y z intensity t reflectivity ring noise range
SIZE 4 4 4 4 4 2 2 2 4
TYPE F F F F U U U U U
COUNT 1 1 1 1 1 1 1 1 1
WIDTH 446
HEIGHT 1
VIEWPOINT 0 0 0 1 0 0 0
POINTS 446
DATA ascii
2.3985779 1.0268018 0.83938044 116 43921664 867 3 1188 867
2.4092321 0.99656022 0.83878899 19 44114944 144 3 1102 144
2.4603171 0.98250276 0.85180014 122 44310016 942 3 1108 942
2.4632738 0.94880456 0.8488431 210 44504064 1607 3 1175 1607
2.466671 0.91551453 0.84618169 99 44697600 753 3 1192 753
2.3490202 1.0408714 0.76342297 201 43728640 1442 4 884 1442
2.3607323 1.0115882 0.7631492 208 43921664 1490 4 872 1490
2.3827438 0.98658812 0.76616091 67 44114944 488 4 882 488
2.4250376 0.96940762 0.77546978 38 44310016 287 4 868 287
2.4268794 0.93577093 0.77245808 194 44504064 1426 4 890 1426
2.4499009 0.91027194 0.77601737 239 44697600 1772 4 889 1772
2.4726605 0.88434827 0.77957666 197 44893184 1476 4 897 1476
2.4878745 0.85550141 0.7809456 137 45089024 1032 4 879 1032
2.5155387 0.83063424 0.78614765 206 45283840 1570 4 901 1570
2.5172899 0.79709035 0.78368354 116 45480960 874 4 847 874
2.2884731 1.081997 0.69029164 146 43338496 1003 5 1086 1003
2.3068588 1.0562493 0.69180101 50 43533312 348 5 970 348
2.3258412 1.0306047 0.69356197 38 43728640 267 5 1012 267
2.3427615 1.0038908 0.69481975 237 43921664 1647 5 1130 1647
2.3549044 0.97506595 0.69481975 164 44114944 1142 5 1022 1142
2.3711865 0.9478898 0.69607759 26 44310016 186 5 946 186
2.3889616 0.92115676 0.69783854 27 44504064 195 5 911 195
2.4091587 0.89514077 0.70035416 23 44697600 167 5 976 167
2.4245188 0.86713827 0.70161194 71 44893184 508 5 964 508
2.4496219 0.84235382 0.70563698 23 45089024 169 5 995 169
2.4671271 0.81465644 0.70764947 25 45283840 184 5 1025 184
2.4880111 0.78782403 0.71066821 136 45480960 994 5 986 994
2.5150902 0.76256603 0.7154479 251 45676032 1858 5 957 1858
2.5270476 0.73245251 0.71620262 259 45870848 1919 5 1063 1919
2.5461071 0.70422316 0.71896976 232 46065920 1733 5 1018 1733
2.5526853 0.67243266 0.71846664 132 46261504 988 5 975 988
2.232224 1.0891248 0.61704576 292 43144192 1907 6 989 1907
2.2498214 1.0637296 0.61819094 301 43338496 1973 6 972 1973
2.25828 1.0340153 0.61704576 106 43533312 697 6 870 697
2.3188601 1.0275126 0.62941343 19 43728640 135 6 887 135
2.2883446 0.98058248 0.61841995 161 43921664 1059 6 885 1059
2.3325851 0.96582836 0.62666506 290 44114944 1956 6 991 1956
2.3478773 0.93857598 0.62758118 260 44310016 1760 6 954 1760
2.3673928 0.91284388 0.62964249 242 44504064 1650 6 986 1650
2.3902793 0.88812923 0.63261986 246 44697600 1694 6 939 1694
2.4092476 0.86167908 0.63468111 222 44893184 1539 6 967 1539
2.4187198 0.83173257 0.6344521 283 45089024 1960 6 989 1960
2.4333661 0.80351394 0.63559723 131 45283840 913 6 970 913
2.4513958 0.77623576 0.63765854 25 45480960 179 6 957 179
2.4719157 0.74948257 0.64040691 151 45676032 1070 6 899 1070
2.4977565 0.72396725 0.64452946 239 45870848 1713 6 911 1713
2.5205262 0.69715178 0.64796489 26 46065920 194 6 873 194
2.5392463 0.66889459 0.65048426 27 46261504 202 6 925 202
2.5557623 0.63981009 0.65254551 23 46458368 175 6 874 175
2.5842583 0.61334103 0.65758419 266 46654208 1988 6 942 1988
2.5868413 0.58051693 0.65643901 256 46850304 1906 6 920 1906
2.6023417 0.55054075 0.65850031 100 47045632 753 6 902 753
2.1909168 1.1029476 0.54944915 327 42948096 2057 7 1216 2057
2.208684 1.0781242 0.55047935 220 43144192 1390 7 1183 1390
2.2305942 1.0551219 0.55253965 417 43338496 2653 7 1227 2653
2.2451537 1.0284845 0.55295175 378 43533312 2410 7 1203 2410
2.2880235 1.0143348 0.55995685 158 43728640 1036 7 1175 1036
2.2679188 0.972305 0.55253965 41 43921664 261 7 1247 261
2.282392 0.94552404 0.55315775 41 44114944 262 7 1191 262
2.3210819 0.92834193 0.55933875 190 44310016 1242 7 1170 1242
2.315865 0.89345145 0.55563015 47 44504064 304 7 1158 304
2.3394964 0.86973673 0.55851465 32 44697600 210 7 1165 210
2.3601284 0.84458721 0.560781 43 44893184 284 7 1160 284
2.3823447 0.81969821 0.56345946 233 45089024 1547 7 1172 1547
2.4052329 0.79469734 0.5663439 307 45283840 2059 7 1247 2059
2.4334617 0.77103007 0.57046455 57 45480960 389 7 1188 389
2.4549139 0.7448011 0.57314301 77 45676032 531 7 1170 531
2.4666884 0.71543682 0.57376111 325 45870848 2241 7 1251 2241
2.4856567 0.68798262 0.57602745 309 46065920 2153 7 1333 2153
2.4995897 0.65892375 0.57726365 352 46261504 2458 7 1210 2458
2.5226753 0.63200295 0.58056021 250 46458368 1768 7 1188 1768
2.5492828 0.60551816 0.58468086 324 46654208 2332 7 1302 2332
2.5651147 0.57611763 0.58653516 338 46850304 2442 7 1244 2442
2.5882664 0.54803991 0.59003776 115 47045632 842 7 1177 842
2.5660038 0.51051265 0.58385676 29 47241984 208 7 1194 208
2.6221011 0.4882938 0.59457046 221 47437312 1644 7 1156 1644
2.6654978 0.46260017 0.60260576 329 47633408 2517 7 1155 2517
2.1439137 1.1124762 0.48230901 319 42752512 1930 8 1018 1930
2.1626735 1.088735 0.4834055 44 42948096 271 8 954 271
2.1785219 1.0634071 0.48395377 34 43144192 210 8 993 210
2.1940739 1.037854 0.48450202 43 43338496 265 8 1035 265
2.2093265 1.0120791 0.48505026 321 43533312 1966 8 1037 1966
2.2260742 0.98688263 0.48596403 365 43728640 2244 8 1002 2244
2.2452464 0.96258909 0.48742601 353 43921664 2185 8 1002 2185
2.2568898 0.93496394 0.48742601 93 44114944 579 8 961 579
2.2855387 0.91413236 0.49089828 416 44310016 2612 8 1046 2612
2.3020883 0.88813883 0.49199477 405 44504064 2556 8 998 2556
2.3183434 0.86187655 0.49309129 355 44697600 2251 8 1027 2251
2.3342996 0.83534867 0.49418777 161 44893184 1028 8 1012 1028
2.3564613 0.8107968 0.49656352 183 45089024 1180 8 1011 1180
2.393307 0.79075897 0.5018633 372 45283840 2449 8 1086 2449
2.4018934 0.76103306 0.50168055 330 45480960 2172 8 1046 2172
2.4317503 0.73777729 0.50570107 32 45676032 218 8 958 218
2.4519525 0.71116513 0.50789404 36 45870848 247 8 960 247
2.4813416 0.68678898 0.51191455 27 46065920 190 8 986 190
2.461061 0.64877325 0.50643206 81 46261504 548 8 979 548
2.5117545 0.62926871 0.51465583 32 46458368 226 8 999 226
2.5374627 0.60271239 0.5181281 48 46654208 343 8 966 343
2.5379527 0.57002133 0.5168488 152 46850304 1069 8 1019 1069
2.5437949 0.53863031 0.51666605 338 47045632 2369 8 1049 2369
2.5617845 0.50967383 0.51885909 117 47241984 830 8 1002 830
2.5717123 0.47891784 0.51959008 88 47437312 627 8 999 627
2.6103318 0.45303413 0.52580357 276 47633408 2010 8 975 2010
2.6273429 0.42284018 0.5279966 306 47828992 2247 8 1037 2247
2.6547022 0.3938823 0.53219986 268 48024320 2003 8 961 2003
2.6827173 0.36444837 0.53658587 239 48219392 1817 8 1012 1817
2.7016244 0.33330351 0.53932714 307 48416000 2359 8 1014 2359
2.1051929 1.1583455 0.42072046 224 42362368 1327 9 1255 1327
2.1061866 1.1254469 0.41833517 440 42557952 2578 9 1122 2578
2.119839 1.099516 0.41833517 467 42752512 2736 9 1174 2736
2.1305261 1.0720887 0.41785809 408 42948096 2384 9 1111 2384
2.1488461 1.0484598 0.41881222 442 43144192 2594 9 1156 2594
2.1633356 1.0228549 0.41913027 69 43338496 409 9 980 409
2.1981678 1.0065024 0.42310575 137 43533312 824 9 1110 824
2.2130616 0.9806512 0.42358282 468 43728640 2816 9 1131 2816
2.2303741 0.95575202 0.42453691 389 43921664 2353 9 1065 2353
2.250145 0.93170792 0.42596811 49 44114944 301 9 1075 301
2.2650762 0.90549034 0.42660418 51 44310016 314 9 1058 314
2.2769384 0.87798125 0.42676321 40 44504064 247 9 1087 247
2.2782862 0.84653634 0.42517301 318 44697600 1931 9 1108 1931
2.294081 0.8205086 0.42612714 53 44893184 325 9 1089 325
2.303977 0.79229492 0.42612714 55 45089024 338 9 1025 338
2.3200889 0.76612788 0.42724025 86 45283840 530 9 1071 530
2.3632011 0.74832338 0.43296498 408 45480960 2575 9 1108 2575
2.3788202 0.72127116 0.4340781 431 45676032 2735 9 1112 2735
2.4017165 0.69614571 0.43646342 350 45870848 2248 9 1106 2248
2.4148364 0.66793573 0.43725851 385 46065920 2483 9 1081 2483
2.4343081 0.64126796 0.43916672 416 46261504 2707 9 1146 2707
2.450614 0.61350346 0.44059792 425 46458368 2787 9 1059 2787
2.4445093 0.58019465 0.43837163 252 46654208 1636 9 1079 1636
2.5092461 0.56311548 0.44791281 38 46850304 261 9 1071 261
2.5217628 0.53350598 0.44886693 321 47045632 2189 9 1202 2189
2.5368352 0.50425088 0.45029813 327 47241984 2247 9 1110 2247
2.5651569 0.47723207 0.45395556 39 47437312 275 9 1072 275
2.5776298 0.4468973 0.45506871 31 47633408 221 9 1080 221
2.6004658 0.41805023 0.45793107 45 47828992 324 9 1055 324
2.60833 0.3865408 0.45840812 84 48024320 602 9 1076 602
2.6373353 0.35781825 0.46238363 29 48219392 214 9 1071 214
2.6542664 0.32699463 0.46445087 31 48416000 231 9 1058 231
2.6904619 0.29797992 0.46969852 315 48611840 2371 9 1143 2371
2.7066889 0.26619577 0.47176579 342 48807680 2600 9 1095 2600
2.7215557 0.23397361 0.473674 347 49002240 2660 9 1104 2660
2.7301297 0.20099241 0.47462812 263 49197824 2026 9 1112 2026
2.0456791 1.1585371 0.35568032 368 42167040 2076 10 1374 2076
2.0857856 1.147671 0.35974661 130 42362368 753 10 1115 753
2.0839818 1.1135864 0.35730684 46 42557952 263 10 1114 263
2.1010087 1.089753 0.357849 59 42752512 338 10 1146 338
2.118649 1.0661144 0.35852674 58 42948096 334 10 1133 334
2.1253388 1.0369948 0.35757792 360 43144192 2052 10 1210 2052
2.1558194 1.0193027 0.36028877 56 43338496 327 10 1060 327
2.1717691 0.99442005 0.36083093 46 43533312 270 10 1077 270
2.1765616 0.96448427 0.35974661 188 43728640 1086 10 1214 1086
2.1991622 0.94238305 0.36137313 484 43921664 2823 10 1265 2823
2.2123921 0.91608274 0.36164421 483 44114944 2824 10 1177 2824
2.2271476 0.89033484 0.36218637 503 44310016 2951 10 1217 2951
2.2471504 0.86650038 0.36354181 431 44504064 2550 10 1167 2550
2.2752614 0.84541303 0.36611712 546 44697600 3279 10 1201 3279
2.2882636 0.81842893 0.36652374 538 44893184 3239 10 1190 3239
2.2962606 0.78964275 0.36625266 433 45089024 2605 10 1133 2605
2.3142455 0.76419932 0.36747253 57 45283840 348 10 1055 348
2.326283 0.73663926 0.36787915 66 45480960 402 10 1153 402
2.3503184 0.71263409 0.37004784 490 45676032 3015 10 1125 3015
2.3664999 0.68594384 0.37113219 203 45870848 1258 10 1139 1258
2.3938384 0.66213125 0.37384304 54 46065920 341 10 1123 341
2.4113648 0.63522768 0.37519845 61 46261504 389 10 1097 389
2.4362791 0.6099171 0.37763825 168 46458368 1083 10 1098 1083
2.4320118 0.57723045 0.37601173 374 46654208 2382 10 1156 2382
2.4901505 0.55883312 0.38319549 48 46850304 321 10 1108 321
2.5084529 0.53069216 0.38482201 45 47045632 303 10 1171 303
2.5050585 0.4979395 0.38346657 453 47241984 3013 10 1211 3013
2.5226696 0.46933398 0.38509309 446 47437312 2995 10 1158 2995
2.5360489 0.43969446 0.38617742 405 47633408 2736 10 1212 2736
2.5617964 0.41183954 0.38902381 343 47828992 2355 10 1219 2355
2.5833189 0.38283801 0.39132804 411 48024320 2857 10 1209 2857
2.5956769 0.35217237 0.39241239 336 48219392 2350 10 1235 2350
2.5762026 0.31738886 0.38915935 111 48416000 764 10 1156 764
2.6508067 0.29359365 0.39891842 61 48611840 446 10 1047 446
2.6778746 0.26336604 0.40217146 366 48807680 2702 10 1202 2702
2.6789305 0.23031512 0.40190038 129 49002240 951 10 1199 951
2.7240438 0.20054522 0.4077287 36 49197824 277 10 1104 277
2.733222 0.16752523 0.40867752 30 49392384 231 10 1135 231
2.754864 0.13493846 0.41138837 339 49586432 2629 10 1177 2629
2.7573025 0.10115807 0.41152391 359 49779968 2788 10 1142 2788
2.011771 1.1721745 0.29518619 480 41971968 2639 11 1028 2639
2.0242741 1.1464195 0.2949636 526 42167040 2887 11 994 2887
2.0408022 1.122929 0.29529747 556 42362368 3059 11 1011 3059
2.0553052 1.0982689 0.29540879 551 42557952 3035 11 1023 3035
2.0739214 1.075709 0.29607654 239 42752512 1326 11 925 1326
2.095844 1.0546435 0.2971895 545 42948096 3043 11 1018 3043
2.1095214 1.0292804 0.29730079 503 43144192 2810 11 1005 2810
2.1255875 1.0050144 0.29774597 484 43338496 2713 11 967 2713
2.1350496 0.97761381 0.2974121 319 43533312 1786 11 944 1786
2.1623325 0.9581818 0.29930413 58 43728640 333 11 947 333
2.1748416 0.93196577 0.29941541 90 43921664 515 11 893 515
2.1971335 0.90976751 0.30075097 462 44114944 2650 11 952 2650
2.2053638 0.88163054 0.30041707 123 44310016 707 11 889 707
2.2410538 0.86415064 0.30342206 46 44504064 274 11 875 274
2.2598739 0.83969831 0.30442372 72 44697600 424 11 854 424
2.2774944 0.81457919 0.30531406 87 44893184 515 11 837 515
2.2704024 0.7807551 0.30331075 489 45089024 2859 11 968 2859
2.3034053 0.76062161 0.30609316 127 45283840 762 11 906 762
2.3116186 0.73199815 0.30598184 41 45480960 249 11 870 249
2.3384976 0.70905191 0.30809647 348 45676032 2110 11 911 2110
2.3470228 0.68030155 0.30809647 521 45870848 3155 11 947 3155
2.358068 0.65224314 0.30843034 513 46065920 3114 11 972 3114
2.3735826 0.62528098 0.30932072 454 46261504 2775 11 961 2775
2.39361 0.59924191 0.31076756 455 46458368 2812 11 907 2812
2.4133539 0.57280505 0.3122144 495 46654208 3090 11 935 3090
2.427959 0.54488611 0.31310475 531 46850304 3336 11 944 3336
2.4908562 0.52697212 0.3195599 98 47045632 649 11 886 649
2.494211 0.49578497 0.319226 52 47241984 341 11 823 341
2.4942451 0.46405008 0.31855825 120 47437312 782 11 841 782
2.5017102 0.43374616 0.31878084 229 47633408 1500 11 945 1500
2.5451119 0.40915981 0.32312134 47 47828992 323 11 867 323
2.5578058 0.37906086 0.32401171 35 48024320 237 11 846 237
2.575067 0.34937918 0.32545856 160 48219392 1100 11 903 1100
2.5949421 0.31969476 0.32723927 344 48416000 2388 11 921 2388
2.6213884 0.29033968 0.32979909 57 48611840 408 11 866 408
2.6405785 0.25970337 0.3315798 168 48807680 1204 11 913 1204
2.6574285 0.22846964 0.33313796 424 49002240 3061 11 902 3061
2.6659789 0.19627866 0.33380571 383 49197824 2777 11 1008 2777
2.6979449 0.16536796 0.33714458 267 49392384 1982 11 876 1982
2.7265713 0.13355657 0.34014955 329 49586432 2489 11 888 2489
2.7528331 0.10099472 0.34293196 380 49779968 2928 11 882 2928
2.7677741 0.067543119 0.34449008 330 49974272 2567 11 973 2567
1.9773227 1.1848464 0.2364808 568 41777408 3045 12 1451 3045
1.9934354 1.1614952 0.23665512 517 41971968 2776 12 1501 2776
2.0118732 1.1393991 0.2370909 561 42167040 3026 12 1493 3026
2.0291953 1.116545 0.23743951 549 42362368 2971 12 1494 2971
2.043623 1.0920289 0.23752667 471 42557952 2551 12 1507 2551
2.0595231 1.0682439 0.23778814 48 42752512 264 12 1359 264
2.0706971 1.0419946 0.23761383 65 42948096 356 12 1393 356
2.0851188 1.0173788 0.23778814 73 43144192 400 12 1390 400
2.0956454 0.99086326 0.23761383 386 43338496 2093 12 1530 2093
2.1284809 0.97460741 0.23961841 303 43533312 1677 12 1494 1677
2.1320829 0.94478333 0.23883401 67 43728640 371 12 1416 371
2.1462636 0.91972494 0.23909548 56 43921664 312 12 1388 312
2.1748774 0.90055609 0.24075143 433 44114944 2421 12 1519 2421
2.1857648 0.8737992 0.24075143 522 44310016 2919 12 1486 2919
2.2009709 0.84870201 0.24118721 539 44504064 3027 12 1505 3027
2.2186909 0.82440341 0.24188446 460 44697600 2599 12 1551 2599
2.236145 0.79979736 0.24258171 482 44893184 2743 12 1555 2743
2.2505019 0.77391517 0.24301748 465 45089024 2656 12 1552 2656
2.2636135 0.74748868 0.24336611 531 45283840 3043 12 1611 3043
2.3001592 0.72837138 0.24589363 242 45480960 1424 12 1382 1424
2.2917633 0.69488972 0.24432482 63 45676032 367 12 1493 367
2.313514 0.67059457 0.245545 47 45870848 278 12 1425 278
2.3340514 0.64560419 0.24667802 399 46065920 2361 12 1475 2361
2.359139 0.62147838 0.24824683 60 46261504 363 12 1429 363
2.3752854 0.59465736 0.24903123 50 46458368 305 12 1474 305
2.3882198 0.56684363 0.24955417 61 46654208 375 12 1394 375
2.4076326 0.54032773 0.25068718 416 46850304 2557 12 1439 2557
2.4121327 0.51032954 0.25051287 515 47045632 3159 12 1490 3159
2.4592521 0.48884153 0.25417343 137 47241984 872 12 1450 872
2.4836748 0.46208516 0.25582939 171 47437312 1103 12 1446 1103
2.4813056 0.4302116 0.25513214 476 47633408 3047 12 1458 3047
2.4922996 0.40067762 0.25565508 445 47828992 2862 12 1471 2862
2.4989998 0.37035489 0.25582939 489 48024320 3150 12 1469 3150
2.5537021 0.34648365 0.26027432 100 48219392 673 12 1469 673
2.5725927 0.31694466 0.26158166 395 48416000 2677 12 1544 2677
2.5812392 0.28589875 0.26201743 413 48611840 2811 12 1472 2811
2.6162789 0.25731704 0.26480642 39 48807680 276 12 1422 276
2.6261873 0.22578824 0.2654165 37 49002240 264 12 1382 264
2.6297541 0.19361687 0.26550367 73 49197824 516 12 1439 516
2.6498301 0.16242567 0.26707247 42 49392384 302 12 1455 302
2.6705289 0.13081932 0.26872844 57 49586432 414 12 1470 414
2.6789019 0.098292671 0.26933852 74 49779968 541 12 1369 541
2.702812 0.065966822 0.27134311 163 49974272 1205 12 1442 1205
2.019237 1.0790032 0.17922899 611 42557952 3220 13 953 3220
2.026124 1.0509272 0.17878945 614 42752512 3217 13 960 3217
2.0424342 1.0277783 0.17904061 579 42948096 3045 13 887 3045
2.0656571 1.007887 0.1797941 452 43144192 2402 13 927 2402
2.0914049 0.98885918 0.18073596 610 43338496 3284 13 877 3284
2.0988448 0.96104324 0.18042201 656 43533312 3514 13 961 3514
2.1232555 0.94087338 0.18130107 600 43728640 3254 13 945 3254
2.1190455 0.90806669 0.18023363 95 43921664 507 13 835 507
2.1420176 0.88695604 0.18104991 57 44114944 313 13 860 313
2.1657155 0.86578792 0.18192898 207 44310016 1135 13 900 1135
2.1845582 0.84237635 0.18249409 590 44504064 3254 13 920 3254
2.1919243 0.8144626 0.18230572 75 44697600 417 13 896 417
2.2177303 0.79321432 0.18337315 49 44893184 278 13 859 278
2.2320163 0.76756161 0.18368711 55 45089024 308 13 832 308
2.2403197 0.73980075 0.18362433 295 45283840 1653 13 928 1653
2.244472 0.71074718 0.18331037 499 45480960 2782 13 964 2782
2.2530248 0.68315053 0.18331037 142 45676032 795 13 911 795
2.2928729 0.66461504 0.18538246 58 45870848 332 13 853 332
2.3239429 0.64280987 0.18688942 498 46065920 2910 13 986 2910
2.3335865 0.61475128 0.18701501 509 46261504 2981 13 959 2981
2.3448274 0.58703721 0.18726617 556 46458368 3268 13 954 3268
2.3625367 0.56075197 0.18795687 304 46654208 1805 13 888 1805
2.3721614 0.53237295 0.18814524 329 46850304 1958 13 900 1958
2.3921862 0.50611275 0.1890243 548 47045632 3295 13 960 3295
2.4001746 0.4771077 0.18914989 479 47241984 2886 13 915 2886
2.4362664 0.45327234 0.1910964 53 47437312 326 13 856 326
2.4495125 0.42470425 0.19159871 54 47633408 335 13 828 335
2.4624228 0.39587909 0.19210105 58 47828992 362 13 838 362
2.4700572 0.36607006 0.19228941 152 48024320 958 13 893 958
2.5000772 0.33921599 0.19392197 42 48219392 268 13 852 268
2.5208912 0.31058276 0.1949894 58 48416000 375 13 842 375
2.5483201 0.28225753 0.19649638 385 48611840 2548 13 904 2548
2.5535784 0.25115955 0.19662195 450 48807680 2981 13 890 2981
2.5962431 0.22321814 0.19913357 321 49002240 2193 13 934 2193
2.6027682 0.19163398 0.19938475 289 49197824 1982 13 936 1982
2.6308241 0.16126342 0.20101729 373 49392384 2608 13 979 2608
2.6415765 0.12940522 0.20158242 385 49586432 2711 13 921 2711
2.6509445 0.097270884 0.20208474 422 49779968 2988 13 889 2988
2.0685728 0.97851312 0.12268806 606 43338496 3179 14 1279 3179
2.0786078 0.95222282 0.12261198 691 43533312 3622 14 1329 3622
2.0855687 0.92461914 0.12242179 633 43728640 3299 14 1274 3299
2.0995135 0.90013725 0.12253591 122 43921664 637 14 1254 637
2.1353292 0.88462746 0.12356296 72 44114944 385 14 1241 385
2.1358175 0.85427666 0.12314453 106 44310016 564 14 1103 564
2.1638548 0.83483368 0.12386727 559 44504064 3017 14 1297 3017
2.1720631 0.80752087 0.1237912 587 44697600 3156 14 1278 3156
2.1855729 0.78215164 0.12394335 611 44893184 3303 14 1322 3303
2.1902816 0.75364757 0.12375315 406 45089024 2182 14 1229 2182
2.2249846 0.73517317 0.12478021 607 45283840 3339 14 1239 3339
2.236697 0.7087189 0.12489432 565 45480960 3120 14 1314 3120
2.247138 0.68179774 0.1249704 510 45676032 2821 14 1396 2821
2.269732 0.65834379 0.12554099 94 45870848 526 14 1232 526
2.2805293 0.63124037 0.1256551 58 46065920 330 14 1308 330
2.294868 0.60498923 0.12592138 55 46261504 311 14 1186 311
2.3205371 0.58139342 0.12664412 226 46458368 1300 14 1327 1300
2.327497 0.55287308 0.12664412 57 46654208 327 14 1275 327
2.3438566 0.52645785 0.1270245 55 46850304 318 14 1223 318
2.3608944 0.49993086 0.12744294 55 47045632 321 14 1226 321
2.3766527 0.47286981 0.12782332 505 47241984 2975 14 1381 2975
2.3901358 0.44513145 0.12812763 527 47437312 3127 14 1299 3127
2.4180636 0.4196941 0.12900254 326 47633408 1967 14 1240 1967
2.4299381 0.39109957 0.12926881 343 47828992 2082 14 1223 2082
2.4533355 0.36403486 0.12999155 542 48024320 3346 14 1287 3346
2.4675202 0.33524498 0.13037194 477 48219392 2968 14 1299 2968
2.5002098 0.30848369 0.13147508 315 48416000 2003 14 1218 2003
2.5038071 0.27777904 0.13147508 65 48611840 413 14 1248 413
2.5418339 0.25045687 0.13280644 380 48807680 2490 14 1308 2490
2.5506897 0.21975957 0.13303468 401 49002240 2638 14 1293 2638
2.5681431 0.18954317 0.13360526 57 49197824 379 14 1224 379
2.5792522 0.15856434 0.13394761 38 49392384 255 14 1219 255
2.6428847 0.12993425 0.13630602 149 49586432 1051 14 1311 1051
2.642283 0.09741886 0.13622995 166 49779968 1169 14 1308 1169
2.0969572 0.86873811 0.067260072 500 44114944 2581 15 1064 2581
2.1251006 0.84999222 0.067522034 659 44310016 3456 15 1122 3456
2.1344385 0.8234902 0.06750825 610 44504064 3196 15 1075 3196
2.1471951 0.79828018 0.067549609 568 44697600 2984 15 1071 2984
2.1502392 0.76951343 0.067453094 402 44893184 2100 15 1022 2100
2.170867 0.74697083 0.067618549 77 45089024 409 15 1025 409
2.1893647 0.72341019 0.067756429 54 45283840 290 15 985 290
2.2095163 0.70011133 0.067921877 64 45480960 347 15 1034 347
2.2418633 0.68019831 0.068266571 452 45676032 2485 15 1076 2485
2.243319 0.65068722 0.068170056 597 45870848 3261 15 1149 3261
2.2723367 0.62897408 0.068473384 127 46065920 709 15 1028 709
2.2808509 0.60129637 0.068487175 86 46261504 481 15 1032 481
2.2996976 0.57617575 0.068652622 517 46458368 2909 15 1139 2909
2.313405 0.54952806 0.068749137 552 46654208 3123 15 1181 3123
2.3316822 0.52372533 0.068914592 488 46850304 2791 15 1133 2791
2.3418465 0.49590051 0.068969741 196 47045632 1127 15 1025 1127
2.3556013 0.46868485 0.06908004 261 47241984 1508 15 1082 1508
2.381819 0.44358391 0.069369584 506 47437312 2975 15 1112 2975
2.3910239 0.4150053 0.069424734 381 47633408 2248 15 1041 2248
2.4058089 0.38721985 0.069562607 62 47828992 372 15 1013 372
2.4212596 0.35928041 0.069714271 48 48024320 291 15 1023 291
2.4363854 0.33101985 0.069865942 57 48219392 348 15 1027 348
2.4680512 0.30452085 0.070251994 342 48416000 2119 15 1049 2119
2.4835281 0.27553239 0.070417441 65 48611840 409 15 1037 409
2.4897077 0.24532862 0.070458807 53 48807680 335 15 1014 335
2.5283949 0.2178421 0.070955165 478 49002240 3083 15 1100 3083
2.5368609 0.1872391 0.071037889 477 49197824 3091 15 1078 3091
2.548948 0.15670587 0.071175769 459 49392384 2996 15 1144 2996
2.584635 0.127079 0.071644545 368 49586432 2467 15 1137 2467
2.128521 0.76216722 0.011101464 377 44893184 1933 16 885 1933
2.1518965 0.74086988 0.010933916 582 45089024 3015 16 809 3015
2.164624 0.71566194 0.010889236 632 45283840 3288 16 792 3288
2.1808691 0.69146115 0.010799877 606 45480960 3173 16 810 3173
2.2006724 0.66813046 0.010665839 574 45676032 3037 16 827 3037
2.2154281 0.64302444 0.010587649 606 45870848 3227 16 849 3227
2.2279708 0.61712313 0.0105318 569 46065920 3048 16 886 3048
2.2450452 0.59228516 0.010420102 84 46261504 453 16 803 453
2.2676635 0.56857884 0.010241384 42 46458368 230 16 810 230
2.2725244 0.54024607 0.010263723 64 46654208 350 16 800 350
2.3131299 0.51998836 0.0098727774 191 46850304 1074 16 836 1074
2.3173802 0.49114919 0.009895117 58 47045632 326 16 802 326
2.3281364 0.46365011 0.0098392684 46 47241984 260 16 751 260
2.3415151 0.43651012 0.0097499089 58 47437312 330 16 798 330
2.3624587 0.41047952 0.0095711909 455 47633408 2622 16 918 2622
2.3742287 0.38257 0.0094930017 477 47828992 2764 16 879 2764
2.390614 0.35516718 0.009358963 372 48024320 2180 16 888 2180
2.4066823 0.32741958 0.0092249252 365 48219392 2155 16 850 2155
2.4323521 0.30055553 0.0089791873 476 48416000 2861 16 844 2861
2.4408264 0.27123559 0.0089233378 453 48611840 2738 16 870 2738
2.4499419 0.24185093 0.0088563189 249 48807680 1511 16 784 1511
2.4696612 0.21322773 0.0086664315 59 49002240 364 16 764 364
2.503006 0.18518752 0.0083201649 148 49197824 933 16 786 933
2.5260491 0.15574686 0.0080855973 456 49392384 2922 16 795 2922
2.5187817 0.12429446 0.0081861261 103 49586432 656 16 784 656
2.1756008 0.66010565 -0.04463502 187 45676032 972 17 946 972
2.1969752 0.63725328 -0.045135822 585 45870848 3066 17 841 3066
2.2036667 0.60997862 -0.045100052 636 46065920 3336 17 889 3336
2.2109861 0.58289027 -0.045100052 408 46261504 2136 17 771 2136
2.2489946 0.56348121 -0.046244744 68 46458368 367 17 747 367
2.2683804 0.53884059 -0.046709776 125 46654208 681 17 831 681
2.2777474 0.5116201 -0.04681709 552 46850304 3017 17 860 3017
2.280921 0.48300946 -0.046709776 567 47045632 3088 17 855 3088
2.2935379 0.45634669 -0.046960175 547 47241984 3001 17 898 3001
2.3146851 0.43109214 -0.047532521 136 47437312 755 17 795 755
2.3335865 0.40504536 -0.048033323 262 47633408 1473 17 797 1473
2.3660085 0.38082033 -0.049034931 473 47828992 2725 17 880 2725
2.353698 0.34926611 -0.048426811 287 48024320 1633 17 869 1633
2.397418 0.32573178 -0.049857676 49 48219392 288 17 753 288
2.4091697 0.29726505 -0.050143849 53 48416000 313 17 796 313
2.4195893 0.26844874 -0.050394252 83 48611840 493 17 806 493
2.4336414 0.23981276 -0.050787739 419 48807680 2509 17 806 2509
2.4662716 0.21249919 -0.051860888 60 49002240 369 17 769 369
2.4766669 0.18280551 -0.052147061 56 49197824 346 17 792 346
2.4946835 0.15337799 -0.052719407 346 49392384 2166 17 822 2166
2.2346466 0.53083324 -0.1009391 552 46654208 2926 18 1046 2926
2.2448883 0.5042451 -0.10117911 594 46850304 3161 18 991 3161
2.2538369 0.4772788 -0.10135911 532 47045632 2839 18 1024 2839
2.2683356 0.4513365 -0.10189915 344 47241984 1850 18 960 1850
2.3217897 0.43241408 -0.1048393 46 47437312 261 18 993 261
2.3318388 0.40474233 -0.10513932 55 47633408 314 18 901 314
2.3395867 0.37657201 -0.10531933 42 47828992 241 18 914 241
2.3390946 0.34710154 -0.10501932 425 48024320 2388 18 1096 2388
2.3471344 0.31890804 -0.10525933 431 48219392 2429 18 1107 2429
2.3756387 0.29313311 -0.10675941 331 48416000 1907 18 1087 1907
2.3909626 0.2652773 -0.10747945 383 48611840 2227 18 1066 2227
2.4119191 0.2376757 -0.10855951 434 48807680 2564 18 1006 2564
2.4265885 0.20908625 -0.10927955 440 49002240 2624 18 1051 2624
2.4379311 0.17995244 -0.10981958 439 49197824 2637 18 1053 2637
2.5043135 0.62740564 -0.18109815 20 46458368 134 19 821 134
2.5118241 0.59662664 -0.18109815 30 46654208 207 19 870 207
2.2647595 0.42180237 -0.15755793 362 47437312 1936 19 830 1936
2.2903826 0.39755368 -0.15932979 448 47633408 2440 19 856 2440
2.3019755 0.3705245 -0.15992039 416 47828992 2284 19 883 2284
2.312263 0.34312442 -0.16042663 412 48024320 2273 19 941 2273
2.3271608 0.31619748 -0.16135475 364 48219392 2028 19 883 2028
2.3407552 0.28883451 -0.16219848 242 48416000 1361 19 912 1361
2.3629405 0.26217279 -0.16380158 49 48611840 279 19 824 279
2.3679633 0.23335125 -0.16397032 55 48807680 319 19 860 319
2.3895111 0.20589741 -0.16557342 74 49002240 429 19 837 429
2.4117327 0.1780228 -0.16726089 227 49197824 1342 19 909 1342
2.4796233 0.58944321 -0.24079181 45 46654208 300 20 972 300
2.3136787 0.31478199 -0.21742274 193 48219392 1069 20 960 1069
2.3292065 0.2878269 -0.21872705 346 48416000 1932 20 1072 1932
2.3335514 0.25933188 -0.21883576 319 48611840 1783 20 1080 1783
2.3523865 0.23223612 -0.22057484 177 48807680 1005 20 989 1005
2.3570402 0.20352194 -0.22079223 260 49002240 1476 20 1023 1476
