# .PCD v0.7 - Point Cloud Data file format
VERSION 0.7
FIELDS x y z intensity t reflectivity ring noise range
SIZE 4 4 4 4 4 2 2 2 4
TYPE F F F F U U U U U
COUNT 1 1 1 1 1 1 1 1 1
WIDTH 507
HEIGHT 1
VIEWPOINT 0 0 0 1 0 0 0
POINTS 507
DATA ascii
2.5137346 -0.21769282 0.81276673 201 51697408 1405 3 1150 1405
2.5270343 -0.25012583 0.81779373 233 51893248 1652 3 1011 1652
2.5275722 -0.28154117 0.81897658 152 52089856 1082 3 1040 1082
2.4973853 -0.092309728 0.74343622 262 50914048 1771 4 775 1771
2.497025 -0.122997 0.74370998 283 51109632 1915 4 783 1915
2.4972475 -0.15374857 0.74425757 180 51305728 1219 4 830 1219
2.4865403 -0.18374284 0.74179345 129 51501312 869 4 773 869
2.5070956 -0.21622965 0.74836445 269 51697408 1843 4 792 1843
2.5071247 -0.24726292 0.7491858 277 51893248 1903 4 829 1903
2.5039015 -0.27801058 0.7491858 263 52089856 1806 4 845 1806
2.497438 -0.30836236 0.74836445 238 52286208 1630 4 851 1630
2.4793339 0.060544159 0.6769588 303 49941248 1996 5 958 1996
2.4837611 0.030160772 0.6779651 351 50135040 2318 5 950 2318
2.4849122 -0.00032134369 0.67821664 313 50329600 2071 5 895 2071
2.4885921 -0.030863618 0.67922288 345 50524672 2289 5 906 2289
2.4841559 -0.061304044 0.67821664 356 50720000 2354 5 965 2354
2.4783807 -0.091604352 0.6769588 388 50914048 2555 5 904 2555
2.4674032 -0.12153336 0.67444319 150 51109632 978 5 837 978
2.4782841 -0.15257813 0.67771351 43 51305728 283 5 831 283
2.4839466 -0.18355078 0.679726 34 51501312 226 5 769 226
2.4872928 -0.21451868 0.68123537 96 51697408 645 5 879 645
2.4835098 -0.2449303 0.68098384 65 51893248 438 5 873 438
2.4832029 -0.27570918 0.6817385 41 52089856 279 5 879 279
2.4844351 -0.30675489 0.68299633 48 52286208 327 5 873 327
2.4891148 -0.33839434 0.68526042 319 52481280 2156 5 940 2156
2.4615114 0.18125454 0.61338127 358 49164800 2303 6 850 2303
2.4625788 0.15097494 0.61315227 366 49359360 2354 6 778 2354
2.472024 0.12112384 0.61498451 430 49553152 2786 6 884 2786
2.4713788 0.090708077 0.61452645 413 49746688 2668 6 790 2668
2.4538162 0.059924982 0.61017489 200 49941248 1273 6 816 1273
2.4641004 0.029925063 0.61246514 36 50135040 232 6 774 232
2.466229 -0.00031604484 0.6129232 43 50329600 277 6 779 277
2.4689593 -0.030617107 0.61361033 43 50524672 277 6 799 277
2.4859138 -0.061347701 0.61773288 372 50720000 2430 6 827 2430
2.4791374 -0.091632441 0.6163587 308 50914048 2002 6 826 2002
2.451576 -0.12075131 0.61017489 54 51109632 344 6 761 344
2.4771135 -0.15250589 0.6165877 245 51305728 1594 6 802 1594
2.4711723 -0.18260485 0.61567158 401 51501312 2601 6 820 2601
2.4716549 -0.21316756 0.6163587 439 51697408 2853 6 816 2853
2.4611032 -0.24271703 0.61452645 364 51893248 2351 6 850 2351
2.5014751 -0.27774078 0.62483281 48 52089856 321 6 819 321
2.4621339 -0.30399787 0.6163587 109 52286208 714 6 860 714
2.4649699 -0.3351081 0.61796188 300 52481280 1961 6 838 1961
2.4693375 -0.36661977 0.62002319 339 52677632 2237 6 861 2237
2.4460709 0.30181229 0.55192155 471 48387072 2991 7 1117 2991
2.4612615 0.27306554 0.55439395 505 48581632 3239 7 1030 3239
2.445924 0.24102114 0.55047935 342 48775936 2161 7 1077 2161
2.4369984 0.20998155 0.54800695 54 48969472 342 7 982 342
2.4345121 0.17970061 0.54697675 41 49164800 258 7 1041 258
2.4355574 0.14975198 0.54677075 56 49359360 352 7 998 352
2.4538269 0.12066711 0.5502733 513 49553152 3239 7 1061 3239
2.4502335 0.090366237 0.54924315 531 49746688 3338 7 1072 3338
2.4482231 0.060219575 0.54862505 464 49941248 2910 7 1134 2910
2.4556272 0.030254887 0.55006725 375 50135040 2367 7 1059 2367
2.4411354 0.00011988846 0.54697675 514 50329600 3203 7 1030 3203
2.4468238 -0.029909296 0.54821295 478 50524672 2995 7 1077 2995
2.4462726 -0.059933335 0.54821295 484 50720000 3031 7 1058 3031
2.4619768 -0.090562463 0.55171555 65 50914048 415 7 1053 415
2.4645896 -0.12096037 0.55253965 52 51109632 334 7 1045 334
2.4668262 -0.15143602 0.5533638 70 51305728 450 7 1009 450
2.4384334 -0.17974986 0.5478009 174 51501312 1091 7 987 1091
2.4711413 -0.21268591 0.5552181 60 51697408 390 7 990 390
2.4693191 -0.24309063 0.55542415 47 51893248 305 7 1079 305
2.46615 -0.27337468 0.55542415 62 52089856 402 7 1025 402
2.4519267 -0.30229875 0.55315775 478 52286208 3050 7 1104 3050
2.4528806 -0.33302388 0.55418795 440 52481280 2820 7 1102 2820
2.4563527 -0.36424893 0.5558362 429 52677632 2768 7 1060 2768
2.4555621 -0.39498696 0.55666035 433 52871680 2801 7 1095 2801
2.4081089 -0.41772518 0.54759485 88 53066496 551 7 1123 551
2.4204659 0.42011061 0.48998451 487 47607552 3049 8 896 3049
2.4351459 0.39193693 0.49181202 492 47801856 3104 8 894 3104
2.421294 0.3592855 0.48833978 217 47996928 1352 8 884 1352
2.4001908 0.32610804 0.48358828 56 48191232 346 8 858 346
2.4293821 0.29975578 0.48833978 464 48387072 2884 8 902 2884
2.4299462 0.26959616 0.48779151 452 48581632 2801 8 914 2801
2.4320931 0.23966043 0.48760876 473 48775936 2929 8 892 2929
2.4211373 0.20861742 0.48505026 357 48969472 2188 8 895 2188
2.4235151 0.17889063 0.48505026 61 49164800 373 8 809 373
2.4206214 0.148836 0.48413652 426 49359360 2599 8 902 2599
2.4399412 0.11998646 0.48742601 560 49553152 3464 8 965 3464
2.4284573 0.089566551 0.48505026 75 49746688 464 8 866 464
2.433305 0.059854984 0.48578128 37 49941248 228 8 776 228
2.429924 0.029942252 0.48505026 58 50135040 354 8 834 354
2.433058 0.00012076955 0.4855985 169 50329600 1041 8 874 1041
2.4377916 -0.029797465 0.48651227 471 50524672 2903 8 898 2903
2.4274139 -0.059468322 0.48468477 97 50720000 592 8 817 592
2.4107814 -0.088671237 0.48176077 39 50914048 240 8 874 240
2.4281693 -0.11916717 0.48523301 460 51109632 2819 8 952 2819
2.4314306 -0.14925756 0.48614678 509 51305728 3131 8 914 3131
2.4284353 -0.17901127 0.48596403 493 51501312 3031 8 890 3031
2.4240966 -0.2086295 0.4855985 390 51697408 2394 8 898 2394
2.4467928 -0.24086949 0.49035004 55 51893248 349 8 903 349
2.4358354 -0.27000949 0.48888803 445 52089856 2771 8 881 2771
2.4440477 -0.30132607 0.49108103 526 52286208 3308 8 950 3308
2.4109397 -0.32732299 0.4855985 99 52481280 612 8 865 612
2.4495316 -0.36323637 0.49363953 62 52677632 393 8 848 393
2.4478016 -0.39373741 0.49418777 52 52871680 331 8 828 331
2.4534409 -0.42559612 0.49619803 235 53066496 1514 8 876 1514
2.4480336 -0.45567158 0.49619803 168 53262592 1084 8 912 1084
2.4204936 0.57449853 0.43439615 151 46635264 962 9 1056 962
2.4158013 0.54215962 0.43248791 581 46829312 3660 9 930 3660
2.4242043 0.51288158 0.43280596 563 47022848 3553 9 962 3553
2.4167585 0.48040158 0.43057966 512 47218176 3195 9 982 3195
2.4117947 0.44872326 0.42883044 503 47412480 3112 9 1014 3112
2.4132285 0.418419 0.42819437 538 47607552 3317 9 918 3317
2.4113579 0.38767755 0.42708126 360 47801856 2209 9 964 2209
2.3924947 0.3545872 0.42326477 66 47996928 401 9 905 401
2.3947091 0.32493573 0.42294672 52 48191232 316 9 951 316
2.4112549 0.29709199 0.42501399 90 48387072 550 9 908 550
2.4137378 0.26737127 0.42485496 75 48581632 459 9 906 459
2.4178197 0.23782735 0.42501399 71 48775936 435 9 912 435
2.4185889 0.20797022 0.42469594 64 48969472 392 9 894 392
2.4111125 0.17755125 0.42310575 272 49164800 1636 9 977 1636
2.4288769 0.14891401 0.42565006 566 49359360 3445 9 963 3445
2.4285491 0.11900041 0.42533204 604 49553152 3669 9 1003 3669
2.4170005 0.088720649 0.42326477 494 49746688 2970 9 1050 2970
2.4228423 0.059173401 0.42405987 476 49941248 2872 9 1022 2872
2.4204242 0.029401438 0.42358282 509 50135040 3066 9 1014 3066
2.4156666 -0.00030170451 0.42278773 530 50329600 3179 9 991 3179
2.4115322 -0.029896043 0.42215163 447 50524672 2674 9 971 2674
2.4169054 -0.059634056 0.42310575 62 50720000 376 9 923 376
2.415005 -0.089252092 0.42294672 48 50914048 292 9 943 292
2.4117558 -0.11878376 0.4226287 125 51109632 751 9 1010 751
2.4170144 -0.1487965 0.42374182 174 51305728 1051 9 969 1051
2.4189448 -0.17873742 0.42437792 70 51501312 427 9 932 427
2.414602 -0.20823815 0.42405987 52 51697408 319 9 899 319
2.4138298 -0.23804745 0.42437792 108 51893248 657 9 927 657
2.4264264 -0.26939651 0.42692223 577 52089856 3535 9 971 3535
2.4248974 -0.29939446 0.42724025 571 52286208 3503 9 981 3503
2.4249539 -0.32966173 0.42787635 591 52481280 3638 9 994 3638
2.4236555 -0.35983023 0.4283534 457 52677632 2820 9 944 2820
2.4190574 -0.38954511 0.4283534 519 52871680 3204 9 969 3204
2.4179857 -0.41987759 0.42898947 550 53066496 3405 9 957 3405
2.4136214 -0.44969937 0.4291485 499 53262592 3091 9 980 3091
2.4292228 -0.48352778 0.43264693 292 53458432 1844 9 937 1844
2.3938384 0.66213125 0.37384304 593 46047232 3732 10 1021 3732
2.4017835 0.63270527 0.37384304 651 46242816 4096 10 1011 4096
2.4093668 0.60318404 0.37384304 647 46439424 4071 10 1049 4071
2.3732064 0.56328267 0.36774361 365 46635264 2217 10 1007 2217
2.3867073 0.53563499 0.36869243 61 46829312 377 10 885 377
2.3921313 0.50610113 0.36855689 86 47022848 528 10 993 528
2.3962183 0.47632188 0.3682858 93 47218176 569 10 986 569
2.4096756 0.44832933 0.36937013 588 47412480 3603 10 1071 3603
2.4110911 0.41804871 0.36882797 562 47607552 3433 10 1052 3433
2.4062572 0.38685831 0.36747253 72 47801856 440 10 959 440
2.4010224 0.35584971 0.36611712 339 47996928 2039 10 972 2039
2.4179718 0.32808846 0.36787915 615 48191232 3733 10 1129 3733
2.4080489 0.2966975 0.36598158 568 48387072 3411 10 1036 3411
2.4075694 0.26668897 0.36543939 577 48581632 3452 10 1092 3452
2.3929124 0.23538132 0.36299962 99 48775936 587 10 975 587
2.3877234 0.20532109 0.36191529 251 48969472 1472 10 1035 1472
2.4029088 0.17694846 0.36367735 587 49164800 3475 10 1073 3475
2.3989656 0.14708489 0.36286408 434 49359360 2558 10 1047 2558
2.3986108 0.11753815 0.362593 69 49553152 409 10 997 409
2.4018528 0.088167034 0.36286408 48 49746688 287 10 944 287
2.4126587 0.058926303 0.36421952 81 49941248 485 10 958 485
2.4013119 0.029172303 0.362593 516 50135040 3034 10 1127 3034
2.4084244 -0.00029965054 0.36354181 418 50329600 2474 10 1061 2474
2.4171555 -0.029966652 0.36476168 77 50524672 463 10 936 463
2.4037297 -0.059306871 0.36299962 123 50720000 729 10 980 729
2.4057913 -0.08891011 0.36340627 532 50914048 3146 10 1104 3146
2.4074876 -0.11857286 0.36381289 551 51109632 3266 10 1118 3266
2.4107959 -0.14841269 0.3644906 621 51305728 3694 10 1113 3694
2.408793 -0.17798568 0.3644906 255 51501312 1520 10 996 1520
2.4064274 -0.20753188 0.3644906 162 51697408 966 10 1028 966
2.4165173 -0.23831291 0.36625266 601 51893248 3613 10 1124 3613
2.4203038 -0.26871574 0.36720145 621 52089856 3757 10 1052 3757
2.406991 -0.29718077 0.36584604 66 52286208 398 10 1060 398
2.4070897 -0.32723033 0.3663882 69 52481280 419 10 1000 419
2.405833 -0.35718137 0.36679482 81 52677632 492 10 988 492
2.3983343 -0.38620472 0.3663882 386 52871680 2324 10 1096 2324
2.405128 -0.41764283 0.36801469 532 53066496 3234 10 1052 3234
2.4066396 -0.4483974 0.36896351 88 53262592 542 10 944 542
2.3999841 -0.47770324 0.36882797 157 53458432 963 10 947 963
2.3987875 -0.50814611 0.36950567 410 53653760 2516 10 973 2516
2.3842499 0.69108582 0.312437 63 45851648 394 11 751 394
2.3906353 0.66124576 0.3122144 70 46047232 437 11 744 437
2.379349 0.62679905 0.3099885 573 46242816 3514 11 788 3514
2.39361 0.59924191 0.31076756 627 46439424 3866 11 828 3866
2.3988495 0.56936485 0.31054497 641 46635264 3947 11 831 3947
2.3649285 0.53075087 0.30587056 422 46829312 2511 11 853 2511
2.3907094 0.50580055 0.30809647 607 47022848 3671 11 825 3671
2.397711 0.47661841 0.30820775 618 47218176 3742 11 834 3742
2.3867695 0.44407126 0.30631572 570 47412480 3402 11 851 3402
2.3793097 0.41254342 0.30486891 90 47607552 532 11 774 532
2.3851743 0.38347214 0.30498019 73 47801856 433 11 747 433
2.3847849 0.35344583 0.30442372 62 47996928 366 11 727 366
2.3751557 0.32228571 0.30286556 153 48191232 890 11 836 890
2.38485 0.29384285 0.30353335 71 48387072 416 11 762 416
2.3872886 0.26444569 0.30342206 71 48581632 416 11 756 416
2.3903539 0.23513007 0.30342206 57 48775936 334 11 747 334
2.3960297 0.206034 0.30375594 554 48969472 3252 11 863 3252
2.3963954 0.17646986 0.30353335 582 49164800 3409 11 937 3409
2.4003644 0.14717044 0.30375594 577 49359360 3384 11 949 3384
2.3871007 0.11697597 0.3020865 378 49553152 2193 11 869 2193
2.393322 0.087855242 0.30264297 576 49746688 3351 11 893 3351
2.3902459 0.058382459 0.30219781 540 49941248 3132 11 889 3132
2.3897886 0.029034154 0.3020865 542 50135040 3140 11 883 3140
2.4078531 -0.00029948854 0.30408981 195 50329600 1146 11 783 1146
2.3977311 -0.029722758 0.30297688 55 50524672 321 11 747 321
2.3922184 -0.059021018 0.30242038 71 50720000 413 11 763 413
2.3962796 -0.088557072 0.30297688 227 50914048 1322 11 817 1322
2.3870718 -0.11756409 0.3020865 92 51109632 532 11 806 532
2.3923926 -0.14727683 0.30286556 59 51305728 344 11 743 344
2.3874321 -0.17640391 0.30253169 44 51501312 256 11 762 256
2.3880577 -0.20594473 0.30286556 311 51697408 1811 11 798 1811
2.3982074 -0.23650432 0.30431241 588 51893248 3464 11 871 3464
2.4010508 -0.2665751 0.30498019 583 52089856 3451 11 897 3451
2.3956261 -0.29577574 0.3047576 500 52286208 2957 11 859 2957
2.3947701 -0.32555357 0.30509147 540 52481280 3201 11 861 3201
2.4014077 -0.35652366 0.30631572 565 52677632 3378 11 888 3378
2.4096065 -0.38802171 0.30776256 616 52871680 3716 11 852 3716
2.3850811 -0.41415852 0.30553666 339 53066496 2013 11 811 2013
2.3886118 -0.44503558 0.30653831 75 53262592 450 11 739 450
2.3878438 -0.47528479 0.30709481 72 53458432 433 11 750 433
2.3818314 -0.50455153 0.30709481 78 53653760 469 11 761 469
2.3841867 -0.53570437 0.30809647 495 53849856 2995 11 806 2995
2.3431766 0.67918742 0.24824683 63 45851648 378 12 1261 378
2.3657374 0.65436327 0.24955417 224 46047232 1360 12 1261 1360
2.3658824 0.62325376 0.24885692 574 46242816 3469 12 1368 3469
2.354991 0.58957994 0.24720097 91 46439424 546 12 1287 546
2.3630178 0.56086612 0.24728812 76 46635264 457 12 1299 457
2.3677785 0.53139001 0.24711381 77 46829312 458 12 1199 458
2.3643746 0.50023329 0.24624225 413 47022848 2437 12 1312 2437
2.3781521 0.47273365 0.2469395 630 47218176 3737 12 1376 3737
2.3602684 0.43914491 0.24484776 230 47412480 1341 12 1400 1341
2.3949268 0.41524869 0.24746242 94 47607552 560 12 1235 560
2.3791869 0.38251051 0.24563216 588 47801856 3445 12 1439 3445
2.3827162 0.35313955 0.245545 583 47996928 3414 12 1360 3414
2.3829217 0.32333821 0.24519637 579 48191232 3379 12 1473 3379
2.3708904 0.29212511 0.24380189 300 48387072 1729 12 1401 1729
2.3802376 0.2636658 0.24432482 60 48581632 347 12 1234 347
2.3743711 0.23356049 0.24354042 400 48775936 2301 12 1304 2301
2.3681257 0.203639 0.24275602 546 48969472 3114 12 1427 3114
2.3704462 0.17456312 0.24275602 101 49164800 575 12 1283 575
2.369427 0.14527854 0.24249455 88 49359360 500 12 1219 500
2.3710313 0.1161911 0.24249455 66 49553152 375 12 1242 375
2.3752651 0.0871953 0.24275602 171 49746688 979 12 1294 979
2.3881071 0.058330562 0.24380189 558 49941248 3214 12 1440 3214
2.3806741 0.028924882 0.24310464 316 50135040 1811 12 1291 1811
2.3639145 -0.00028702684 0.241623 83 50329600 473 12 1290 473
2.3816631 -0.029521005 0.24319179 390 50524672 2234 12 1383 2234
2.3890886 -0.058943294 0.24388905 593 50720000 3418 12 1430 3418
2.3871899 -0.088219702 0.24380189 568 50914048 3273 12 1343 3273
2.3859274 -0.11750755 0.24380189 584 51109632 3365 12 1353 3365
2.3743629 -0.14616401 0.24293032 74 51305728 422 12 1272 422
2.371397 -0.17521653 0.24284318 228 51501312 1300 12 1266 1300
2.3780007 -0.20507579 0.24362758 580 51697408 3335 12 1412 3335
2.3792706 -0.23463377 0.24397621 375 51893248 2165 12 1363 2165
2.3801725 -0.26425374 0.24432482 66 52089856 381 12 1281 381
2.3787277 -0.29368669 0.24449913 65 52286208 377 12 1206 377
2.3769188 -0.3231239 0.24467345 67 52481280 388 12 1275 388
2.3865697 -0.35431835 0.24589363 554 52677632 3256 12 1291 3256
2.378108 -0.38294443 0.245545 506 52871680 2964 12 1373 2964
2.359489 -0.40971038 0.24432482 80 53066496 462 12 1272 462
2.3836629 -0.44411272 0.2469395 200 53262592 1186 12 1250 1186
2.3868265 -0.4750821 0.24772389 570 53458432 3409 12 1373 3409
2.3827658 -0.5047496 0.24789821 562 53653760 3366 12 1321 3366
2.3783362 -0.53438884 0.24807252 557 53849856 3342 12 1360 3342
2.3715994 -0.56353444 0.24807252 567 54044928 3401 12 1366 3401
2.3475139 0.68044382 0.18896152 645 45851648 3870 13 854 3870
2.3528013 0.65078729 0.18877314 620 46047232 3717 13 859 3717
2.35868 0.62135762 0.18864757 637 46242816 3811 13 891 3811
2.358382 0.59042835 0.18814524 550 46439424 3272 13 864 3272
2.3557389 0.55913967 0.18751733 490 46635264 2886 13 781 2886
2.357554 0.52909708 0.18720338 623 46829312 3657 13 914 3657
2.3619163 0.49971357 0.18707781 623 47022848 3653 13 897 3653
2.3610184 0.46933058 0.18663827 248 47218176 1444 13 813 1444
2.3607128 0.43922752 0.18626152 93 47412480 540 13 732 540
2.3639581 0.40988418 0.18613595 68 47607552 394 13 734 394
2.3599415 0.37941954 0.18557082 109 47801856 627 13 704 627
2.3565218 0.34926155 0.1850685 146 47996928 833 13 781 833
2.3635972 0.32071921 0.18525687 79 48191232 452 13 765 452
2.3614116 0.29095876 0.18488014 92 48387072 524 13 764 524
2.3677802 0.26228786 0.1850685 364 48581632 2074 13 856 2074
2.375787 0.23369952 0.18538246 573 48775936 3286 13 875 3286
2.3754928 0.20427133 0.18519409 648 48969472 3705 13 938 3705
2.3758299 0.17495872 0.1850685 628 49164800 3584 13 913 3584
2.3668401 0.14512037 0.1843778 550 49359360 3110 13 879 3110
2.3634586 0.11582123 0.18406385 649 49553152 3655 13 900 3655
2.3726809 0.087100849 0.18456618 639 49746688 3624 13 911 3624
2.377562 0.058074687 0.18481734 559 49941248 3176 13 821 3176
2.3741038 0.028846111 0.18456618 72 50135040 409 13 743 409
2.375277 -0.00029024945 0.18462896 70 50329600 397 13 784 397
2.3740966 -0.029426001 0.18456618 75 50524672 426 13 743 426
2.3825364 -0.058780584 0.1851313 154 50720000 879 13 786 879
2.3726594 -0.087680392 0.18456618 61 50914048 347 13 714 347
2.3664207 -0.1165437 0.18425223 96 51109632 542 13 746 542
2.3648126 -0.14557455 0.18425223 85 51305728 480 13 741 480
2.3698151 -0.17509939 0.18469176 573 51501312 3255 13 870 3255
2.3754425 -0.20485476 0.18519409 671 51697408 3834 13 934 3834
2.3737431 -0.23408778 0.18525687 659 51893248 3770 13 947 3770
2.3627563 -0.26231733 0.18475455 556 52089856 3160 13 904 3160
2.3692641 -0.29251674 0.18538246 589 52286208 3377 13 890 3377
2.3714297 -0.32237682 0.1857592 592 52481280 3411 13 872 3411
2.3682821 -0.35160035 0.185822 624 52677632 3597 13 901 3597
2.3549213 -0.37920693 0.18525687 173 52871680 989 13 794 989
2.3668065 -0.41098222 0.18632431 65 53066496 377 13 768 377
2.3655093 -0.44072747 0.18657547 60 53262592 350 13 738 350
2.3824351 -0.47420731 0.18801966 157 53458432 931 13 733 931
2.3696022 -0.50195891 0.18758012 56 53653760 331 13 773 331
2.3710537 -0.53275132 0.18808244 85 53849856 505 13 726 505
2.3653083 -0.56203854 0.18814524 65 54044928 387 13 767 387
2.3698497 -0.59393555 0.18889873 587 54238976 3518 13 848 3518
2.3263583 0.67475837 0.12778528 410 45851648 2414 14 1314 2414
2.330611 0.64509392 0.12763312 169 46047232 992 14 1092 992
2.3383517 0.61644512 0.12763312 71 46242816 418 14 1127 418
2.3438017 0.58721817 0.12755705 65 46439424 382 14 1139 382
2.3343029 0.55448854 0.12691039 206 46635264 1190 14 1111 1190
2.3516567 0.52820849 0.12732881 627 46829312 3649 14 1162 3649
2.3550286 0.49868971 0.1272147 578 47022848 3355 14 1210 3355
2.3443093 0.46644002 0.12656803 102 47218176 585 14 1137 585
2.347892 0.43727103 0.12649196 490 47412480 2800 14 1217 2800
2.3520966 0.40825513 0.12645392 537 47607552 3067 14 1174 3067
2.352983 0.37872601 0.12630177 577 47801856 3289 14 1288 3289
2.3554764 0.34952971 0.1262257 582 47996928 3307 14 1245 3307
2.3457255 0.31871682 0.12569314 70 48191232 396 14 1036 396
2.3474765 0.28966275 0.12561706 64 48387072 361 14 1080 361
2.3429089 0.25995353 0.12531275 521 48581632 2901 14 1237 2901
2.3628285 0.23284608 0.12595941 348 48775936 1967 14 1197 1967
2.3436048 0.20194922 0.12512256 86 48969472 478 14 1116 478
2.3409235 0.17280738 0.12493236 67 49164800 372 14 1116 372
2.3468575 0.14431229 0.12508452 61 49359360 339 14 1142 339
2.3624249 0.11618681 0.12561706 580 49553152 3250 14 1248 3250
2.3626742 0.087150797 0.12557903 623 49746688 3488 14 1240 3488
2.34958 0.05780879 0.12504648 311 49941248 1723 14 1110 1723
2.3511117 0.028983628 0.12508452 154 50135040 854 14 1141 854
2.3552876 0.00012925301 0.12523668 632 50329600 3512 14 1225 3512
2.3531132 -0.028749013 0.12516059 656 50524672 3641 14 1230 3641
2.3555803 -0.057697065 0.12527472 632 50720000 3517 14 1216 3517
2.3307285 -0.085713968 0.12436178 391 50914048 2131 14 1145 2131
2.3554509 -0.1155868 0.12535079 82 51109632 459 14 1107 459
2.3398917 -0.14362371 0.12481824 264 51305728 1456 14 1109 1456
2.3499117 -0.17321041 0.12527472 599 51501312 3332 14 1147 3332
2.3476093 -0.2020344 0.12527472 122 51697408 681 14 1106 681
2.3439589 -0.23072991 0.12523668 90 51893248 503 14 1007 503
2.340951 -0.25947651 0.12523668 72 52089856 402 14 1114 402
2.3346152 -0.28781676 0.12512256 166 52286208 921 14 1143 921
2.3596225 -0.32034755 0.1262257 577 52481280 3278 14 1229 3278
2.3604558 -0.35001329 0.12641588 569 52677632 3248 14 1194 3248
2.3579559 -0.37927106 0.12649196 71 52871680 407 14 1159 407
2.3393404 -0.40578499 0.12595941 372 53066496 2102 14 1244 2102
2.360709 -0.43940315 0.12698647 568 53262592 3282 14 1259 3282
2.3561189 -0.46853465 0.1270245 502 53458432 2902 14 1260 2902
2.3511696 -0.49761963 0.12706254 507 53653760 2934 14 1177 2934
2.3663354 -0.5312537 0.12789941 99 53849856 586 14 1044 586
2.3567212 -0.55955929 0.12778528 90 54044928 531 14 1077 531
2.3506465 -0.58868068 0.12782332 595 54238976 3502 14 1176 3502
2.3529079 -0.62003028 0.12820372 604 54434816 3583 14 1167 3583
2.3205223 0.64230317 0.069162771 456 46047232 2647 15 1137 2647
2.3224282 0.61225003 0.06908004 142 46242816 823 15 948 823
2.3268566 0.58297563 0.069038682 529 46439424 3048 15 991 3048
2.3270254 0.55276108 0.068942167 573 46635264 3282 15 1033 3282
2.3082669 0.51846999 0.068583682 430 46829312 2412 15 968 2412
2.3115208 0.48948398 0.068542324 61 47022848 341 15 817 341
2.315392 0.46069127 0.068514749 57 47218176 323 15 860 323
2.3218541 0.4324261 0.068528533 70 47412480 395 15 908 395
2.3358526 0.40543833 0.068652622 526 47607552 2961 15 980 2961
2.3238692 0.37404481 0.068418235 114 47801856 636 15 963 636
2.3282845 0.34549919 0.068418235 77 47996928 431 15 966 431
2.3323488 0.31690156 0.068418235 156 48191232 869 15 924 869
2.3390393 0.28862306 0.0684596 592 48387072 3295 15 956 3295
2.3453865 0.26022801 0.068500958 634 48581632 3537 15 996 3537
2.3523836 0.23181853 0.068556108 591 48775936 3307 15 1018 3307
2.3221757 0.20010625 0.068101116 332 48969472 1809 15 919 1809
2.3354259 0.17240244 0.06825278 519 49164800 2853 15 949 2853
2.3383636 0.14379139 0.068266571 660 49359360 3628 15 1042 3628
2.3429482 0.11523212 0.068307929 638 49553152 3516 15 1022 3516
2.314209 0.085371017 0.067894302 143 49746688 771 15 939 771
2.3530674 0.057894018 0.068418235 96 49941248 537 15 916 537
2.3536007 0.029013902 0.068418235 92 50135040 515 15 880 515
2.3177829 0.00013334412 0.067921877 168 50329600 908 15 908 908
2.3326075 -0.02849512 0.06812869 420 50524672 2290 15 909 2290
2.3430777 -0.057388783 0.068280354 85 50720000 472 15 903 472
2.3401985 -0.086063802 0.06825278 80 50914048 444 15 862 444
2.3209898 -0.11389007 0.068004601 347 51109632 1878 15 936 1878
2.3463638 -0.14402205 0.068376869 680 51305728 3764 15 1033 3764
2.3464141 -0.17295203 0.068404444 671 51501312 3720 15 951 3720
2.3451114 -0.20181902 0.068418235 693 51697408 3846 15 1045 3846
2.3185761 -0.22822715 0.068087332 235 51893248 1281 15 904 1281
2.3474026 -0.26019269 0.068528533 643 52089856 3592 15 963 3592
2.3450251 -0.28910187 0.068542324 620 52286208 3466 15 933 3466
2.3383284 -0.31745312 0.068500958 608 52481280 3391 15 1054 3391
2.3550272 -0.34920743 0.068790503 88 52677632 504 15 884 504
2.3555005 -0.3788757 0.068859436 75 52871680 427 15 851 427
2.3506737 -0.40775278 0.068859436 68 53066496 392 15 910 392
2.3258331 -0.43290585 0.068583682 321 53262592 1802 15 897 1802
2.351727 -0.46766055 0.069024891 596 53458432 3431 15 1053 3431
2.3477674 -0.49689901 0.069052465 593 53653760 3420 15 1031 3420
2.3463709 -0.52676827 0.069121405 562 53849856 3254 15 1022 3254
2.3020921 0.60732502 0.0097610792 503 46242816 2852 16 792 2852
2.3074317 0.57854301 0.0097834188 518 46439424 2933 16 821 2933
2.3163033 0.55064595 0.0097610792 583 46635264 3308 16 825 3308
2.3160567 0.5206458 0.0098392684 486 46829312 2740 16 809 2740
2.3027067 0.48804176 0.010062666 321 47022848 1780 16 767 1780
2.3144066 0.46091813 0.0099956458 637 47218176 3550 16 837 3550
2.3169394 0.43193281 0.010029156 591 47412480 3286 16 794 3286
2.3200951 0.40312585 0.010051495 627 47607552 3480 16 790 3480
2.3110461 0.37239957 0.010207874 90 47801856 494 16 754 494
2.3104963 0.34327751 0.010263723 88 47996928 482 16 678 482
2.3125534 0.31462905 0.010286063 77 48191232 421 16 702 421
2.3251719 0.28732899 0.010185534 448 48387072 2462 16 756 2462
2.3165967 0.25745055 0.010319573 95 48581632 518 16 677 518
2.3215718 0.2291991 0.010297233 76 48775936 415 16 708 415
2.3271983 0.20095016 0.010263723 76 48969472 416 16 690 416
2.3235056 0.17193498 0.010330742 365 49164800 1983 16 745 1983
2.3374174 0.14414562 0.010196704 695 49359360 3816 16 774 3816
2.3390102 0.11545106 0.010196704 676 49553152 3709 16 761 3709
2.3112724 0.085669875 0.010520631 400 49746688 2142 16 728 2142
2.3231456 0.057571217 0.010397762 607 49941248 3279 16 784 3279
2.3186779 0.02899663 0.010453611 663 50135040 3568 16 771 3568
2.3218589 0.00054089818 0.010420102 666 50329600 3594 16 772 3594
2.3276899 -0.028025156 0.010353082 572 50524672 3102 16 780 3102
2.3281703 -0.056611855 0.010341913 101 50720000 550 16 656 550
2.3342953 -0.085435003 0.010263723 90 50914048 493 16 695 493
2.3340697 -0.11412296 0.010252553 119 51109632 652 16 704 652
2.3195188 -0.14196073 0.010397762 445 51305728 2406 16 742 2406
2.3235853 -0.17085506 0.010330742 87 51501312 474 16 689 474
2.318325 -0.19909899 0.010364252 73 51697408 398 16 624 398
2.3157072 -0.2275334 0.010364252 76 51893248 414 16 640 414
2.3316238 -0.25802642 0.010152024 564 52089856 3107 16 764 3107
2.3292744 -0.28674194 0.010140855 634 52286208 3493 16 832 3493
2.3235984 -0.3150351 0.010163194 697 52481280 3836 16 786 3836
2.3225248 -0.3439655 0.010129685 686 52677632 3783 16 787 3783
2.3299761 -0.37434596 0.0099956458 619 52871680 3448 16 819 3448
2.3311181 -0.40393546 0.0099286269 653 53066496 3656 16 844 3656
2.2906804 0.5739181 -0.047782924 480 46439424 2680 17 818 2680
2.2975507 0.54576474 -0.047782924 80 46635264 448 17 723 448
2.3031001 0.51731032 -0.04774715 72 46829312 404 17 664 404
2.3082972 0.4888019 -0.04771138 75 47022848 421 17 614 421
2.3141217 0.46043873 -0.04771138 386 47218176 2154 17 748 2154
2.3127203 0.43072653 -0.047460977 615 47412480 3411 17 765 3411
2.3020771 0.39958152 -0.046888635 91 47607552 498 17 743 498
2.3018737 0.37050816 -0.046709776 73 47801856 398 17 749 398
2.3032815 0.34179315 -0.046602461 593 47996928 3220 17 753 3220
2.3043315 0.31309944 -0.046495143 655 48191232 3550 17 745 3550
2.3089921 0.28492039 -0.046530917 613 48387072 3325 17 724 3325
2.310328 0.25634399 -0.046459373 526 48581632 2847 17 777 2847
2.3033543 0.22699495 -0.046101656 97 48775936 522 17 678 522
2.2920268 0.19751328 -0.045600854 406 48969472 2153 17 719 2153
2.3052413 0.1701792 -0.045994341 603 49164800 3228 17 769 3228
2.3061585 0.14181636 -0.045958571 289 49359360 1547 17 757 1547
2.2987418 0.11306522 -0.045636628 88 49553152 469 17 656 469
2.303951 0.084994309 -0.045779712 94 49746688 502 17 685 502
2.3068185 0.056763723 -0.045851257 81 49941248 433 17 703 433
2.3213315 0.028621402 -0.046352059 634 50135040 3423 17 765 3423
2.3195093 0.00013315582 -0.046280514 661 50329600 3564 17 737 3564
2.3053463 -0.028157583 -0.045779712 106 50524672 567 17 636 567
2.3118205 -0.056618046 -0.046030115 97 50720000 521 17 708 521
2.3209383 -0.085352302 -0.046387829 686 50914048 3709 17 717 3709
2.3107328 -0.11338505 -0.046065886 743 51109632 3985 17 788 3985
2.306175 -0.14154859 -0.045958571 751 51305728 4015 17 768 4015
2.3012745 -0.16961737 -0.045851257 480 51501312 2562 17 746 2562
2.3259027 -0.20016275 -0.04681709 100 51697408 548 17 666 548
2.3133259 -0.22770946 -0.046459373 629 51893248 3404 17 770 3404
2.3113506 -0.25619063 -0.046495143 694 52089856 3758 17 781 3758
2.3090246 -0.28465763 -0.046530917 702 52286208 3807 17 758 3807
2.2793224 0.54143786 -0.10369924 455 46635264 2511 18 978 2511
2.2809253 0.51233333 -0.10339922 560 46829312 3077 18 919 3077
2.2723918 0.48120481 -0.10249918 691 47022848 3747 18 979 3747
2.2840002 0.45445061 -0.1028592 628 47218176 3423 18 987 3423
2.2638898 0.42164052 -0.10129911 239 47412480 1277 18 859 1277
2.288564 0.39723828 -0.10249918 76 47607552 411 18 835 411
2.2922807 0.36896572 -0.10243917 66 47801856 362 18 857 362
2.2966359 0.34080812 -0.10243917 85 47996928 465 18 863 465
2.282841 0.31018305 -0.10135911 229 48191232 1220 18 847 1220
2.2884567 0.28238988 -0.10147912 85 48387072 453 18 847 453
2.2897656 0.2540659 -0.10135911 71 48581632 378 18 845 378
2.2946978 0.2261433 -0.10147912 241 48775936 1290 18 917 1290
2.2893438 0.19728252 -0.10099909 623 48969472 3308 18 936 3308
2.2935834 0.16932055 -0.1011191 651 49164800 3461 18 917 3461
2.2964849 0.1412231 -0.10117911 594 49359360 3161 18 872 3161
2.2761109 0.11195592 -0.099859037 327 49553152 1704 18 852 1704
2.2942715 0.084638849 -0.10087909 671 49746688 3555 18 934 3555
2.2941394 0.05645385 -0.10081909 682 49941248 3611 18 919 3611
2.2926631 0.028272698 -0.10069908 670 50135040 3540 18 967 3540
2.2918394 0.00013617413 -0.10063908 196 50329600 1039 18 861 1039
2.2916684 -0.027988229 -0.10063908 93 50524672 495 18 867 495
2.2891567 -0.056059208 -0.10051907 101 50720000 536 18 868 536
2.2872987 -0.084109612 -0.10045907 111 50914048 584 18 798 584
2.3020463 -0.11295736 -0.10141912 605 51109632 3232 18 886 3232
2.2994905 -0.14113718 -0.10135911 612 51305728 3267 18 895 3267
2.2975852 -0.16934484 -0.10135911 663 51501312 3538 18 918 3538
2.2953341 -0.19752699 -0.10135911 201 51697408 1075 18 914 1075
2.2593665 0.50749463 -0.15857042 505 46829312 2730 19 791 2730
2.2654243 0.47973052 -0.15857042 581 47022848 3141 19 750 3141
2.269186 0.45150557 -0.15840167 512 47218176 2762 19 776 2762
2.2833724 0.4252657 -0.15916103 112 47412480 610 19 723 610
2.2776196 0.39534047 -0.15823293 411 47607552 2214 19 745 2214
2.2744291 0.36609533 -0.15755793 599 47801856 3203 19 757 3203
2.2757933 0.33771873 -0.15730482 580 47996928 3095 19 739 3095
2.2768042 0.30936384 -0.1570517 538 48191232 2863 19 800 2863
2.258672 0.2787196 -0.15519547 100 48387072 523 19 731 523
2.2599416 0.25076178 -0.15502673 92 48581632 481 19 668 481
2.2886314 0.22554649 -0.15722044 237 48775936 1263 19 767 1263
2.2634294 0.19505376 -0.15485799 414 48969472 2154 19 756 2154
2.2606838 0.16689734 -0.15443611 83 49164800 431 19 694 431
2.2625618 0.13914271 -0.15443611 93 49359360 483 19 704 483
2.2660894 0.11146468 -0.15460487 93 49553152 483 19 750 483
2.2633035 0.083501615 -0.15426737 403 49746688 2083 19 785 2083
2.2790999 0.056086291 -0.15553297 560 49941248 2934 19 817 2934
2.2796166 0.028114006 -0.15553297 559 50135040 2929 19 768 2929
2.2817826 0.00013727113 -0.15570173 610 50329600 3200 19 776 3200
2.2816126 -0.027863722 -0.15570173 586 50524672 3075 19 754 3075
2.2810988 -0.055860519 -0.15570173 636 50720000 3336 19 818 3336
2.2712798 -0.083517842 -0.15494236 257 50914048 1338 19 781 1338
1.8615071 -0.74425155 -0.13224588 29 56381184 118 19 776 118
