# .PCD v0.7 - Point Cloud Data file format
VERSION 0.7
FIELDS x y z intensity t reflectivity ring noise range
SIZE 4 4 4 4 4 2 2 2 4
TYPE F F F F U U U U U
COUNT 1 1 1 1 1 1 1 1 1
WIDTH 469
HEIGHT 1
VIEWPOINT 0 0 0 1 0 0 0
POINTS 469
DATA ascii
2.4238741 1.0386337 1.0410739 142 43931648 1135 0 763 1135
2.4355743 1.0084537 1.0407162 141 44130304 1127 0 714 1127
2.4356258 0.97363847 1.0357082 37 44321280 294 0 741 294
2.4317062 0.93763131 1.0292693 16 44516608 128 0 673 128
2.4430292 0.90771991 1.0292693 13 44711168 103 0 745 103
2.4592605 0.87955791 1.0314156 50 44906496 394 0 670 394
2.4937131 0.85750824 1.0410739 143 45101824 1142 0 793 1142
2.427202 1.1470416 0.99398309 168 43353600 1375 1 894 1375
2.4119921 1.1038556 0.98250514 33 43540736 262 1 851 262
2.4262173 1.0745547 0.98284268 16 43743488 127 1 825 127
2.4348943 1.0428481 0.98115474 175 43931648 1387 1 847 1387
2.4509876 1.014329 0.98250514 179 44130304 1422 1 856 1422
2.466747 0.98557162 0.98385549 222 44321280 1770 1 855 1770
2.4523046 0.94507569 0.97372782 135 44516608 1054 1 839 1054
2.4654822 0.91556609 0.97440302 195 44711168 1530 1 919 1530
2.4712136 0.88334167 0.97237748 211 44906496 1648 1 883 1648
2.4934404 0.85692501 0.97676611 206 45101824 1617 1 837 1617
2.5064502 0.82714671 0.97777891 194 45297152 1526 1 853 1526
2.4948726 0.78951365 0.96967679 94 45491712 733 1 941 733
2.3890343 1.2385551 0.93027383 165 42767872 1336 2 898 1336
2.3964267 1.2053101 0.92742258 183 42952704 1472 2 912 1472
2.4050691 1.1729021 0.92520493 197 43149568 1577 2 880 1577
2.4115629 1.1396536 0.92235363 163 43353600 1297 2 890 1297
2.4296792 1.1119471 0.92393768 22 43540736 174 2 856 174
2.4370706 1.0793597 0.92172003 14 43743488 118 2 879 118
2.4387972 1.0445189 0.91760153 172 43931648 1347 2 839 1347
2.460196 1.0181382 0.92076957 49 44130304 394 2 876 394
2.4504838 0.97907645 0.91284937 20 44321280 155 2 826 155
2.4472675 0.94313538 0.90746367 21 44516608 167 2 880 167
2.4684384 0.91666335 0.91094857 82 44711168 633 2 827 633
2.4714625 0.8834306 0.90809727 97 44906496 750 2 915 750
2.4803233 0.85241914 0.90746367 40 45101824 306 2 834 306
2.4644754 0.81330138 0.89827621 19 45297152 143 2 790 143
2.4977827 0.79043412 0.90651321 171 45491712 1313 2 866 1313
2.497309 0.75669891 0.90302837 131 45689344 999 2 904 999
2.3822043 1.347946 0.87900531 137 42168320 1129 3 1103 1129
2.3893573 1.3135502 0.87575251 109 42377472 895 3 952 895
2.3749571 1.2679381 0.86510706 17 42560768 140 3 999 140
2.391186 1.2391376 0.86540276 22 42767872 180 3 967 180
2.3857269 1.1994057 0.85830575 91 42952704 717 3 949 717
2.4208758 1.1800818 0.86540276 227 43149568 1809 3 1055 1809
2.4118519 1.1392721 0.8574186 70 43353600 551 3 1004 551
2.4716952 1.1306438 0.87309116 23 43540736 192 3 984 192
2.4417052 1.0808989 0.85830575 215 43743488 1686 3 1012 1686
2.4512727 1.0493507 0.8571229 252 43931648 1969 3 1042 1969
2.4524889 1.0144458 0.8532787 237 44130304 1836 3 990 1836
2.4487834 0.97789884 0.84795594 191 44321280 1461 3 1028 1461
2.4623823 0.94846135 0.8485474 283 44516608 2167 3 923 2167
2.4774184 0.91950178 0.84973019 263 44711168 2019 3 956 2019
2.4741213 0.88389075 0.8449989 291 44906496 2206 3 1072 2206
2.501045 0.85904634 0.85032165 33 45101824 258 3 956 258
2.4778302 0.81722403 0.83938044 133 45297152 998 3 1004 998
2.5113544 0.79424173 0.84706885 233 45491712 1776 3 1055 1776
2.5071971 0.75921285 0.84263325 248 45689344 1871 3 986 1871
2.5062308 0.72546822 0.83938044 230 45880064 1722 3 978 1722
2.3598835 1.4139971 0.81516951 170 41777408 1392 4 814 1392
2.3670845 1.3791225 0.81188405 177 41988096 1438 4 804 1438
2.3729496 1.343811 0.80832475 240 42168320 1931 4 835 1931
2.3951607 1.3178347 0.81024128 218 42377472 1764 4 775 1764
2.4001236 1.2824523 0.80668199 135 42560768 1083 4 744 1083
2.4003112 1.2449341 0.80175376 164 42767872 1298 4 806 1298
2.3947866 1.2050123 0.79518276 286 42952704 2223 4 820 2223
2.4016135 1.1717393 0.79271865 245 43149568 1894 4 788 1894
2.4166813 1.1425905 0.79299241 29 43353600 226 4 756 226
2.4287715 1.1120476 0.79244483 26 43540736 202 4 755 202
2.4352002 1.079043 0.79025453 193 43743488 1482 4 760 1482
2.436765 1.0441552 0.78669524 72 43931648 548 4 773 548
2.4502835 1.0145415 0.78696901 32 44130304 245 4 729 245
2.4580834 0.98261201 0.78560007 30 44321280 229 4 735 229
2.4699564 0.95237356 0.78560007 109 44516608 828 4 738 828
2.485064 0.92333108 0.78669524 143 44711168 1088 4 764 1088
2.4826226 0.88790959 0.78258836 30 44906496 227 4 724 227
2.4915128 0.85675192 0.78204077 37 45101824 279 4 747 279
2.4963586 0.8243041 0.78039801 267 45297152 1999 4 745 1999
2.5017014 0.79215682 0.77902907 221 45491712 1647 4 791 1647
2.5047908 0.75944495 0.77711254 255 45689344 1890 4 787 1890
2.4954457 0.72329783 0.77163672 131 45880064 959 4 717 959
2.5124769 0.69492674 0.77410084 286 46080000 2104 4 761 2104
2.3305724 1.5157204 0.75494325 248 41190656 2053 5 957 2053
2.3473616 1.4859715 0.75444013 242 41386752 2003 5 894 2003
2.3357515 1.4387844 0.74538386 28 41598720 232 5 868 232
2.3499107 1.4080234 0.74437761 31 41777408 250 5 775 250
2.363667 1.3771319 0.74337137 33 41988096 263 5 852 263
2.4014447 1.3599427 0.74966043 93 42168320 756 5 845 756
2.3831832 1.3112469 0.73934639 33 42377472 261 5 811 261
2.3905578 1.2773429 0.73683071 34 42560768 274 5 866 274
2.368247 1.2283095 0.72576195 102 42767872 775 5 851 775
2.4237792 1.2195957 0.73758543 275 42952704 2169 5 922 2169
2.3915887 1.1668501 0.72400105 120 43149568 913 5 949 913
2.4039776 1.1365867 0.72349793 36 43353600 279 5 864 279
2.4151042 1.1057922 0.72274321 318 43540736 2403 5 932 2403
2.4338017 1.0784236 0.72425258 319 43743488 2421 5 896 2421
2.4441833 1.0473328 0.72349793 345 43931648 2613 5 859 2613
2.4505918 1.0146691 0.72173697 278 44130304 2096 5 878 2096
2.4556687 0.98164719 0.71972448 315 44321280 2354 5 829 2354
2.4584992 0.94795781 0.71720886 353 44516608 2625 5 886 2625
2.4554305 0.91232556 0.71318382 356 44711168 2616 5 881 2616
2.4846683 0.88864088 0.71821511 76 44906496 572 5 884 572
2.4541984 0.84392679 0.70689476 141 45101824 1014 5 822 1014
2.5057282 0.82739645 0.71821511 381 45297152 2840 5 897 2840
2.4760156 0.78402764 0.70739788 138 45491712 994 5 831 994
2.5123115 0.761724 0.71469325 34 45689344 257 5 885 257
2.5214698 0.73083669 0.71469325 43 45880064 317 5 816 317
2.5181215 0.69648701 0.71142292 76 46080000 561 5 869 561
2.5264788 0.66553336 0.71142292 376 46267904 2743 5 845 2743
2.5363333 0.63494927 0.71192604 89 46464000 656 5 879 656
2.3324835 1.55802 0.69262582 250 41014272 2079 6 775 2079
2.3391857 1.5213206 0.68919039 229 41190656 1890 6 890 1890
2.3527434 1.4893774 0.6878162 253 41386752 2072 6 846 2072
2.3575811 1.4522269 0.68415171 219 41598720 1774 6 790 1774
2.3610287 1.414683 0.68025821 230 41777408 1840 6 786 1840
2.3613882 1.3758047 0.6756776 289 41988096 2280 6 820 2280
2.3755524 1.3452846 0.67499048 281 42168320 2212 6 797 2212
2.383353 1.3113403 0.67270017 161 42377472 1258 6 823 1258
2.3949726 1.2797011 0.67155504 170 42560768 1324 6 806 1324
2.3958054 1.2425978 0.66766155 310 42767872 2384 6 854 2384
2.4039166 1.2096047 0.6658293 256 42952704 1958 6 786 1958
2.4317029 1.1864145 0.66926473 46 43149568 357 6 759 357
2.4390383 1.1531569 0.66743249 33 43353600 255 6 754 255
2.4114053 1.1040992 0.65666807 227 43540736 1686 6 829 1686
2.438123 1.0803376 0.6601035 111 43743488 834 6 792 834
2.4368801 1.0442046 0.65643901 46 43931648 342 6 808 342
2.4486113 1.0138494 0.65621001 37 44130304 276 6 758 276
2.4482133 0.97866815 0.65300357 125 44321280 919 6 750 919
2.4673052 0.9513517 0.65483582 213 44516608 1573 6 815 1573
2.4751437 0.91964686 0.6539197 50 44711168 369 6 764 369
2.47891 0.88658237 0.65208745 38 44906496 279 6 774 279
2.487762 0.85546279 0.65162939 341 45101824 2492 6 836 2492
2.4879043 0.82151377 0.64911008 354 45297152 2572 6 889 2572
2.495014 0.79004037 0.64842296 340 45491712 2460 6 791 2460
2.5157001 0.76275086 0.65117133 185 45689344 1351 6 741 1351
2.5127163 0.72830087 0.64819396 395 45880064 2855 6 827 2855
2.5177114 0.6963737 0.64727783 383 46080000 2762 6 762 2762
2.5232434 0.66468161 0.64659071 395 46267904 2847 6 870 2847
2.5264885 0.63248622 0.64544559 384 46464000 2751 6 827 2751
2.5501614 0.6052537 0.64933908 200 46659072 1450 6 834 1450
2.3439231 1.524986 0.62176687 279 41190656 2282 7 1086 2282
2.3508854 1.4887795 0.61888242 81 41386752 659 7 1058 659
2.3756433 1.4639244 0.62053066 34 41598720 281 7 1012 281
2.3640506 1.4170572 0.61331952 53 41777408 425 7 1012 425
2.3660433 1.3790723 0.60961092 103 41988096 811 7 1032 811
2.3768282 1.3465579 0.60816866 39 42168320 309 7 996 309
2.3785989 1.3092694 0.60466611 48 42377472 373 7 1083 373
2.3858562 1.2753699 0.60260576 126 42560768 968 7 994 968
2.4100137 1.2505014 0.60466611 412 42767872 3177 7 1075 3177
2.3998287 1.2080765 0.59869117 172 42952704 1300 7 1082 1300
2.4197495 1.1811105 0.59992737 33 43149568 254 7 1018 254
2.4225609 1.1458899 0.59724891 425 43353600 3194 7 1045 3194
2.4302125 1.1132232 0.59580666 381 43540736 2849 7 1045 2849
2.4445851 1.0837134 0.59601271 456 43743488 3410 7 1102 3410
2.4370129 1.0447679 0.59127396 326 43931648 2398 7 1045 2398
2.4369929 1.009542 0.58838946 401 44130304 2920 7 1067 2920
2.4464722 0.97847062 0.58777136 460 44321280 3341 7 1115 3341
2.4637733 0.95048743 0.58900756 384 44516608 2802 7 1111 2802
2.4816725 0.92256743 0.59044981 59 44711168 437 7 1003 437
2.4909644 0.8913849 0.59003776 128 44906496 940 7 1018 940
2.4776561 0.85247588 0.58468086 477 45101824 3426 7 1078 3426
2.4842141 0.82077962 0.58385676 180 45297152 1291 7 1070 1291
2.4968979 0.79111898 0.58447486 64 45491712 464 7 970 464
2.5064182 0.76041859 0.58447486 70 45689344 506 7 978 506
2.5249596 0.73232818 0.58653516 111 45880064 805 7 1048 805
2.5045192 0.69320035 0.58014816 174 46080000 1232 7 1020 1232
2.5327086 0.66764903 0.58447486 69 46267904 498 7 1074 498
2.5435588 0.63723153 0.58509296 58 46464000 420 7 1032 420
2.5350015 0.60212821 0.58159035 403 46659072 2861 7 1107 2861
2.5345614 0.56926012 0.57994211 351 46853888 2478 7 1098 2478
2.3553896 1.4916312 0.55157137 276 41386752 2226 8 976 2226
2.3542643 1.4507543 0.54736811 371 41598720 2942 8 955 2942
2.3659866 1.4182172 0.54608887 349 41777408 2756 8 914 2756
2.3645236 1.3781868 0.54206836 341 41988096 2651 8 890 2651
2.3650038 1.3398612 0.53859609 269 42168320 2064 8 873 2064
2.3872974 1.3140558 0.53987539 227 42377472 1751 8 875 1751
2.3859007 1.2753938 0.53622037 397 42560768 3015 8 885 3015
2.3978813 1.2442083 0.53548938 399 42767872 3022 8 886 3022
2.3927698 1.2045243 0.53128612 60 42952704 446 8 816 446
2.4073708 1.1750706 0.53128612 55 43149568 408 8 840 408
2.419832 1.1445994 0.53092062 284 43353600 2106 8 853 2106
2.4453166 1.1201394 0.53329635 135 43540736 1011 8 843 1011
2.4391034 1.0812842 0.52927583 52 43743488 383 8 853 383
2.4485738 1.0497222 0.52854484 50 43931648 368 8 796 368
2.4385622 1.0101919 0.52397609 123 44130304 893 8 894 893
2.4562526 0.98238069 0.52507257 258 44321280 1875 8 916 1875
2.4626191 0.95004231 0.52397609 40 44516608 289 8 792 289
2.4685626 0.91769594 0.5228796 58 44711168 417 8 815 417
2.4768612 0.88634044 0.52233136 434 44906496 3108 8 844 3108
2.4847622 0.85491961 0.52178311 449 45101824 3214 8 913 3214
2.4903984 0.82282192 0.52086931 403 45297152 2876 8 915 2876
2.4984336 0.79160529 0.52050382 244 45491712 1741 8 885 1741
2.5013738 0.75888902 0.51922458 471 45689344 3337 8 941 3337
2.5076652 0.72731501 0.51867634 456 45880064 3223 8 963 3223
2.518297 0.69701153 0.51904184 432 46080000 3058 8 909 3058
2.5342665 0.66805947 0.52050382 72 46267904 512 8 843 512
2.5298753 0.63380557 0.5181281 192 46464000 1358 8 872 1358
2.5365059 0.60248536 0.51794535 458 46659072 3227 8 953 3227
2.5417898 0.57088256 0.51757985 470 46853888 3307 8 966 3307
2.5466805 0.53924084 0.5172143 425 47058688 2986 8 946 2986
2.362752 1.455411 0.48067087 250 41598720 1979 9 1115 1979
2.3728116 1.4217409 0.4792397 293 41777408 2306 9 979 2306
2.3678987 1.3795966 0.4751052 42 41988096 330 9 915 330
2.383791 1.3499486 0.47494617 48 42168320 377 9 874 377
2.3880668 1.3139329 0.47271991 65 42377472 502 9 912 502
2.3813691 1.2724348 0.46858537 439 42560768 3290 9 980 3290
2.4046929 1.2472059 0.47001657 206 42767872 1557 9 958 1557
2.3933575 1.2042934 0.46524596 50 42952704 375 9 865 375
2.400857 1.1713703 0.46397382 388 43149568 2847 9 957 2847
2.4088023 1.1388669 0.46286067 418 43353600 3052 9 952 3052
2.4225967 1.1092213 0.46286067 455 43540736 3320 9 1013 3320
2.4387341 1.0806084 0.46333772 356 43743488 2605 9 1001 2605
2.4363832 1.0439917 0.46063441 479 43931648 3459 9 968 3459
2.4426255 1.0113721 0.45952126 442 44130304 3175 9 1042 3175
2.4511855 0.97985578 0.45888519 432 44321280 3093 9 1008 3093
2.4759223 0.95467293 0.46111146 75 44516608 548 9 914 548
2.4772706 0.92043674 0.45936224 120 44711168 866 9 925 866
2.483731 0.88830584 0.45856714 494 44906496 3533 9 995 3533
2.4785726 0.85230434 0.4558638 187 45101824 1324 9 921 1324
2.4860325 0.82089597 0.45538676 61 45297152 435 9 928 435
2.49686 0.79062462 0.45554575 83 45491712 589 9 989 589
2.5063744 0.75992477 0.45554575 176 45689344 1243 9 987 1243
2.5164592 0.7293852 0.45570478 226 45880064 1598 9 902 1598
2.5242689 0.6981864 0.45554575 106 46080000 752 9 925 752
2.527873 0.66590041 0.45475066 101 46267904 713 9 977 713
2.5301077 0.63339168 0.45379654 465 46464000 3251 9 1052 3251
2.5424931 0.60343492 0.45459166 512 46659072 3591 9 1038 3591
2.5458531 0.571325 0.45395556 523 46853888 3658 9 1041 3658
2.5507407 0.53963202 0.45363754 216 47058688 1511 9 1020 1511
2.5542657 0.5077129 0.45316046 460 47243776 3207 9 1052 3207
2.5632157 0.47687119 0.45363754 37 47450368 263 9 967 263
2.3812628 1.4268031 0.41382813 211 41777408 1657 10 1222 1657
2.3763328 1.384509 0.41030401 406 41988096 3133 10 1089 3133
2.3733134 1.344017 0.40718654 332 42168320 2521 10 1032 2521
2.3844192 1.3119267 0.40637329 445 42377472 3363 10 1025 3363
2.3985913 1.2816339 0.40610218 502 42560768 3789 10 1009 3789
2.3983059 1.2438942 0.40366241 87 42767872 652 10 970 652
2.4080791 1.2116984 0.40284917 60 42952704 450 10 926 450
2.4013951 1.1716328 0.39959615 316 43149568 2303 10 991 2303
2.4317157 1.1496961 0.40203592 227 43353600 1678 10 972 1678
2.4240198 1.1098727 0.39878288 59 43540736 432 10 975 432
2.4347394 1.0788389 0.39837626 85 43743488 618 10 1036 618
2.4386876 1.0449787 0.39702085 170 43931648 1224 10 990 1224
2.4412575 1.0108058 0.39552987 396 44130304 2821 10 1099 2821
2.4497976 0.97930121 0.3949877 70 44321280 501 10 1002 501
2.4597816 0.94845206 0.39471662 79 44516608 565 10 940 565
2.4712355 0.91819531 0.39471662 538 44711168 3813 10 1050 3813
2.4739206 0.88479871 0.39349672 526 44906496 3703 10 1183 3703
2.481781 0.85340714 0.3930901 548 45101824 3850 10 1130 3850
2.4864218 0.82102448 0.39227685 343 45297152 2400 10 1020 2400
2.5019772 0.79224414 0.3930901 557 45491712 3914 10 1114 3914
2.5096147 0.7609067 0.39281902 582 45689344 4082 10 1125 4082
2.5159082 0.72922552 0.39241239 552 45880064 3863 10 1139 3863
2.5103431 0.69433683 0.39037925 140 46080000 973 10 979 973
2.5407114 0.66928035 0.39349672 237 46267904 1671 10 1007 1671
2.5410442 0.63612783 0.39241239 584 46464000 4087 10 1124 4087
2.5332346 0.60123897 0.39024371 354 46659072 2448 10 1092 2448
2.5491228 0.57205826 0.39146358 145 46853888 1012 10 1035 1012
2.5559509 0.54073352 0.39146358 152 47058688 1060 10 1048 1060
2.5604506 0.50894129 0.3911925 146 47243776 1018 10 993 1018
2.574296 0.47893092 0.39227685 575 47450368 4019 10 1143 4019
2.5799792 0.44730428 0.39227685 156 47633152 1093 10 1102 1093
2.3745263 1.3447038 0.34003827 447 42168320 3372 11 782 3372
2.3925908 1.3164213 0.34026086 460 42377472 3475 11 819 3475
2.3892803 1.2766606 0.33781236 206 42560768 1532 11 739 1532
2.3941801 1.2417551 0.3364768 41 42767872 303 11 756 303
2.4012477 1.2082623 0.33547515 390 42952704 2856 11 815 2856
2.4078553 1.1747836 0.33447349 476 43149568 3460 11 830 3460
2.4175978 1.1430237 0.33391702 478 43353600 3462 11 855 3462
2.425117 1.1103749 0.33313796 447 43540736 3220 11 845 3220
2.4358344 1.079324 0.33280405 519 43743488 3739 11 858 3739
2.4488962 1.0493513 0.33280405 555 43931648 3998 11 872 3998
2.4533246 1.0158002 0.3318024 500 44130304 3572 11 835 3572
2.4508398 0.97971767 0.33002168 76 44321280 537 11 764 537
2.4561868 0.94706655 0.32924262 121 44516608 850 11 786 850
2.4843929 0.92308187 0.33124593 534 44711168 3806 11 881 3806
2.4777534 0.8861689 0.32913131 247 44906496 1733 11 800 1733
2.4875016 0.85537332 0.32902002 105 45101824 737 11 758 737
2.4959238 0.82416052 0.32879743 100 45297152 701 11 791 701
2.5067971 0.79376948 0.32890871 191 45491712 1338 11 800 1338
2.5192022 0.76381212 0.32924262 323 45689344 2267 11 841 2267
2.5092947 0.72730976 0.32701668 160 45880064 1107 11 802 1107
2.5247362 0.69831556 0.32779577 178 46080000 1237 11 836 1237
2.5331154 0.66728055 0.32779577 518 46267904 3605 11 902 3605
2.5449696 0.63710988 0.32824093 611 46464000 4266 11 903 4266
2.5525963 0.60583121 0.32824093 595 46659072 4154 11 936 4154
2.5501416 0.57228667 0.32712799 328 46853888 2269 11 844 2269
2.5657229 0.54279935 0.32812965 588 47058688 4101 11 924 4101
2.5692666 0.5106923 0.32779577 577 47243776 4015 11 921 4015
2.5724089 0.47858015 0.32746187 577 47450368 4008 11 921 4008
2.5751505 0.44646782 0.32712799 545 47633152 3777 11 934 3777
2.5774918 0.41436037 0.32679412 333 47841792 2298 11 821 2298
2.3896918 1.3148267 0.27343485 441 42377472 3307 12 1284 3307
2.3704989 1.2666284 0.2699486 110 42560768 801 12 1250 801
2.4238927 1.2571604 0.2736963 59 42767872 444 12 1252 444
2.4142187 1.2147868 0.27125594 327 42952704 2409 12 1209 2409
2.4262581 1.183759 0.27099448 246 43149568 1815 12 1293 1815
2.4189858 1.1436797 0.26890275 49 43353600 355 12 1186 355
2.4264977 1.1110069 0.26829267 72 43540736 518 12 1181 518
2.4153559 1.0702535 0.26593944 131 43743488 922 12 1236 922
2.4383807 1.0448472 0.26689816 472 43931648 3355 12 1319 3355
2.4528599 1.0156078 0.26707247 88 44130304 625 12 1255 625
2.462363 0.98432213 0.26681101 71 44321280 504 12 1205 504
2.4631023 0.94973189 0.26576513 535 44516608 3764 12 1399 3764
2.4708359 0.91804701 0.2654165 495 44711168 3472 12 1359 3472
2.4828539 0.88799226 0.26550367 566 44906496 3973 12 1393 3973
2.485085 0.85454267 0.26471928 400 45101824 2790 12 1382 2790
2.5010605 0.82585585 0.26524219 596 45297152 4176 12 1302 4176
2.5081573 0.79420006 0.26498073 528 45491712 3688 12 1420 3688
2.5177145 0.76336128 0.26498073 614 45689344 4291 12 1367 4291
2.5096693 0.72741818 0.26341194 220 45880064 1519 12 1362 1519
2.5126457 0.69497335 0.262889 279 46080000 1918 12 1333 1918
2.5335088 0.66738409 0.26402202 574 46267904 3976 12 1468 3976
2.5318437 0.63382596 0.26315045 406 46464000 2792 12 1390 2792
2.5336151 0.60132921 0.26262754 342 46659072 2345 12 1305 2345
2.5456638 0.57128257 0.26306331 318 46853888 2187 12 1380 2187
2.5563815 0.54082447 0.26341194 320 47058688 2208 12 1372 2208
2.5608714 0.50902492 0.26323763 413 47243776 2843 12 1414 2843
2.5659456 0.47737867 0.26315045 308 47450368 2122 12 1312 2122
2.5775001 0.44687483 0.26367339 258 47633152 1786 12 1300 1786
2.5896749 0.41631711 0.26428348 486 47841792 3376 12 1404 3376
2.5936034 0.38436058 0.26419634 440 48022784 3054 12 1370 3054
2.385448 1.2746135 0.20534985 500 42560768 3675 13 800 3675
2.3955936 1.2424881 0.2049731 535 42767872 3915 13 787 3915
2.4035277 1.2094091 0.20447077 515 42952704 3745 13 783 3745
2.416394 1.1789482 0.2043452 512 43149568 3717 13 832 3717
2.4243634 1.1462213 0.20390566 494 43353600 3569 13 788 3569
2.4237268 1.1097387 0.20290101 527 43540736 3766 13 858 3766
2.4326 1.0778913 0.20258705 523 43743488 3718 13 839 3718
2.4383049 1.0448148 0.20208474 532 43931648 3759 13 837 3759
2.4537094 1.0159594 0.2022731 101 44130304 717 13 726 717
2.4641383 0.98503149 0.20214753 114 44321280 808 13 744 808
2.4723155 0.95328283 0.20189637 549 44516608 3879 13 870 3879
2.4726007 0.91870236 0.20114288 242 44711168 1692 13 746 1692
2.4808691 0.88728267 0.20095451 152 44906496 1061 13 761 1061
2.488739 0.8557986 0.20076613 124 45101824 864 13 743 864
2.4886284 0.82175279 0.20007543 235 45297152 1621 13 778 1621
2.4985251 0.79115158 0.20007543 390 45491712 2696 13 859 2696
2.5166419 0.76303625 0.20064056 204 45689344 1418 13 795 1418
2.5229402 0.73126262 0.20045218 268 45880064 1857 13 788 1857
2.5201805 0.69705623 0.1996987 627 46080000 4312 13 917 4312
2.5314403 0.66683954 0.19988707 627 46267904 4321 13 932 4321
2.5394328 0.63572466 0.19988707 626 46464000 4315 13 880 4315
2.5441296 0.60382307 0.1996987 625 46659072 4292 13 853 4292
2.5532956 0.57299399 0.19982427 613 46853888 4224 13 877 4224
2.5581818 0.54120511 0.1996987 643 47058688 4420 13 863 4420
2.5705042 0.51093811 0.20007543 639 47243776 4412 13 926 4412
2.564806 0.4771668 0.19932196 504 47450368 3452 13 858 3452
2.582269 0.44770092 0.20007543 418 47633152 2883 13 816 2883
2.5895393 0.41629532 0.20020102 639 47841792 4422 13 895 4422
2.5964274 0.38477865 0.20032661 586 48022784 4060 13 909 4060
2.5969977 0.3523514 0.20007543 532 48232704 3675 13 971 3675
2.3815384 1.2357314 0.13771346 425 42767872 3066 14 1258 3066
2.4036646 1.2100067 0.13801777 299 42952704 2172 14 1099 2172
2.4201283 1.1812954 0.13809386 58 43149568 425 14 1060 425
2.4344423 1.1515077 0.13809386 52 43353600 381 14 1063 381
2.4311273 1.1136421 0.13737111 109 43540736 782 14 1140 782
2.4345608 1.0792712 0.13695268 418 43743488 2973 14 1081 2973
2.4402738 1.0461653 0.13664837 89 43931648 631 14 1103 631
2.4483118 1.0142291 0.13645817 83 44130304 586 14 1138 586
2.4596457 0.98373723 0.13642015 452 44321280 3178 14 1184 3178
2.4659386 0.95132232 0.1361919 472 44516608 3304 14 1176 3304
2.46806 0.9175092 0.13581152 482 44711168 3349 14 1222 3349
2.4866605 0.88984555 0.13611583 393 44906496 2748 14 1121 2748
2.4851086 0.85503876 0.13562132 546 45101824 3778 14 1196 3778
2.4935164 0.82385159 0.13554524 548 45297152 3793 14 1319 3793
2.5053439 0.79379362 0.13562132 526 45491712 3640 14 1217 3640
2.4976833 0.75776994 0.13493662 239 45689344 1633 14 1117 1633
2.5115931 0.72845358 0.13512681 409 45880064 2803 14 1194 2803
2.5347898 0.70157379 0.13569739 586 46080000 4061 14 1260 4061
2.5403094 0.66965151 0.13558328 565 46267904 3907 14 1213 3907
2.5425196 0.63697135 0.13535504 586 46464000 4033 14 1253 4033
2.5462558 0.60479963 0.13520288 711 46659072 4877 14 1242 4877
2.5544608 0.57372648 0.13524093 681 46853888 4677 14 1234 4677
2.5632644 0.54274982 0.13531701 582 47058688 4004 14 1243 4004
2.5697317 0.51125371 0.13531701 681 47243776 4691 14 1299 4691
2.5758121 0.47968069 0.13531701 741 47450368 5098 14 1239 5098
2.5854428 0.44871831 0.13546917 656 47633152 4527 14 1154 4527
2.5917413 0.41711581 0.13550721 611 47841792 4218 14 1256 4218
2.5966647 0.38527974 0.13550721 622 48022784 4294 14 1243 4294
2.5992167 0.3531169 0.13543113 531 48232704 3659 14 1270 3659
2.5825272 0.31862745 0.1346323 397 48411904 2694 14 1199 2694
2.4239426 1.2202111 0.073381796 330 42952704 2435 15 1031 2435
2.4153695 1.1789733 0.073023312 465 43149568 3367 15 935 3367
2.4206159 1.1449702 0.072885439 546 43353600 3922 15 895 3922
2.4281204 1.1122652 0.072788924 511 43540736 3651 15 975 3651
2.4388442 1.0811694 0.072747558 474 43743488 3380 15 960 3380
2.4556043 1.052735 0.072802708 86 43931648 614 15 825 614
2.4683383 1.0225217 0.072802708 90 44130304 642 15 856 642
2.455632 0.98213249 0.072430447 466 44321280 3265 15 996 3265
2.4423099 0.94221067 0.072058178 225 44516608 1548 15 980 1548
2.4677477 0.91739309 0.072264992 129 44711168 900 15 893 900
2.4835269 0.88872474 0.072333932 143 44906496 1002 15 868 1002
2.4810083 0.85362864 0.072140902 252 45101824 1740 15 945 1740
2.4941452 0.82405925 0.072182268 374 45297152 2586 15 957 2586
2.5012102 0.79248458 0.072140902 246 45491712 1700 15 951 1700
2.5145743 0.76289183 0.072196051 282 45689344 1953 15 997 1953
2.5160639 0.72974956 0.072085753 492 45880064 3381 15 1076 3381
2.5325394 0.70095128 0.072196051 624 46080000 4314 15 1095 4314
2.5361159 0.66854668 0.072127119 592 46267904 4078 15 1020 4078
2.545099 0.63761717 0.072140902 641 46464000 4420 15 1049 4420
2.5566232 0.60726058 0.072196051 654 46659072 4522 15 1064 4522
2.5629072 0.5756222 0.072182268 626 46853888 4325 15 1105 4325
2.5717344 0.54454201 0.072209843 587 47058688 4062 15 1031 4062
2.5635126 0.5100174 0.072003029 979 47243776 6694 15 1061 6694
2.5774424 0.47998405 0.072113328 839 47450368 5773 15 1103 5773
2.5860941 0.44883123 0.072154693 625 47633152 4312 15 1070 4312
2.5844967 0.41595095 0.072058178 260 47841792 1786 15 1021 1786
2.4170392 1.1803135 0.0063095875 197 43149568 1425 16 841 1425
2.4096477 1.1403017 0.0065776645 435 43353600 3095 16 761 3095
2.4207323 1.1093963 0.006611174 362 43540736 2569 16 720 2569
2.4414768 1.0828489 0.006521815 71 43743488 509 16 668 509
2.4499862 1.0508366 0.0065776645 80 43931648 571 16 670 571
2.4432974 1.0126553 0.0068122321 441 44130304 3086 16 797 3086
2.457397 0.98333865 0.006789892 519 44321280 3644 16 865 3644
2.470212 0.9534685 0.0067787222 488 44516608 3423 16 779 3423
2.479852 0.92238653 0.0068010618 384 44711168 2691 16 742 2691
2.4730966 0.8854838 0.0070132897 498 44906496 3444 16 857 3444
2.4837766 0.85506839 0.0070132897 546 45101824 3772 16 778 3772
2.4912343 0.82358307 0.0070467992 502 45297152 3457 16 829 3457
2.4935274 0.79053342 0.0071361582 209 45491712 1432 16 739 1432
2.5020838 0.75958413 0.007147328 255 45689344 1746 16 726 1746
2.5131373 0.72937965 0.0071249884 540 45880064 3705 16 885 3705
2.5141892 0.69635057 0.0072143474 491 46080000 3344 16 837 3344
2.534148 0.66850412 0.0070803086 709 46267904 4878 16 858 4878
2.5431306 0.63759893 0.0070691388 765 46464000 5268 16 914 5268
2.5536821 0.60703611 0.0070356294 805 46659072 5556 16 901 5556
2.5599635 0.57543367 0.0070467992 552 46853888 3801 16 847 3801
2.5619409 0.54293984 0.0071026487 551 47058688 3781 16 849 3781
2.5203559 0.50189799 0.0076499726 65 47243776 431 16 720 431
2.4249718 1.1108235 -0.058729038 499 43540736 3556 17 775 3556
2.4429891 1.0830061 -0.058907896 76 43743488 546 17 691 546
2.4496653 1.0501899 -0.058657493 72 43931648 515 17 687 515
2.4512882 1.0154616 -0.058228236 475 44130304 3351 17 767 3351
2.4542854 0.98159426 -0.057870518 238 44321280 1667 17 720 1667
2.471741 0.95355988 -0.058085147 110 44516608 775 17 686 775
2.4776359 0.92106742 -0.057870518 124 44711168 871 17 654 871
2.4802833 0.88756454 -0.057548575 192 44906496 1337 17 691 1337
2.4938235 0.8580358 -0.05765589 422 45101824 2940 17 775 2940
2.4899309 0.82266748 -0.057119314 160 45297152 1103 17 747 1103
2.5055552 0.7938605 -0.057333946 162 45491712 1123 17 735 1123
2.5103266 0.76160371 -0.057155088 437 45689344 3012 17 836 3012
2.5156441 0.72962791 -0.057011999 526 45880064 3613 17 844 3613
2.5244083 0.6987021 -0.057011999 538 46080000 3696 17 802 3696
2.5356917 0.66843492 -0.057119314 625 46267904 4312 17 860 4312
2.5407951 0.63653958 -0.057011999 508 46464000 3490 17 797 3490
2.4988842 1.7599773 -0.14660157 15 40624128 141 18 814 141
2.4373941 1.0805268 -0.1231403 452 43743488 3231 18 904 3231
2.4458828 1.048569 -0.12284029 449 43931648 3199 18 894 3199
2.4548771 1.0169476 -0.12260027 497 44130304 3527 18 939 3527
2.4616106 0.9845227 -0.12224025 466 44321280 3294 18 965 3294
2.4707129 0.95316339 -0.12206024 343 44516608 2421 18 861 2421
2.4672525 0.91720915 -0.12110019 472 44711168 3287 18 987 3287
2.4764426 0.88619077 -0.12098018 468 44906496 3255 18 1050 3255
2.4871311 0.85573423 -0.12098018 470 45101824 3269 18 1020 3269
2.4946012 0.82420987 -0.12080017 131 45297152 913 18 929 913
2.5092859 0.79504198 -0.12110019 115 45491712 806 18 879 806
2.5112114 0.76187205 -0.12062016 455 45689344 3151 18 960 3151
2.5031145 0.72599584 -0.1195401 244 45880064 1670 18 873 1670
2.0474188 1.5579073 -0.18033879 17 40022784 115 19 697 115
2.4561887 1.0529854 -0.18877614 440 43931648 3167 19 806 3167
2.4440687 1.012472 -0.18649805 192 44130304 1356 19 722 1356
2.4563091 0.98240328 -0.18649805 59 44321280 418 19 695 418
2.4691095 0.95254511 -0.18658243 74 44516608 524 19 737 524
2.4759426 0.92043823 -0.18616056 117 44711168 825 19 693 825
2.4767308 0.88629389 -0.18523245 451 44906496 3144 19 850 3144
2.4911897 0.85713005 -0.18556994 417 45101824 2916 19 828 2916
1.9231156 -0.79640836 -0.13874264 33 56604416 145 19 741 145
1.6934012 1.2890849 -0.19481452 37 40022784 174 20 875 174
2.4481726 1.014675 -0.25187853 340 44130304 2422 20 954 2422
2.4549019 0.98234069 -0.25122637 377 44321280 2674 20 921 2674
2.4621348 0.95035219 -0.25068292 314 44516608 2219 20 904 2219
2.5502322 0.91308904 -0.25829145 19 44906496 141 20 824 141
