# .PCD v0.7 - Point Cloud Data file format
VERSION 0.7
FIELDS x y z intensity t reflectivity ring noise range
SIZE 4 4 4 4 4 2 2 2 4
TYPE F F F F U U U U U
COUNT 1 1 1 1 1 1 1 1 1
WIDTH 807
HEIGHT 1
VIEWPOINT 0 0 0 1 0 0 0
POINTS 807
DATA ascii
-0.74421948 0.32956451 0.047185231 431 7031040 286 15 946 286
-0.73011976 0.33409104 0.047033567 603 7224320 389 15 943 389
-0.72596502 0.34302557 0.047033567 729 7419904 470 15 1012 470
-0.71541113 0.34883773 0.046937052 843 7612672 535 15 1000 535
-0.70571792 0.35489267 0.046854328 841 7805440 525 15 990 525
-0.69509715 0.36030206 0.046757814 906 7999232 556 15 1023 556
-0.68885976 0.36786193 0.046730239 864 8191232 527 15 1036 527
-0.67728621 0.37242973 0.046619937 971 8385024 581 15 1022 581
-0.67266494 0.38071305 0.046619937 899 8577792 538 15 1057 538
-0.664487 0.38692468 0.046564788 913 8770560 540 15 1115 540
-0.65625846 0.39299321 0.046509635 897 8966144 526 15 981 526
-0.64798152 0.39891839 0.046454486 905 9160960 524 15 1068 524
-0.63796908 0.40362987 0.046371758 912 9356544 521 15 1063 521
-0.6279394 0.40815616 0.046289034 863 9551872 485 15 1167 485
-0.6203894 0.41416436 0.046247669 903 9748992 502 15 1138 502
-0 0 0 921 9944576 0 15 1100 0
-0 0 0 1091 10140672 0 15 1595 0
-0.35190612 0.25393939 0.041945919 8407 10337280 1584 15 4324 1584
-0.37767377 0.27968499 0.042442273 10491 10534144 2318 15 6412 2318
-0.37421316 0.28429857 0.042442273 10534 10730240 2328 15 6456 2328
-0.35177931 0.27410313 0.042111371 9280 10926848 1846 15 5628 1846
-0 0 0 6384 11124224 0 15 2296 0
-0 0 0 4972 11319296 0 15 1499 0
-0 0 0 3258 11513856 0 15 1469 0
-0 0 0 2614 11708928 0 15 1473 0
-0.37026075 0.32695553 0.04277318 1639 11904256 400 15 1471 400
-0.40918747 0.37042597 0.043572862 1038 12098304 317 15 1294 317
-0.4500266 0.41761765 0.044427697 585 12292096 220 15 1121 220
-0.46224636 0.43965802 0.044758603 591 12486656 240 15 1130 240
-0.4890177 0.47672483 0.045379046 792 12681216 370 15 1259 370
-0.48100984 0.48056859 0.045337684 1211 12876032 561 15 1248 561
-0.47856745 0.49001384 0.045406621 1288 13072128 605 15 1348 605
-0.46493483 0.48788291 0.045254957 3292 13268480 1496 15 1545 1496
-0.47116098 0.5067395 0.045503136 1688 13464576 808 15 1378 808
-0.43670762 0.48136315 0.044924054 6716 13660160 2838 15 3487 2838
-0.45460942 0.51365489 0.045420408 2326 13855744 1095 15 1367 1095
-0.4169265 0.482849 0.044758603 5475 14051328 2229 15 1893 2229
-0.44379786 0.52695239 0.045461774 1905 14247424 904 15 1368 904
-0.44300616 0.53931582 0.045585863 1576 14443264 768 15 1284 768
-0.43010741 0.53690428 0.045447987 1317 14641152 624 15 1260 624
-0.42287129 0.54135358 0.045434199 1285 14838272 607 15 1297 607
-0.41740695 0.5480938 0.045461774 1354 15034880 644 15 1234 644
-0.41124511 0.55397791 0.045475561 1412 15229952 673 15 1310 673
-0.40500164 0.55979323 0.045489348 1529 15425280 730 15 1274 730
-0.39407197 0.55899811 0.045392834 1587 15620352 744 15 1289 744
-0.38605136 0.56214273 0.045365259 1630 15815168 758 15 1237 758
-0.3763468 0.5626806 0.045296323 1718 16011008 789 15 1282 789
-0.36450687 0.55971277 0.045172233 1845 16204032 823 15 1310 823
-0.35707602 0.56329882 0.045158446 1932 16397056 860 15 1281 860
-0.35013661 0.56763828 0.045158446 1823 16590336 812 15 1293 812
-0.34314445 0.57189226 0.045158446 1816 16785664 808 15 1255 808
-0.33610061 0.57606012 0.045158446 1811 16978688 806 15 1306 806
-0.32949892 0.58101124 0.045172233 1795 17172480 803 15 1279 803
-0.32379031 0.58763909 0.045213595 1729 17366016 778 15 1254 778
-0.3165547 0.59156823 0.045213595 1607 17559808 725 15 1235 725
-0.31019223 0.59718353 0.04524117 1433 17754624 649 15 1271 649
-0.30194154 0.5991587 0.045213595 1372 17949440 617 15 1223 617
-0.29368928 0.60102159 0.04518602 1262 18163200 565 15 1252 565
-0.28757393 0.60729223 0.045227382 1227 18339328 555 15 1202 555
-0.28343022 0.61804849 0.045337684 1065 18553088 493 15 1183 493
-0.27460915 0.61873758 0.045296323 1104 18747648 507 15 1193 507
-0.26817718 0.62481809 0.045337684 1066 18943232 494 15 1247 494
-0.26316732 0.63452882 0.045434199 946 19141376 447 15 1188 447
-0.25610322 0.63956743 0.045461774 968 19336192 459 15 1256 459
-0.24823546 0.64266205 0.045461774 972 19530240 462 15 1152 462
-0.24067861 0.64659715 0.045475561 919 19725824 438 15 1172 438
-0.23339924 0.65138495 0.045503136 907 19920640 435 15 1198 435
-0.22603853 0.65609115 0.04553071 892 20117248 430 15 1186 430
-0.21922445 0.66261351 0.045585863 839 20311040 408 15 1210 408
-0.21198228 0.66811359 0.045627225 844 20505600 415 15 1141 415
-0.20492814 0.67449212 0.045682374 728 20702720 362 15 1210 362
-0.19747083 0.67983723 0.04572374 744 20897280 373 15 1138 373
-0.18991306 0.6851005 0.045765102 745 21091840 377 15 1197 377
-0.18251047 0.69124705 0.045820251 730 21287680 373 15 1223 373
-0.17474261 0.69634461 0.045861617 782 21481984 403 15 1211 403
-0.16664609 0.70038223 0.045889191 795 21675520 412 15 1202 412
-0.15847673 0.7043258 0.045916766 772 21870592 403 15 1191 403
-0.15044259 0.70915228 0.045958128 783 22063872 412 15 1188 412
-0.14231376 0.71388716 0.045999493 778 22257664 413 15 1205 413
-0.1340913 0.71852893 0.046040855 797 22451968 427 15 1119 427
-0.12577626 0.72307593 0.046082217 786 22647040 424 15 1188 424
-0.11752848 0.72851384 0.04613737 739 22843648 403 15 1202 403
-0.10931269 0.73484671 0.046206307 775 23038976 428 15 1137 428
-0.10095906 0.74108696 0.046275243 758 23235072 424 15 1137 424
-0.09234634 0.74623966 0.046330396 780 23429376 441 15 1146 441
-0.083291985 0.74831051 0.046344183 811 23625216 460 15 1112 460
-0.07420069 0.75027138 0.046357971 831 23821312 473 15 1099 473
-0.06567356 0.75909531 0.046468273 734 24016896 427 15 1102 427
-0.056647144 0.76383287 0.046523422 807 24212224 474 15 1103 474
-0.047575504 0.76946062 0.046592362 763 24407552 454 15 1062 454
-0.038325273 0.77398133 0.046647511 786 24604416 472 15 1135 472
-0.029118003 0.78238726 0.046757814 758 24798976 465 15 1126 465
-0.019636864 0.78768367 0.04682675 802 24995840 499 15 1145 499
-0.010078748 0.79686379 0.046950839 835 25192960 531 15 1104 531
-0.00029858926 0.8029269 0.047033567 807 25388288 521 15 1050 521
0.0097031351 0.81486809 0.047199018 783 25584640 520 15 1093 520
0.019874625 0.82168484 0.047295533 749 25782272 507 15 1089 507
0.030214854 0.82837367 0.047392044 737 25977856 507 15 1101 507
0.040673029 0.83393264 0.047474772 833 26174464 581 15 1098 581
0.051640689 0.84534693 0.047640223 840 26369280 603 15 1152 603
0.062968172 0.85761303 0.047819462 763 26563072 564 15 1166 564
0.073487662 0.8567757 0.047819462 858 26758400 636 15 1060 636
0.085075364 0.86675531 0.047971129 823 26953216 625 15 1157 625
0.096918896 0.87657779 0.048122793 839 27147264 653 15 1153 653
0.10815859 0.87929195 0.048177943 919 27341824 722 15 1196 722
0.12015279 0.88681561 0.048302032 968 27534848 776 15 1147 776
0.13205411 0.89219785 0.048398547 1207 27729920 983 15 1239 983
0.14490022 0.90235645 0.048563998 1433 27923456 1199 15 1167 1199
0.15664682 0.90445101 0.048619147 1456 28119296 1229 15 1320 1229
0.16645212 0.89557964 0.048522633 1750 28313856 1455 15 1301 1455
0.17977187 0.90523767 0.048688088 1444 28507392 1231 15 1343 1231
0.18775901 0.88829041 0.048481271 2624 28701952 2164 15 1430 2164
0.20083743 0.89567524 0.048619147 1623 28897280 1370 15 1291 1370
0.20811535 0.87757808 0.048398547 1767 29092352 1438 15 1311 1438
0.21838279 0.87301826 0.048370969 1200 29287424 973 15 1228 973
0.22627521 0.8596372 0.048219305 1021 29481984 807 15 1186 807
0.23520648 0.85101384 0.048136581 997 29676544 778 15 1196 778
0.24340324 0.84038091 0.048026279 979 29871872 749 15 1246 749
0.24992298 0.8248921 0.04784704 962 30067200 715 15 1253 715
0.25640187 0.81032485 0.047681585 978 30262528 707 15 1164 707
0.2628752 0.79667395 0.047529921 995 30456576 700 15 1170 700
0.26937798 0.78393322 0.047392044 950 30650880 653 15 1182 653
0.27527121 0.77021295 0.04724038 897 30846976 600 15 1204 600
0.2808688 0.75646764 0.047088716 907 31042560 591 15 1156 591
0.2879709 0.74736679 0.047005992 928 31238144 596 15 1216 596
0.29117844 0.72892261 0.046785388 913 31433728 562 15 1247 562
0.29780501 0.71975201 0.046702664 972 31630336 591 15 1185 591
0.3026745 0.70685345 0.046564788 902 31825920 534 15 1173 534
0.30808347 0.6957733 0.046454486 913 32022016 530 15 1193 530
0.31118414 0.68012279 0.046275243 871 32217344 487 15 1196 487
0.31608596 0.66902202 0.046164945 838 32413696 459 15 1156 459
0.32032403 0.65700591 0.046040855 857 32608000 459 15 1215 459
0.32566437 0.64766705 0.045958128 816 32802816 429 15 1182 429
0.32483649 0.62675929 0.045696162 602 32997888 300 15 1051 300
0.35937586 0.67298764 0.04648206 118 33193984 69 15 878 69
0.37821653 0.68779743 0.046785388 90 33388544 56 15 947 56
0.39845911 0.70398313 0.047116291 24 33583616 15 15 856 15
0 0 0 7 33779712 0 15 908 0
0 0 0 13 33974528 0 15 861 0
0.83226502 1.3510869 0.057843097 17 34169600 42 15 835 42
0.82684565 1.3061386 0.057277802 12 34365440 30 15 890 30
0.8629902 1.3269027 0.057787944 17 34559488 44 15 880 44
0.90421075 1.3536224 0.058408391 32 34755840 87 15 905 87
0.92358249 1.3465468 0.058477327 32 34950656 87 15 874 87
0.95097816 1.350643 0.058739293 367 35146496 1004 15 976 1004
0.95986521 1.3283372 0.058560055 51 35342848 139 15 942 139
0.98085952 1.3228827 0.058670357 71 35539456 195 15 915 195
0.55679172 0.73227602 0.048646722 118 35737088 100 15 935 100
0.56573594 0.72538817 0.048646722 136 35932416 115 15 905 115
0.60521436 0.75664026 0.049322318 236 36130304 222 15 897 222
0.63538969 0.774661 0.04977731 310 36327936 312 15 934 312
0.65386206 0.77751583 0.04997034 317 36523264 328 15 922 328
0.68294996 0.79214537 0.05038397 403 36718080 442 15 894 442
0.70056856 0.79269278 0.050549421 370 36912896 415 15 899 415
0.72703278 0.80255622 0.050894111 342 37108992 402 15 933 402
0.7565645 0.81481677 0.051293954 359 37302528 444 15 977 444
0.79615742 0.83660764 0.051886823 319 37497856 427 15 929 427
0.82661718 0.84752655 0.052286666 352 37705472 494 15 985 494
0.84826928 0.84863031 0.05250727 295 37884672 426 15 957 426
0.87579715 0.85491437 0.052838173 371 38095616 557 15 941 557
0.89201635 0.84961778 0.052948475 306 38290688 466 15 901 466
0.93314695 0.86718661 0.053527556 167 38484736 272 15 916 272
0.94594127 0.85768437 0.053568918 106 38680064 173 15 825 173
0.90470463 0.80031496 0.052617572 8 38873856 13 15 867 13
2.9324172 2.5294726 0.089361697 10 39068416 162 15 917 162
2.9295697 2.4649746 0.088755041 11 39262208 174 15 889 174
2.804997 2.3019891 0.085997507 292 39457024 3856 15 999 3856
2.8400612 2.2730165 0.086121596 407 39652352 5397 15 945 5397
2.8653758 2.2361481 0.086080231 426 39846912 5640 15 978 5640
2.8846426 2.1947634 0.085942358 480 40040960 6319 15 948 6319
2.9137683 2.1609859 0.085983716 490 40234496 6461 15 945 6461
2.9497929 2.1320946 0.086149171 555 40428800 7364 15 982 7364
2.9740996 2.0945842 0.086121596 646 40624640 8558 15 1003 8558
2.9896846 2.0511427 0.085956141 795 40817920 10464 15 1067 10464
3.0096414 2.0109677 0.085873418 967 41011712 12683 15 1105 12683
3.0399599 1.9776996 0.085969932 968 41207040 12743 15 1119 12743
3.0631557 1.9397109 0.085956141 869 41402112 11435 15 1131 11435
3.0867281 1.9019752 0.085956141 914 41596160 12022 15 1126 12022
3.1106937 1.864467 0.085969932 777 41790464 10231 15 1085 10231
3.1324754 1.8256502 0.085956141 734 41985792 9657 15 1084 9657
3.1450722 1.7816521 0.085804477 492 42180864 6439 15 1036 6439
3.1824677 1.7515999 0.086052656 457 42376192 6044 15 935 6044
3.2116599 1.7166555 0.086176746 631 42571520 8377 15 1109 8377
3.2182825 1.6697478 0.085956141 455 42766336 5991 15 987 5991
3.2063758 1.6139479 0.085459784 233 42961920 3015 15 920 3015
3.2304332 1.5766716 0.085528724 192 43158528 2491 15 968 2491
3.2721369 1.5475959 0.085873418 189 43353856 2489 15 899 2489
3.3136101 1.5177325 0.086218111 210 43549696 2801 15 941 2801
3.3201013 1.4716887 0.086038865 208 43745792 2755 15 945 2755
3.3213677 1.4237458 0.085790694 187 43940864 2454 15 938 2454
3.3432086 1.384793 0.085859627 191 44135680 2513 15 898 2513
3.3831618 1.352942 0.08620432 180 44331520 2400 15 967 2400
3.4079061 1.3145614 0.08632841 189 44526592 2534 15 917 2534
3.4303422 1.2750801 0.086424924 214 44721152 2879 15 902 2879
3.4636195 1.2392868 0.086686887 277 44915968 3761 15 924 3761
3.4634378 1.1914867 0.086466283 240 45111808 3232 15 921 3232
3.4815962 1.1501495 0.086521439 180 45306368 2433 15 875 2433
6.7107549 2.1255569 0.13302723 1012 45503488 50191 15 991 50191
6.7497296 2.0471077 0.13322026 985 45698560 49047 15 1029 49047
3.6493001 1.0582479 0.088355199 701 45893632 10141 15 1719 10141
3.6494832 1.0099201 0.08817596 226 46089216 3255 15 880 3255
3.4121385 0.89933747 0.08461874 83 46285056 1033 15 856 1033
3.4297075 0.85909754 0.084715255 86 46481920 1087 15 872 1087
3.460422 0.82179457 0.085004792 62 46677504 796 15 870 796
3.4936614 0.78452337 0.085335694 62 46872064 807 15 883 807
3.5245471 0.74614537 0.08563903 47 47065600 621 15 919 621
3.5412836 0.70439726 0.085749328 52 47260928 688 15 951 688
3.5467119 0.66033852 0.085707963 51 47455232 674 15 937 674
3.5545483 0.61676514 0.085707963 50 47650560 651 15 852 651
3.1797934 0.51166838 0.08037214 313 47844864 3258 15 894 3258
3.159127 0.46865046 0.079999872 253 48039936 2590 15 884 2590
3.1527505 0.42823431 0.079834417 386 48234496 3917 15 965 3917
3.169677 0.39098045 0.079999872 202 48430336 2071 15 872 2071
3.1722486 0.35183397 0.079972297 56 48625152 570 15 855 570
3.1693616 0.31219384 0.079875782 44 48819968 455 15 887 455
3.1500406 0.27130672 0.079558663 215 49013760 2158 15 928 2158
3.1601133 0.2331446 0.079655178 85 49208832 863 15 876 863
3.1767087 0.19520447 0.079848208 111 49403648 1134 15 869 1134
3.1568935 0.15512969 0.079544879 401 49597696 4015 15 903 4015
3.147568 0.11597442 0.079393215 373 49791232 3709 15 989 3709
3.1447556 0.077242464 0.079338066 316 49985792 3135 15 959 3135
3.1404676 0.038584851 0.079269126 350 50179840 3461 15 980 3461
3.1497037 4.259562e-05 0.079393215 396 50374656 3938 15 944 3938
3.1474676 -0.038584359 0.079365641 176 50569216 1754 15 865 1754
3.1507554 -0.077304311 0.07942079 131 50764800 1310 15 907 1310
3.1405766 -0.11563089 0.079296701 126 50959104 1245 15 843 1245
3.1359251 -0.15401438 0.079255335 350 51154432 3460 15 949 3460
3.1337988 -0.19248541 0.079255335 383 51350784 3783 15 968 3783
3.1491501 -0.23225343 0.079503514 231 51546368 2312 15 962 2312
4.5098724 -0.388475 0.09837883 278 51742464 5717 15 891 5717
4.5266576 -0.44594738 0.098682158 313 51938304 6490 15 1030 6490
4.5645714 -0.5063169 0.099288814 360 52135168 7615 15 900 7615
4.5867929 -0.56584585 0.099688657 441 52331520 9439 15 929 9439
4.6349883 -0.62963206 0.10046077 506 52527104 11093 15 919 11093
4.6793332 -0.6942448 0.10119151 385 52723456 8634 15 1004 8634
7.6191988 -1.226401 0.14237526 204 52918016 12208 15 882 12208
5.2184901 -0.90568835 0.10899533 177 53112832 4987 15 989 4987
5.2610474 -0.9797312 0.10975365 223 53308672 6409 15 973 6409
7.835638 -1.5591002 0.14612551 153 53504512 9807 15 1025 9807
7.9127574 -1.6756507 0.14749049 145 53700096 9529 15 1018 9529
5.3989778 -1.2126038 0.11226301 167 53896192 5123 15 1154 5123
5.4654078 -1.2981822 0.11342117 353 54091520 11165 15 960 11165
5.1842794 -1.2987974 0.10965714 1429 54285568 40836 15 1137 40836
5.1650505 -1.3615538 0.10961577 1151 54481664 32862 15 1058 32862
4.7326174 -1.3098468 0.10367329 189 54677504 4579 15 932 4579
4.7939725 -1.3903911 0.10479009 34 54871808 867 15 940 867
5.2348647 -1.5881989 0.11139438 69 55066624 2086 15 984 2086
4.305645 -1.3641337 0.098240949 163 55260416 3339 15 1007 3339
4.1727533 -1.3785897 0.096558854 403 55454976 7805 15 872 7805
4.1214848 -1.4179783 0.096062504 379 55649280 7215 15 1001 7215
4.0698824 -1.4563179 0.095566146 421 55844096 7883 15 968 7883
4.0741978 -1.5145156 0.095897049 441 56039424 8350 15 946 8350
4.0515742 -1.5629584 0.0958419 424 56233984 8016 15 917 8016
4.0552983 -1.6218443 0.096186593 348 56430080 6658 15 904 6658
5.1232681 -2.1223638 0.11242846 1724 56624128 53046 15 1465 53046
5.3394494 -2.2891049 0.1160684 834 56819712 28154 15 1270 28154
4.2908444 -1.9021382 0.10068136 688 57015552 15184 15 892 15184
4.3126311 -1.9754747 0.10137075 154 57221376 3482 15 970 3482
4.8746672 -2.3057694 0.11031894 150 57403904 4389 15 893 4389
4.7983823 -2.3421659 0.1095882 155 57613824 4448 15 875 4448
4.7442727 -2.3882823 0.10920215 121 57809920 3443 15 857 3443
4.6737823 -2.4251349 0.10856791 113 58004992 3159 15 884 3159
4.5616641 -2.438462 0.10728566 111 58200832 2992 15 936 2992
4.1170797 -2.2661607 0.1007641 14 58397952 331 15 858 331
4.1072297 -2.3268647 0.10105363 11 58593536 264 15 904 264
0 -0 0 8 58788096 0 15 855 0
0 -0 0 6 58983936 0 15 906 0
0 -0 0 8 59177728 0 15 856 0
4.466217 -2.8284261 0.10885745 89 59372032 2513 15 889 2513
4.416924 -2.8737495 0.10862307 1204 59566080 33452 15 1230 33452
4.3414226 -2.9010663 0.10796125 989 59761152 26986 15 1158 26986
3.9600508 -2.717067 0.10218422 556 59955456 12842 15 1037 12842
3.9255924 -2.7648826 0.10217044 538 60150016 12426 15 977 12426
3.8921778 -2.8134332 0.10218422 519 60343040 11991 15 992 11991
1.4080077 -1.0440069 0.060131848 248 60539392 765 15 866 765
3.079577 -2.3431356 0.089320332 84 60734720 1271 15 897 1271
3.0434973 -2.3752129 0.089196242 101 60928256 1519 15 909 1519
1.3319386 -1.0657548 0.059483826 600 61122816 1748 15 1042 1748
1.3094856 -1.0744064 0.059318375 902 61316608 2590 15 1043 2590
1.2954372 -1.0897511 0.059304588 1269 61511680 3639 15 1215 3639
1.2918086 -1.1140575 0.059483826 1644 61704960 4785 15 1258 4785
1.2780402 -1.1298262 0.059483826 2505 61899776 7299 15 1485 7299
1.2640792 -1.1454246 0.059483826 5791 62094336 16856 15 2912 16856
1.2411379 -1.1526831 0.059318375 8079 62289920 23188 15 4424 23188
1.2268991 -1.167827 0.059318375 9150 62484736 26260 15 5926 26260
1.1953017 -1.1660337 0.058987472 1659 62681088 4629 15 1409 4629
0.89670372 -0.89635319 0.053444829 74 62876160 120 15 938 120
0.86818081 -0.88939619 0.053100139 305 63073024 472 15 960 472
0.85789055 -0.90070736 0.053113926 287 63269376 445 15 908 445
0.84677291 -0.9111672 0.053113926 147 63464704 228 15 935 228
0.8335135 -0.91926694 0.053072564 243 63661056 375 15 938 375
1.1268146 -1.2740294 0.05941489 919 63858688 2662 15 1105 2662
1.1124015 -1.2892756 0.059442464 916 64056576 2658 15 1074 2658
1.0984274 -1.3051249 0.059483826 719 64253952 2094 15 1006 2094
1.0569589 -1.2875859 0.058932319 38 64450048 107 15 911 107
0 -0 0 5 64647168 0 15 872 0
1.0594865 -1.3572841 0.05970443 291 64844032 865 15 951 865
1.0433561 -1.3709792 0.059718218 308 65040640 917 15 937 917
1.0282402 -1.3860891 0.05975958 263 65236480 786 15 943 786
1.0146673 -1.4034655 0.059842307 232 65432576 699 15 887 699
0.99794382 -1.416629 0.059856094 237 65627904 715 15 869 715
0.98896825 -1.4411372 0.060062908 179 65823744 549 15 950 549
0.97454137 -1.4581535 0.060145635 139 66019328 430 15 889 430
0.9565742 -1.4700029 0.060145635 142 66215680 439 15 892 439
0.93739331 -1.4799411 0.060118061 137 66412032 423 15 912 423
0.92493045 -1.5006976 0.060269725 71 66607104 223 15 892 223
0.90027744 -1.5016425 0.060104273 120 66802176 371 15 875 371
0.88077539 -1.5108494 0.060076699 233 66997760 716 15 878 716
0.85674828 -1.5119734 0.059925031 320 67194112 969 15 911 969
0.83668339 -1.519745 0.059883669 368 67388416 1110 15 935 1110
0.81702828 -1.5281342 0.059856094 393 67580672 1182 15 937 1182
0.79775381 -1.5371578 0.059842307 449 67775232 1349 15 966 1349
0.36172122 -0.71795279 0.047047354 35 67970048 23 15 891 23
0.35244513 -0.72143894 0.047033567 40 68165120 25 15 830 25
0.34271058 -0.72390181 0.047005992 30 68360960 19 15 837 19
0.3342177 -0.728962 0.04701978 52 68554752 33 15 853 33
0.32484192 -0.73209429 0.047005992 33 68749824 21 15 874 21
0.31780282 -0.74062085 0.047074929 77 68944896 50 15 832 50
0.30639505 -0.738922 0.046992205 502 69140224 322 15 955 322
0.29544836 -0.737984 0.046923265 783 69336832 495 15 1049 495
0.28672969 -0.74248695 0.046937052 769 69532416 487 15 1179 487
0.59244478 -1.5932579 0.059401102 794 69727232 2299 15 1757 2299
0.57688946 -1.6117061 0.059566554 1675 69922560 4915 15 1923 4915
0.55739313 -1.6196096 0.059580341 1555 70117120 4566 15 2056 4566
0.53339988 -1.6139846 0.059401102 916 70312960 2648 15 1941 2648
0.23945275 -0.75485921 0.046881903 860 70507264 540 15 1465 540
0.22959113 -0.75582701 0.046854328 807 70702848 504 15 1174 504
0.22002029 -0.75762719 0.046840541 753 70898176 469 15 1099 469
0.21070647 -0.76027012 0.046840541 848 71093504 528 15 1097 528
0.20136093 -0.76279855 0.046840541 911 71288320 568 15 1013 568
0.19101365 -0.76133227 0.046785388 833 71483904 513 15 1118 513
0.18165654 -0.76361901 0.046785388 732 71677184 451 15 1141 451
0.17205311 -0.76481503 0.046771601 759 71873536 467 15 1053 467
0.16244772 -0.7658906 0.046757814 848 72069376 521 15 1026 521
0.15303683 -0.76782638 0.046757814 923 72262912 567 15 1048 567
0.14396873 -0.77161264 0.046785388 895 72457728 552 15 982 552
0.13465984 -0.77430648 0.046799175 862 72652544 533 15 1000 533
0.12546524 -0.77787507 0.04682675 775 72847872 482 15 969 482
0.11605669 -0.78034526 0.046840541 751 73042176 468 15 1049 468
0.10633745 -0.78071988 0.04682675 804 73238272 499 15 1039 499
0.096748807 -0.78196603 0.04682675 866 73433344 538 15 1077 538
0.087365806 -0.78508204 0.046854328 813 73629184 508 15 1035 508
0.078116655 -0.79007542 0.046909478 821 73825024 518 15 1052 518
0.068672374 -0.79396325 0.046950839 835 74021120 530 15 987 530
0.059217852 -0.79873496 0.047005992 839 74217216 539 15 1001 539
0.049534097 -0.80139762 0.047033567 709 74414848 457 15 1008 457
0.039500169 -0.79795027 0.046978414 604 74610432 386 15 1031 386
0.029668424 -0.79737568 0.046964627 653 74808320 416 15 1026 416
0.019856734 -0.79668015 0.046950839 634 75004672 403 15 1019 403
0.010115231 -0.79986328 0.046992205 683 75200000 437 15 949 437
0.00029957094 -0.79392779 0.046909478 200 75396608 126 15 864 126
-0.0094184075 -0.79187202 0.046881903 68 75591936 42 15 811 42
-0.019110538 -0.79069722 0.046868116 48 75784192 30 15 885 30
-0.028922908 -0.79340082 0.046909478 39 75979776 25 15 925 25
-0.038607806 -0.79198748 0.04689569 44 76175104 27 15 850 27
-0.048200957 -0.78945804 0.046868116 40 76371200 25 15 855 25
-0.057737861 -0.78681272 0.046840541 42 76567040 26 15 846 26
-0 -0 0 6 76767488 0 15 889 0
-1.6717151 -16.958185 0.27093145 23 76955648 6960 15 871 6960
-1.8869735 -17.001984 0.27184144 43 77157376 12860 15 884 12860
-2.1156855 -17.141289 0.2741164 39 77352704 11639 15 851 11639
-2.3486364 -17.281481 0.27644652 55 77549568 16985 15 930 16985
-2.5866647 -17.427412 0.27890071 51 77743360 16125 15 883 16125
-2.8316443 -17.588833 0.2816169 45 77939200 14601 15 859 14601
-3.075839 -17.717283 0.28391942 47 78135296 15217 15 836 15217
-0.26589155 -1.4293443 0.056009337 245 78330880 519 15 992 519
-0.28380215 -1.4279351 0.056036912 292 78526720 621 15 943 621
-0.30171815 -1.4263014 0.056064487 296 78722304 631 15 928 631
-0.3248972 -1.4478567 0.056422967 269 78918912 594 15 976 594
-0.34818757 -1.4671084 0.05675387 196 79115776 448 15 924 448
-0.34744918 -1.3880419 0.055692218 71 79312128 147 15 877 147
-0.36955535 -1.4030107 0.055967972 66 79508480 140 15 958 140
-0.49319485 -1.7828685 0.061469249 20 79704064 71 15 883 71
-0.53119493 -1.8323799 0.062268935 39 79899392 145 15 936 145
-0.54754347 -1.8056302 0.061979394 33 80096000 120 15 891 120
-0.57479548 -1.8149792 0.062213786 39 80292096 144 15 931 144
-0.37394464 -1.1327628 0.052410755 480 80487424 684 15 999 684
-0.38521415 -1.1205248 0.052300453 536 80681728 754 15 1087 754
-0.396577 -1.1091233 0.052203942 545 80877312 757 15 1007 757
-0.40527895 -1.0910523 0.052010912 580 81073152 787 15 1014 787
-0.41431779 -1.0748023 0.051845461 632 81266432 840 15 1032 840
-0.42264807 -1.0575682 0.051666223 686 81460224 891 15 988 891
-0.42985302 -1.0384457 0.051459406 728 81654784 922 15 968 922
-0.43901747 -1.0248218 0.051335316 728 81849344 906 15 963 906
-0.44831815 -1.0120445 0.051225018 702 82042880 862 15 962 862
-0.45862129 -1.0019217 0.051156078 671 82235392 816 15 999 816
-0.46617812 -0.98627573 0.051004414 782 82428928 933 15 941 933
-0.47649145 -0.97688657 0.050949264 813 82625536 962 15 982 962
-0.48754415 -0.96917957 0.050921686 685 82820608 807 15 931 807
-0.51736385 -0.99773639 0.051459406 508 83014144 643 15 934 643
-0.54371208 -1.017766 0.051873036 373 83209728 497 15 931 497
-0.56387645 -1.025032 0.05209364 359 83404032 492 15 1014 492
-0.58084923 -1.0258648 0.052217729 402 83597824 560 15 952 560
-0.61001271 -1.0471662 0.052672721 305 83791616 448 15 1165 448
-0 -0 0 274 83987200 0 15 3787 0
-0 -0 0 5 84182016 0 15 7003 0
-0 -0 0 0 84377600 0 15 8652 0
-0 -0 0 0 84573696 0 15 10585 0
-0 -0 0 0 84769792 0 15 9764 0
-0 -0 0 0 84965888 0 15 7513 0
-0 -0 0 0 85160960 0 15 4573 0
-0 -0 0 85 85358080 0 15 4657 0
-0 -0 0 23 85554944 0 15 5738 0
-0 -0 0 0 85753088 0 15 5134 0
-0 -0 0 0 85948416 0 15 5389 0
-0 -0 0 0 86146048 0 15 5445 0
-0 -0 0 0 86342656 0 15 5091 0
-0 -0 0 0 86540800 0 15 5494 0
-0 -0 0 0 86736384 0 15 5731 0
-0 -0 0 0 86933248 0 15 6075 0
-0 -0 0 0 87128832 0 15 6817 0
-0 -0 0 0 87324160 0 15 8008 0
-0 -0 0 0 87518976 0 15 8046 0
-0 -0 0 0 87714816 0 15 7396 0
-0 -0 0 0 87909376 0 15 7443 0
-0 -0 0 0 88104448 0 15 7169 0
-0 -0 0 0 88298496 0 15 7463 0
-0 -0 0 0 88492288 0 15 6931 0
-0 -0 0 0 88687616 0 15 6728 0
-0 -0 0 0 88882176 0 15 5474 0
-0 -0 0 0 89076224 0 15 6411 0
-0 -0 0 0 89270016 0 15 5869 0
-0 -0 0 0 89467392 0 15 5936 0
-0 -0 0 0 89661952 0 15 5182 0
-0 -0 0 0 89856256 0 15 7966 0
-0 -0 0 0 90049792 0 15 6170 0
-0 -0 0 0 90244096 0 15 5372 0
-0 -0 0 0 90441216 0 15 4680 0
-0 -0 0 0 90636288 0 15 4753 0
-0 -0 0 0 90832384 0 15 4466 0
-0 -0 0 1 91027456 0 15 4533 0
-0 -0 0 0 91221248 0 15 3732 0
-0 -0 0 1 91414528 0 15 2940 0
-0 -0 0 5 91609856 0 15 3159 0
-0 -0 0 2 91803904 0 15 2717 0
-0 -0 0 14 91996672 0 15 2460 0
-0 -0 0 0 92190464 0 15 3468 0
-0 -0 0 3 92386048 0 15 2308 0
-0 -0 0 6 92581120 0 15 1681 0
-0 -0 0 5 92776192 0 15 1618 0
-0 -0 0 3 92971520 0 15 2122 0
-0 -0 0 7 93167616 0 15 1238 0
-0 -0 0 6 93362944 0 15 2044 0
-0 -0 0 0 93558784 0 15 3086 0
-0 -0 0 3 93754112 0 15 2333 0
-0 -0 0 7 93950720 0 15 1643 0
-0 -0 0 5 94145792 0 15 1151 0
-0 -0 0 5 94342144 0 15 954 0
-0 -0 0 12 94538752 0 15 898 0
-0 -0 0 7 94735104 0 15 908 0
-0.64573598 -0.23137872 0.045420408 19 94931712 9 15 952 9
-0.90949935 -0.31318575 0.049225803 14 95127808 13 15 837 13
-0.88004261 -0.29102704 0.048743237 135 95324416 116 15 962 116
-0.88450098 -0.2805075 0.048757024 289 95521024 249 15 928 249
-0.89074725 -0.27050266 0.048798386 338 95717376 293 15 971 293
-0.8959204 -0.26010823 0.048825964 327 95913728 285 15 996 285
-0.90193599 -0.24989407 0.048867326 372 96110080 326 15 971 326
-0.90880233 -0.23982605 0.048922475 361 96303360 319 15 1013 319
-0.91458684 -0.22938415 0.048963841 368 96498432 328 15 1025 328
-0.91830575 -0.21837442 0.048977628 359 96695808 320 15 1059 320
-0.92286766 -0.20752689 0.049005203 356 96890624 319 15 1048 319
-0.92730135 -0.19660024 0.049032778 316 97085696 284 15 1020 284
-0.93454766 -0.18618084 0.049101718 319 97280768 290 15 993 290
-0.94069415 -0.17543015 0.049156867 292 97475328 268 15 992 268
-0.95164293 -0.16541071 0.049280956 254 97670400 237 15 995 237
-0.96149892 -0.15499002 0.049391259 229 97865728 218 15 994 218
-0.96926308 -0.14405893 0.049473982 212 98060800 204 15 984 204
-0.97888452 -0.13322942 0.049584284 156 98253824 153 15 986 153
-0 -0 0 69 98448384 0 15 1659 0
-0 -0 0 10 98644736 0 15 1296 0
-0 -0 0 5 98840320 0 15 1536 0
-0 -0 0 3 99036160 0 15 1863 0
-0 -0 0 4 99231744 0 15 2324 0
-0 -0 0 0 99427328 0 15 3138 0
-0 -0 0 0 99622912 0 15 3636 0
-0 -0 0 1 99820032 0 15 2588 0
-0 -0 -0 2 0 0 16 2311 0
-0 -0 -0 1 196864 0 16 2556 0
-0 -0 -0 2 393728 0 16 2315 0
-0 0 -0 3 587520 0 16 3053 0
-0 0 -0 14 782080 0 16 3765 0
-0 0 -0 47 977920 0 16 1787 0
-0 0 -0 43 1173248 0 16 1123 0
-0 0 -0 18 1366784 0 16 977 0
-0 0 -0 13 1562368 0 16 957 0
-0 0 -0 23 1757696 0 16 896 0
-1.1245377 0.11029217 0.023734592 55 1951232 70 16 820 70
-1.0922902 0.12066901 0.024080858 295 2146048 356 16 760 356
-1.0549998 0.12965983 0.024482975 528 2342400 597 16 844 597
-1.0394573 0.14071344 0.024639353 608 2537216 670 16 780 670
-1.0257828 0.15169871 0.024773391 637 2732288 685 16 751 685
-1.011997 0.16236982 0.024907429 620 2928128 651 16 797 651
-0.99514985 0.17221305 0.025074977 649 3122176 662 16 822 662
-0.97821575 0.18166764 0.025242526 688 3317760 681 16 816 681
-0.9631632 0.19112299 0.025387734 662 3513600 639 16 881 639
-0.94998431 0.20065071 0.025510602 646 3709440 610 16 843 610
-0.93866956 0.21032216 0.025611131 645 3904000 598 16 855 598
-0.92726189 0.21974643 0.025711659 619 4099584 563 16 888 563
-0.91479558 0.22867979 0.025823358 614 4296192 547 16 872 547
-0.9051519 0.23810501 0.025901549 624 4490240 548 16 874 548
-0.89252448 0.24652836 0.026013248 498 4686336 427 16 809 427
-0.88174891 0.25523493 0.026102606 410 4881664 346 16 765 346
-0.88429177 0.26777735 0.026035586 222 5077248 189 16 771 189
-0.8771261 0.27740112 0.026080266 131 5272576 111 16 756 111
-0.81098962 0.26744631 0.026817478 78 5469184 57 16 675 57
-0.83695918 0.28746033 0.026471213 29 5664768 22 16 732 22
-0.84184217 0.30074072 0.026370684 22 5860608 17 16 744 17
-0.82402867 0.30582374 0.02653823 23 6056448 18 16 674 18
-0.82021374 0.31591281 0.02653823 27 6251264 21 16 645 21
-0.80049115 0.31964335 0.02672812 71 6446848 53 16 712 53
-0.77341223 0.31987756 0.027007366 187 6641152 131 16 704 131
-0.75839961 0.32461753 0.027141403 357 6835968 243 16 736 243
-0.74521714 0.32984826 0.027253103 440 7031040 292 16 819 292
-0.73293102 0.33522129 0.027353631 566 7224320 368 16 760 368
-0.71520275 0.33777821 0.02752118 738 7419904 462 16 795 462
-0.70740926 0.34477529 0.027565859 745 7612672 462 16 773 462
-0.70044547 0.35208175 0.027599368 762 7805440 468 16 801 468
-0.69163406 0.35834852 0.027655218 821 7999232 498 16 801 498
-0.68189311 0.3639811 0.027722238 923 8191232 552 16 794 552
-0.67474705 0.37087527 0.027755747 927 8385024 551 16 833 551
-0.66492462 0.37617067 0.027822766 941 8577792 550 16 857 550
-0.65853047 0.38329509 0.027845107 853 8770560 496 16 881 496
-0.65120411 0.38980538 0.027878616 919 8966144 530 16 845 530
-0.64211488 0.39514479 0.027934466 788 9160960 449 16 884 449
-0.63468301 0.40139005 0.027967975 872 9356544 492 16 855 492
-0.62719494 0.40751266 0.028001485 863 9551872 483 16 901 483
-0 0 -0 873 9748992 0 16 949 0
-0 0 -0 875 9944576 0 16 921 0
-0 0 -0 1091 10140672 0 16 1370 0
-0.35196403 0.25388438 0.031508826 8287 10337280 1562 16 4203 1562
-0.37211466 0.27545708 0.031184899 10316 10534144 2215 16 6237 2215
-0.36472723 0.27697566 0.031240748 10345 10730240 2179 16 6266 2179
-0.35499415 0.27650943 0.031330109 9548 10926848 1939 16 5467 1939
-0 0 -0 5723 11124224 0 16 2062 0
-0 0 -0 4494 11319296 0 16 1294 0
-0 0 -0 3567 11513856 0 16 1211 0
-0 0 -0 2632 11708928 0 16 1294 0
-0.36134258 0.31895199 0.030972671 1788 11904256 415 16 1263 415
-0.37147936 0.3361201 0.030760443 1158 12098304 291 16 1026 291
-0.44498792 0.41278756 0.029576438 646 12292096 238 16 912 238
-0.45437381 0.43200615 0.029353039 574 12486656 226 16 956 226
-0.486972 0.47455862 0.028761037 724 12681216 335 16 1015 335
-0.4846473 0.48403388 0.028705187 1199 12876032 563 16 1097 563
-0.48146451 0.49280736 0.028660508 1201 13072128 571 16 1099 571
-0.46503755 0.48781621 0.028828055 3009 13268480 1367 16 1253 1367
-0.46854478 0.5037421 0.028671676 1729 13464576 819 16 1093 819
-0.43680832 0.48130122 0.029096132 6940 13660160 2934 16 3282 2934
-0.45405394 0.51284194 0.028705187 2225 13855744 1045 16 1209 1045
-0.42878413 0.49641877 0.029029112 5246 14051328 2259 16 1434 2259
-0.43875605 0.52077019 0.028749866 1827 14247424 849 16 1224 849
-0.43931082 0.5346173 0.028626997 1509 14443264 723 16 1113 723
-0.43146741 0.53840679 0.028649338 1326 14641152 632 16 1076 632
-0.4242126 0.54287273 0.028660508 1276 14838272 606 16 1116 606
-0.41751876 0.54803759 0.028660508 1406 15034880 668 16 1061 668
-0.40957063 0.55151373 0.028682847 1428 15229952 675 16 1072 675
-0.39867118 0.55082566 0.028761037 1598 15425280 739 16 1072 739
-0.38957837 0.55240649 0.028805716 1718 15620352 786 16 1002 786
-0.38220441 0.55632114 0.028816886 1814 15815168 828 16 1056 828
-0.37423754 0.55930674 0.028839225 1715 16011008 778 16 1073 778
-0.36734581 0.56385708 0.028839225 1905 16204032 864 16 1077 864
-0.35932872 0.56663299 0.028861566 1930 16397056 871 16 1091 871
-0.3518236 0.57014859 0.028872734 1956 16590336 879 16 1121 879
-0.34377223 0.57270777 0.028895075 2038 16785664 912 16 1093 912
-0.33621478 0.57601941 0.028906245 1827 16978688 814 16 1071 814
-0.32862791 0.57923186 0.028917415 1845 17172480 820 16 1109 820
-0.32438836 0.58847696 0.028850395 1628 17366016 736 16 1032 736
-0.31667098 0.59153152 0.028861566 1685 17559808 759 16 1028 759
-0.31215155 0.60069835 0.028794546 1488 17754624 682 16 1014 682
-0.30160907 0.59823173 0.028872734 1358 17949440 610 16 991 610
-0.29512241 0.60368508 0.028850395 1255 18163200 568 16 1038 568
-0.28897482 0.60997295 0.028816886 1163 18339328 531 16 995 531
-0.28188422 0.61438227 0.028805716 1152 18553088 527 16 928 527
-0.27432358 0.61779517 0.028805716 1139 18747648 521 16 986 521
-0.26790372 0.6238721 0.028772205 1054 18943232 486 16 1008 486
-0.26137581 0.62988412 0.028738696 958 19141376 446 16 965 446
-0.25288379 0.63118732 0.028761037 993 19336192 460 16 943 460
-0.24655885 0.63797468 0.028716357 899 19530240 421 16 972 421
-0.23940827 0.64282686 0.028694017 911 19725824 429 16 957 429
-0.23251255 0.64854074 0.028660508 930 19920640 442 16 948 442
-0.22518715 0.65323621 0.028638167 924 20117248 442 16 1019 442
-0.21935005 0.66259658 0.028559979 797 20311040 388 16 998 388
-0.2115045 0.6661917 0.028548809 757 20505600 371 16 923 371
-0.20389405 0.67065072 0.028526468 812 20702720 399 16 944 399
-0.19648448 0.67598337 0.028492959 763 20897280 379 16 998 379
-0.1889746 0.68123472 0.02845945 776 21091840 389 16 914 389
-0.18136531 0.68640316 0.028425939 749 21287680 378 16 998 378
-0.17365752 0.69148695 0.02839243 773 21481984 393 16 983 393
-0.16585216 0.69648451 0.028358921 774 21675520 398 16 939 398
-0.15795019 0.7013942 0.028325411 740 21870592 384 16 907 384
-0.14995259 0.70621443 0.028291902 770 22063872 402 16 940 402
-0.1414701 0.70898211 0.028280731 774 22257664 405 16 958 405
-0.13330843 0.71361387 0.028247222 774 22451968 409 16 915 409
-0.1250543 0.71815169 0.028213711 703 22647040 374 16 923 374
-0.11686771 0.72358114 0.028169032 718 22843648 386 16 891 386
-0.1085666 0.72891718 0.028124353 713 23038976 387 16 956 387
-0.10015204 0.73415792 0.028079674 680 23235072 374 16 851 374
-0.091625124 0.73930126 0.028034994 711 23429376 395 16 964 395
-0.082986981 0.74434537 0.027990315 697 23625216 391 16 946 391
-0.074042626 0.74729794 0.027967975 762 23821312 430 16 928 430
-0.065124124 0.75113899 0.027934466 711 24016896 405 16 905 405
-0.05619609 0.75587052 0.027889786 760 24212224 438 16 930 438
-0.047284458 0.76249152 0.027822766 739 24407552 432 16 876 432
-0.038267866 0.77000546 0.027744578 736 24604416 438 16 919 438
-0.029037053 0.77641261 0.027677558 736 24798976 445 16 885 445
-0.019679325 0.78370792 0.027599368 810 24995840 499 16 873 499
-0.010109887 0.7878899 0.027554689 747 25192960 464 16 956 464
-0.00044089704 0.79395425 0.027487671 749 25388288 473 16 905 473
0.0094120242 0.80289865 0.027387142 778 25584640 503 16 875 503
0.019533334 0.81371868 0.027264273 716 25782272 474 16 856 474
0.029958317 0.82540888 0.027130235 720 25977856 492 16 910 492
0.040820088 0.83996016 0.026962686 797 26174464 564 16 887 564
0.052165892 0.856363 0.026772799 857 26369280 632 16 938 632
0.062817842 0.85765278 0.026750458 804 26563072 596 16 927 596
0.073937923 0.86379117 0.02667227 769 26758400 579 16 999 579
0.085120074 0.86878955 0.02660525 825 26953216 630 16 944 630
0.096656255 0.87563038 0.026515892 813 27147264 633 16 899 633
0.10849535 0.88331014 0.026415363 889 27341824 706 16 919 706
0.12053732 0.89082992 0.026314834 985 27534848 798 16 987 798
0.13190007 0.89225101 0.026281323 1184 27729920 964 16 959 964
0.14617388 0.91129744 0.026046757 1359 27923456 1160 16 1083 1160
0.15683325 0.90647936 0.026080266 1391 28119296 1180 16 1092 1180
0.16684754 0.89858818 0.026147285 1764 28313856 1474 16 1015 1474
0.17864209 0.90039599 0.026102606 1452 28507392 1226 16 1013 1226
0.18636534 0.88248366 0.026281323 2455 28701952 1998 16 1143 1998
0.2004661 0.89476508 0.026113776 1499 28897280 1263 16 1052 1263
0.20819741 0.87861717 0.026270155 1643 29092352 1342 16 1024 1342
0.21823502 0.87308615 0.026303664 1111 29287424 901 16 965 901
0.22562048 0.85777217 0.026448872 979 29481984 771 16 994 771
0.23426324 0.84819275 0.02652706 963 29676544 746 16 1047 746
0.24242671 0.83757102 0.026616421 976 29871872 742 16 1009 742
0.24949451 0.82400709 0.026739288 982 30067200 729 16 991 729
0.25656831 0.8113507 0.026850987 984 30262528 714 16 978 714
0.26274231 0.79674727 0.026985027 914 30456576 644 16 974 644
0.269898 0.78589845 0.027074385 975 30650880 674 16 976 674
0.27413297 0.76746309 0.027253103 940 30846976 625 16 967 625
0.27865356 0.75091904 0.027409481 905 31042560 582 16 976 582
0.2846092 0.73904634 0.02751001 947 31238144 595 16 919 595
0.28994468 0.7262134 0.027621709 923 31433728 565 16 979 565
0.29424343 0.71151447 0.027755747 866 31630336 514 16 979 514
0.29901356 0.69865924 0.027867446 899 31825920 520 16 962 520
0.30351311 0.68579549 0.027979145 908 32022016 512 16 969 512
0.30815893 0.67383701 0.028079674 822 32217344 452 16 926 452
0.31341246 0.66367698 0.028157864 887 32413696 479 16 1013 479
0.31890202 0.65438908 0.028224882 889 32608000 472 16 954 472
0.32555979 0.6477468 0.028258393 826 32802816 434 16 1023 434
0.32657734 0.63038868 0.028425939 591 32997888 298 16 852 298
0.34701395 0.65014482 0.028124353 107 33193984 58 16 706 58
0.36364383 0.66160631 0.027923295 85 33388544 48 16 665 48
0.43974322 0.77716303 0.026381852 35 33583616 28 16 684 28
0 0 -0 10 33779712 0 16 674 0
0 0 -0 8 33974528 0 16 676 0
0.80530477 1.30786 0.019199623 15 34169600 36 16 685 36
0.83680594 1.3223794 0.018875698 17 34365440 42 16 671 42
0.85242534 1.3111727 0.018886866 13 34559488 32 16 696 32
0.90233558 1.3513322 0.018205505 36 34755840 96 16 657 96
0.91149724 1.3294379 0.018350713 26 34950656 68 16 697 68
0.95077157 1.3508551 0.017903918 333 35146496 909 16 766 909
0.95849144 1.3269293 0.018071465 45 35342848 121 16 667 121
0.98244566 1.3255088 0.017926257 70 35539456 191 16 698 191
0.54638809 0.71887016 0.026270155 60 35737088 49 16 658 49
0.57116228 0.73260778 0.025979737 153 35932416 132 16 733 132
0.58260858 0.72866654 0.025935058 156 36130304 136 16 709 136
0.617513 0.75315529 0.025477093 269 36327936 255 16 741 255
0.64795232 0.77077109 0.025108486 364 36523264 370 16 712 370
0.66977066 0.77714854 0.024896258 363 36718080 382 16 722 382
0.69515282 0.78685009 0.024628183 356 36912896 393 16 680 393
0.71952868 0.79456115 0.024382446 376 37108992 432 16 708 432
0.74895978 0.80691856 0.024058519 313 37302528 380 16 706 380
0.77673119 0.81649733 0.023768103 328 37497856 417 16 679 417
0.80973583 0.83052331 0.023399496 292 37705472 393 16 796 393
0.83966315 0.84032309 0.02308674 293 37884672 414 16 779 414
0.86780298 0.84741539 0.022807492 336 38095616 494 16 795 494
0.89261985 0.85049319 0.022584096 311 38290688 473 16 721 473
0.91031516 0.84628141 0.022472396 295 38484736 456 16 730 456
0.94952536 0.86123776 0.022036772 133 38680064 219 16 663 219
0.95103401 0.84157169 0.02217081 25 38873856 41 16 652 41
2.8601439 2.4680173 -0.0058432366 8 39068416 119 16 687 119
2.8833292 2.4269385 -0.0057427078 12 39262208 174 16 728 174
2.8147335 2.3108034 -0.0043241335 264 39457024 3506 16 747 3506
2.837414 2.2717142 -0.0042459443 409 39652352 5407 16 768 5407
2.8611364 2.2336476 -0.0041900948 418 39846912 5513 16 750 5513
2.8827612 2.1941302 -0.004111906 400 40040960 5256 16 752 5256
2.9054539 2.1556106 -0.0040560565 381 40234496 4994 16 696 4994
2.9252048 2.1151073 -0.0039666975 413 40428800 5385 16 801 5385
2.95421 2.0813546 -0.0040113768 366 40624640 4783 16 761 4783
2.9844761 2.0483396 -0.0040783961 68 40817920 898 16 644 898
3.0143759 2.0148947 -0.0041454155 656 41011712 8630 16 826 8630
3.0397129 1.9782974 -0.0041565853 714 41207040 9397 16 809 9397
3.0553131 1.9354962 -0.0040448867 684 41402112 8954 16 810 8954
3.0941575 1.9073001 -0.0042459443 670 41596160 8858 16 824 8858
3.1096113 1.8645593 -0.0041454155 630 41790464 8289 16 792 8289
3.1322579 1.8262593 -0.0041454155 554 41985792 7286 16 814 7286
3.1518233 1.7862053 -0.004111906 528 42180864 6933 16 782 6933
3.1735053 1.7473931 -0.004111906 442 42376192 5807 16 763 5807
3.197355 1.7097321 -0.0041454155 452 42571520 5950 16 714 5950
3.2198706 1.6712879 -0.0041677551 402 42766336 5294 16 799 5294
3.2151294 1.6190593 -0.0038549986 249 42961920 3231 16 747 3231
3.2176826 1.5711485 -0.0036427712 176 43158528 2260 16 765 2260
3.2566066 1.5409513 -0.0038885083 165 43353856 2145 16 771 2145
3.0552728 1.4000876 -0.0011853985 206 43549696 2330 16 756 2330
3.1078749 1.3782951 -0.0016210238 215 43745792 2488 16 759 2488
3.1291499 1.342023 -0.0016768731 194 43940864 2254 16 685 2254
3.153697 1.3069669 -0.001777402 216 44135680 2520 16 769 2520
3.1880665 1.2755949 -0.0020007994 230 44331520 2716 16 695 2716
3.2202725 1.2428552 -0.0022018573 210 44526592 2507 16 694 2507
3.2559013 1.21091 -0.0024475944 217 44721152 2625 16 655 2625
3.3731353 1.2075893 -0.0036651108 165 44915968 2122 16 729 2122
3.4737434 1.1957119 -0.0046815695 237 45111808 3202 16 771 3202
3.4767616 1.1492289 -0.0045475308 180 45306368 2420 16 697 2420
6.719182 2.1295187 -0.042379897 1162 45503488 57746 16 807 57746
6.7696867 2.0544524 -0.042670313 1101 45698560 55124 16 804 55124
6.7982297 1.9723375 -0.042714994 762 45893632 38200 16 819 38200
3.6619542 1.0140607 -0.0060889735 107 46089216 1551 16 702 1551
3.4014568 0.89716113 -0.0029390689 87 46285056 1080 16 719 1080
3.4529483 0.8655597 -0.0034082036 86 46481920 1096 16 668 1096
3.4837403 0.82797474 -0.0036427712 66 46677504 851 16 688 851
3.5004678 0.7866956 -0.0037209601 58 46872064 751 16 703 751
3.5176842 0.74533755 -0.0038103191 52 47065600 677 16 698 677
3.5412765 0.70504117 -0.0039778673 49 47260928 644 16 671 644
3.5644071 0.66427755 -0.0041454155 37 47455232 492 16 652 492
3.5732758 0.6206578 -0.0041565853 49 47650560 648 16 735 648
3.5707507 0.57517236 -0.0040448867 56 47844864 738 16 674 738
3.1789308 0.47215566 0.00045657303 281 48039936 2906 16 729 2906
3.1666505 0.43068627 0.00065763079 234 48234496 2394 16 710 2394
3.1955152 0.3947334 0.00038955378 38 48430336 398 16 665 398
3.1742787 0.35262251 0.00067997054 139 48625152 1420 16 741 1420
3.1733913 0.31315228 0.00073581992 360 48819968 3666 16 694 3666
3.1700215 0.27358532 0.00081400899 387 49013760 3925 16 671 3925
3.17314 0.23466368 0.00081400899 138 49208832 1400 16 738 1400
3.1667984 0.19515426 0.00091453787 387 49403648 3901 16 739 3901
3.160965 0.15588504 0.0010038969 381 49597696 3820 16 758 3820
3.1586428 0.11693592 0.0010485764 79 49791232 794 16 674 794
3.1598399 0.078165703 0.0010485764 84 49985792 844 16 668 844
3.1595614 0.039371386 0.0010597463 173 50179840 1730 16 735 1730
3.1608067 0.00059580716 0.0010485764 372 50374656 3719 16 757 3719
3.1545768 -0.038118966 0.0011155957 366 50569216 3647 16 709 3647
3.146874 -0.076656282 0.0011937848 233 50764800 2311 16 786 2311
4.3767877 -0.1605306 -0.012567502 268 50959104 5148 16 738 5148
4.4044504 -0.21569839 -0.012902597 275 51154432 5356 16 718 5356
4.4423919 -0.27224284 -0.013360562 310 51350784 6151 16 695 6151
4.474617 -0.32938313 -0.013762678 320 51546368 6449 16 712 6449
4.5070996 -0.38744065 -0.014175964 311 51742464 6370 16 785 6370
4.5219083 -0.44467947 -0.014399361 328 51938304 6780 16 756 6780
4.5578527 -0.50476307 -0.014868495 396 52135168 8339 16 643 8339
4.5910125 -0.56555045 -0.015315291 444 52331520 9509 16 764 9509
4.639214 -0.62937903 -0.015940804 564 52527104 12373 16 690 12373
4.6885104 -0.69476801 -0.016588656 359 52723456 8089 16 875 8089
7.5959687 -1.2212977 -0.049584467 351 52918016 20795 16 739 20795
5.2395091 -0.90839314 -0.023044843 249 53112832 7042 16 852 7042
5.2751541 -0.98140383 -0.023580998 395 53308672 11381 16 747 11381
5.321558 -1.057765 -0.024251191 448 53504512 13199 16 728 13199
5.3795905 -1.1381027 -0.025066592 539 53700096 16332 16 863 16332
5.4227829 -1.2169552 -0.025725614 653 53896192 20178 16 793 20178
5.4658141 -1.2972682 -0.026395807 844 54091520 26656 16 728 26656
5.2118363 -1.3047336 -0.023659186 1162 54285568 33575 16 969 33575
5.1548219 -1.3578916 -0.023190051 1269 54481664 36100 16 888 36100
4.6963801 -1.298929 -0.01807425 190 54677504 4520 16 708 4520
4.7617197 -1.3801303 -0.019023689 45 54871808 1118 16 651 1118
4.7147608 -1.4294637 -0.018677423 40 55066624 978 16 727 978
4.3565483 -1.3794264 -0.014689777 56 55260416 1178 16 678 1178
4.1408491 -1.3672416 -0.012355274 346 55454976 6588 16 730 6588
4.1237593 -1.4179533 -0.012355274 509 55649280 9690 16 714 9690
4.0938087 -1.4640728 -0.012210065 307 55844096 5809 16 758 5809
4.0708475 -1.5124582 -0.012154216 303 56039424 5721 16 756 5721
4.0482488 -1.5608606 -0.012109537 337 56233984 6350 16 748 6350
4.0733566 -1.6282406 -0.012645691 287 56430080 5529 16 741 5529
5.0425091 -2.087868 -0.024608627 484 56624128 14449 16 868 14449
5.3400249 -2.2882454 -0.028540423 1240 56819712 41887 16 947 41887
5.2457213 -2.3244321 -0.027736191 237 57015552 7821 16 1050 7821
4.3467565 -1.990189 -0.017046621 445 57221376 10178 16 801 10178
5.1355715 -2.428103 -0.027099509 1013 57403904 32730 16 940 32730
5.059557 -2.4685764 -0.026529845 872 57613824 27650 16 731 27650
4.9752913 -2.5035076 -0.025859652 365 57809920 11332 16 757 11332
4.9228916 -2.5533226 -0.025591575 1334 58004992 41061 16 901 41061
4.8594398 -2.5965748 -0.025189459 378 58200832 11481 16 796 11481
2.5065613 -1.3789388 0.004399539 190 58397952 1559 16 703 1559
4.1216927 -2.3341067 -0.016555147 7 58593536 166 16 671 166
4.0840998 -2.3794761 -0.016443448 10 58788096 230 16 714 230
4.1017666 -2.4576859 -0.017057791 11 58983936 262 16 658 262
4.0925813 -2.5209484 -0.017337037 12 59177728 287 16 675 287
4.4727726 -2.8314815 -0.022776768 61 59372032 1718 16 730 1718
4.417572 -2.8730702 -0.02250869 893 59566080 24815 16 1092 24815
1.1858728 -0.79179484 0.020428309 349 59761152 710 16 824 710
1.1760669 -0.80628771 0.020428309 344 59955456 700 16 745 700
1.1832529 -0.83274925 0.020193743 136 60150016 285 16 720 285
1.1640298 -0.84076405 0.02031661 78 60343040 161 16 680 161
1.1560344 -0.85677201 0.020283101 89 60539392 185 16 640 185
1.1032546 -0.83880651 0.020875104 40 60734720 77 16 746 77
1.0778996 -0.84059429 0.021087332 53 60928256 99 16 677 99
1.0526692 -0.84188789 0.02129956 194 61122816 353 16 771 353
0.98351043 -0.8065353 0.022148469 61 61316608 99 16 704 99
0.96206152 -0.80888766 0.022316018 50 61511680 79 16 659 79
0.9179886 -0.79124397 0.022818662 74 61704960 109 16 730 109
0 -0 -0 59 61899776 0 16 752 0
0.86346942 -0.78197521 0.023343647 53 62094336 72 16 765 72
0.86846143 -0.80612266 0.023120249 50 62289920 70 16 648 70
0.85995215 -0.81809825 0.02309791 60 62484736 85 16 754 85
0.86917281 -0.84744328 0.022796324 60 62681088 88 16 731 88
0.82123119 -0.82057369 0.023388326 105 62876160 142 16 693 142
0.80202067 -0.82128632 0.023533534 36 63073024 47 16 694 47
0.76912689 -0.80716938 0.023902141 39 63269376 49 16 672 49
0.75371891 -0.81068641 0.023991499 42 63464704 52 16 628 52
0.74237067 -0.81839293 0.02401384 42 63661056 51 16 686 51
0.73293424 -0.82819039 0.024002669 43 63858688 53 16 658 53
0.70312041 -0.81440872 0.024337765 85 64056576 98 16 706 98
0.68019658 -0.80767423 0.024561163 96 64253952 107 16 688 107
0.6708684 -0.81673336 0.024549993 73 64450048 82 16 689 82
