# .PCD v0.7 - Point Cloud Data file format
VERSION 0.7
FIELDS x y z intensity t reflectivity ring noise range
SIZE 4 4 4 4 4 2 2 2 4
TYPE F F F F U U U U U
COUNT 1 1 1 1 1 1 1 1 1
WIDTH 583
HEIGHT 1
VIEWPOINT 0 0 0 1 0 0 0
POINTS 583
DATA ascii
2.1355765 -0.64808083 0.88582516 174 55088896 996 0 767 996
2.1319134 -0.67565024 0.88761371 165 55284736 948 0 759 948
2.1234617 -0.70176119 0.88761371 154 55479808 886 0 720 886
2.1093924 -0.72594225 0.88546741 173 55675136 990 0 748 990
2.1003251 -0.75177312 0.88546741 195 55870976 1115 0 758 1115
2.0830646 -0.77456021 0.88224798 106 56067072 603 0 661 603
2.1950929 -0.52197164 0.84038049 208 54113536 1201 1 956 1201
2.1866963 -0.54841125 0.83970535 250 54306560 1441 1 882 1441
2.1834421 -0.57616538 0.84105569 277 54501888 1601 1 897 1601
2.1753004 -0.60266471 0.84071809 125 54697472 719 1 854 719
2.1370072 -0.62038577 0.82924008 33 54892800 190 1 869 190
2.1292334 -0.64656347 0.82924008 20 55088896 112 1 786 112
2.1247275 -0.67378247 0.83059043 89 55284736 500 1 801 500
2.1171927 -0.70010108 0.83092803 175 55479808 987 1 914 987
2.1013224 -0.72357661 0.82822734 228 55675136 1273 1 830 1273
2.086082 -0.74708599 0.8258642 241 55870976 1342 1 862 1342
2.0741105 -0.77164406 0.82485145 244 56067072 1355 1 870 1355
2.0539484 -0.79296845 0.82080036 80 56262912 442 1 921 442
2.2416618 -0.41804016 0.79309595 177 53334784 1026 2 1058 1026
2.2233405 -0.44292077 0.78866065 255 53528832 1463 2 946 1463
2.2140265 -0.46938378 0.78739339 234 53723648 1339 2 906 1339
2.187742 -0.49193665 0.78042364 109 53918976 609 2 854 609
2.1990721 -0.52291858 0.786443 279 54113536 1591 2 885 1591
2.1860497 -0.54824901 0.78422534 299 54306560 1694 2 928 1694
2.1754892 -0.57406527 0.78295809 314 54501888 1774 2 888 1774
2.1618826 -0.5989449 0.78074044 182 54697472 1024 2 886 1024
2.1507263 -0.62437105 0.77947319 32 54892800 184 2 865 184
2.1356423 -0.64851081 0.77693874 26 55088896 144 2 837 144
2.1220989 -0.67294842 0.77503788 31 55284736 171 2 814 171
2.1289892 -0.70400405 0.78042364 78 55479808 441 2 887 441
2.0914934 -0.72019017 0.77028579 32 55675136 179 2 865 179
2.0744619 -0.74292225 0.76743448 39 55870976 211 2 802 211
2.0607445 -0.7666688 0.76585042 35 56067072 188 2 851 188
2.0706463 -0.79941833 0.77282023 295 56262912 1621 2 914 1621
2.2974725 -0.31313327 0.74948519 222 52555264 1310 3 1237 1310
2.2849534 -0.34003633 0.74682379 354 52751104 2074 3 1069 2074
2.27495 -0.36713651 0.74504954 320 52944640 1867 3 1071 1867
2.2646267 -0.39404252 0.74327534 305 53139712 1772 3 987 1772
2.2577426 -0.42145243 0.74268389 285 53334784 1652 3 1023 1652
2.2336648 -0.44538748 0.73676974 56 53528832 322 3 980 322
2.2186866 -0.47078004 0.73381263 34 53723648 195 3 999 195
2.21647 -0.49881089 0.73499548 40 53918976 231 3 939 231
2.1990306 -0.52331704 0.73144698 99 54113536 559 3 960 559
2.1878104 -0.54909962 0.72996843 340 54306560 1899 3 1075 1899
2.1753659 -0.57444179 0.72819418 308 54501888 1713 3 1026 1713
2.1856427 -0.60594559 0.73381263 52 54697472 297 3 960 297
2.1275902 -0.61805576 0.71754873 217 54892800 1172 3 979 1172
2.1426947 -0.65106505 0.72494143 308 55088896 1697 3 1072 1697
2.1208866 -0.67297405 0.72050577 293 55284736 1595 3 950 1595
2.1160958 -0.70015079 0.72168863 312 55479808 1703 3 1041 1703
2.0974102 -0.72264117 0.71843582 61 55675136 333 3 927 333
2.0748959 -0.74348933 0.71400023 35 55870976 189 3 1001 189
2.0656159 -0.76889551 0.71400023 39 56067072 212 3 919 212
2.0613711 -0.79625207 0.71577448 270 56262912 1449 3 999 1449
2.0408037 -0.81722504 0.71222597 365 56460032 1938 3 1050 1938
2.3250339 -0.20049942 0.69634408 162 51773696 959 4 926 959
2.3262269 -0.22939424 0.69743925 348 51968768 2057 4 777 2057
2.3146336 -0.25696683 0.69497514 359 52164864 2106 4 814 2106
2.3046243 -0.28452554 0.69305861 152 52360960 887 4 772 887
2.2961941 -0.31213686 0.69168961 33 52555264 193 4 750 193
2.2921908 -0.3402912 0.69168961 46 52751104 268 4 780 268
2.2641041 -0.36456785 0.68484485 281 52944640 1599 4 791 1599
2.2566171 -0.39183035 0.6840235 362 53139712 2054 4 848 2054
2.2469113 -0.41861144 0.6826545 335 53334784 1895 4 785 1895
2.2350023 -0.44483766 0.68073797 327 53528832 1837 4 834 1837
2.2416067 -0.4748241 0.68429726 129 53723648 733 4 766 733
2.2065217 -0.49575546 0.67580974 395 53918976 2186 4 804 2186
2.1993363 -0.52257305 0.67553592 443 54113536 2450 4 836 2450
2.1936908 -0.54975688 0.67580974 246 54306560 1362 4 793 1362
2.1774797 -0.57418156 0.6730718 45 54501888 248 4 722 248
2.1647084 -0.59931862 0.6714291 39 54697472 214 4 770 214
2.1562672 -0.6255697 0.67115527 45 54892800 246 4 734 246
2.1373847 -0.64862984 0.66786981 350 55088896 1889 4 816 1889
2.1320143 -0.67568219 0.66869116 294 55284736 1592 4 725 1592
2.0970805 -0.69303769 0.66075122 47 55479808 249 4 759 249
2.0802336 -0.71590167 0.65828711 52 55675136 273 4 752 273
2.0930231 -0.74915802 0.6648581 452 55870976 2418 4 773 2418
2.0773621 -0.7724387 0.66294152 489 56067072 2601 4 771 2601
2.0596514 -0.7947554 0.6604774 484 56262912 2554 4 807 2554
2.0470648 -0.8188985 0.65965605 472 56460032 2482 4 799 2482
2.013761 -0.83438134 0.65253747 318 56655104 1635 4 809 1635
2.3920035 -0.11780778 0.65482134 476 51188992 2923 5 937 2923
2.3768537 -0.14631775 0.65129942 455 51383552 2762 5 912 2762
2.3710184 -0.1751885 0.65029317 306 51578368 1853 5 884 1853
2.3513336 -0.20277174 0.64576507 412 51773696 2457 5 921 2457
2.3399999 -0.2307547 0.64350098 418 51968768 2474 5 1003 2474
2.3302586 -0.25870407 0.64174008 394 52164864 2319 5 911 2319
2.3163426 -0.28597423 0.63897288 275 52360960 1605 5 879 1605
2.2944379 -0.31189781 0.63419318 53 52555264 304 5 826 304
2.2808642 -0.33860779 0.63167757 53 52751104 301 5 846 301
2.2679379 -0.36518583 0.62941349 201 52944640 1133 5 839 1133
2.2566109 -0.39182928 0.62765253 62 53139712 347 5 848 347
2.2478268 -0.41878214 0.62664628 32 53334784 179 5 827 179
2.2368233 -0.44520041 0.62513691 62 53528832 344 5 828 344
2.2292979 -0.4722147 0.62463379 175 53723648 970 5 837 970
2.2091713 -0.49635121 0.62086034 449 53918976 2464 5 960 2464
2.1944396 -0.52140874 0.61859632 537 54113536 2925 5 889 2925
2.1841209 -0.5473569 0.61759007 501 54306560 2717 5 970 2717
2.1772397 -0.5741182 0.61759007 441 54501888 2392 5 981 2392
2.164434 -0.59924263 0.61608064 513 54697472 2769 5 899 2769
2.1550584 -0.62521881 0.61557752 467 54892800 2518 5 892 2518
2.1472237 -0.65161759 0.61557752 486 55088896 2618 5 916 2618
2.1021631 -0.66621608 0.60551506 69 55284736 359 5 808 359
2.0910726 -0.69105113 0.60476035 58 55479808 305 5 883 305
2.0815198 -0.71634465 0.60450882 55 55675136 289 5 868 289
2.0689278 -0.74052888 0.60350251 175 55870976 904 5 784 904
2.0868976 -0.77598619 0.61104941 469 56067072 2483 5 841 2483
2.0636744 -0.79630858 0.60727596 60 56262912 318 5 895 318
2.0600369 -0.82409048 0.60903692 77 56460032 410 5 874 410
2.0408285 -0.84560192 0.60652131 325 56655104 1698 5 894 1698
2.0196245 -0.86600345 0.60350251 232 56851712 1200 5 934 1200
2.4311857 -0.00030610606 0.60467815 311 50409216 1940 6 843 1940
2.4290524 -0.030116029 0.60422009 401 50605056 2499 6 825 2499
2.4187686 -0.05968032 0.60192978 402 50799616 2484 6 835 2484
2.4061811 -0.088924579 0.59918141 434 50993408 2662 6 887 2662
2.3903253 -0.11772484 0.59574592 295 51188992 1785 6 773 1785
2.3760703 -0.14626938 0.59276855 46 51383552 276 6 787 276
2.3692424 -0.17505698 0.59162343 49 51578368 292 6 831 292
2.3620667 -0.2036991 0.59047824 62 51773696 368 6 805 368
2.3448586 -0.23123465 0.58704281 442 51968768 2597 6 859 2597
2.3205605 -0.25762579 0.58200413 268 52164864 1548 6 865 1548
2.3181903 -0.28620267 0.58223313 47 52360960 271 6 812 271
2.2739935 -0.30911526 0.57261384 335 52555264 1864 6 797 1864
2.2873602 -0.33957323 0.57673639 465 52751104 2631 6 893 2631
2.2734106 -0.36606801 0.57444608 451 52944640 2529 6 904 2529
2.2649112 -0.39327192 0.57352996 369 53139712 2059 6 838 2059
2.2608714 -0.4212147 0.57375902 54 53334784 301 6 825 301
2.2507589 -0.44797647 0.57261384 48 53528832 267 6 781 267
2.2203333 -0.47031423 0.56665909 430 53723648 2339 6 844 2339
2.2238917 -0.49966121 0.5689494 234 53918976 1289 6 886 1289
2.2138047 -0.52601343 0.56803328 63 54113536 345 6 783 345
2.2043505 -0.55243021 0.56734616 68 54306560 371 6 798 371
2.1974053 -0.5794394 0.56734616 61 54501888 333 6 758 333
2.1544821 -0.5964855 0.55864298 505 54697472 2666 6 834 2666
2.1498046 -0.62369359 0.55933011 522 54892800 2763 6 813 2763
2.1364005 -0.64833099 0.55795592 500 55088896 2633 6 830 2633
2.1310673 -0.67538184 0.55864298 189 55284736 997 6 798 997
2.1078315 -0.69659275 0.55497849 486 55479808 2534 6 876 2534
2.1028061 -0.72367436 0.55589461 557 55675136 2912 6 908 2912
2.0946836 -0.7497527 0.55612367 494 55870976 2583 6 835 2583
2.0616047 -0.76657641 0.55016887 325 56067072 1660 6 834 1660
2.0529504 -0.79216832 0.55039793 66 56262912 338 6 751 338
2.0439785 -0.81766325 0.55062693 78 56460032 400 6 769 400
2.0364883 -0.84380275 0.55131406 83 56655104 427 6 771 427
2.0259802 -0.86873007 0.55131406 434 56851712 2228 6 819 2228
2.4854374 0.091659032 0.55666035 502 49822208 3247 7 1099 3247
2.4844186 0.061104171 0.55624825 443 50018048 2861 7 1056 2861
2.4644334 0.030362001 0.55192155 99 50213120 631 7 1062 631
2.4323285 0.00012084914 0.54512244 44 50409216 276 7 995 276
2.4350822 -0.029763917 0.54574054 62 50605056 388 7 997 388
2.4198599 -0.059282057 0.54265004 437 50799616 2676 7 1160 2676
2.4081936 -0.088575631 0.5403837 525 50993408 3189 7 1066 3189
2.3922648 -0.11739937 0.5372932 542 51188992 3252 7 1115 3252
2.3779469 -0.14596586 0.53461474 311 51383552 1847 7 1057 1847
2.3720732 -0.17484756 0.53379065 526 51578368 3111 7 1112 3111
2.3707237 -0.20402744 0.53399664 565 51773696 3343 7 1169 3343
2.337853 -0.23012787 0.52760965 361 51968768 2083 7 1160 2083
2.3251271 -0.25771996 0.52554929 61 52164864 352 7 1031 352
2.3169336 -0.28563398 0.52451915 53 52360960 305 7 1006 305
2.3113148 -0.31378123 0.52410704 62 52555264 356 7 983 356
2.2947071 -0.34025306 0.52142864 410 52751104 2307 7 1114 2307
2.2864943 -0.3677648 0.52060449 73 52944640 412 7 1066 412
2.2750604 -0.39462411 0.51916224 60 53139712 337 7 1012 337
2.2411866 -0.41713634 0.51298124 253 53334784 1377 7 1085 1377
2.2387781 -0.44518077 0.51359934 577 53528832 3144 7 1132 3144
2.2302744 -0.47201219 0.51298124 629 53723648 3419 7 1151 3419
2.2185857 -0.49805853 0.51174504 616 53918976 3328 7 1161 3328
2.218019 -0.5266037 0.51298124 139 54113536 758 7 1042 758
2.1705744 -0.54355413 0.50412184 259 54306560 1357 7 1052 1357
2.1855035 -0.57588798 0.50886059 713 54501888 3809 7 1040 3809
2.166955 -0.59953099 0.50638819 615 54697472 3252 7 1053 3252
2.153796 -0.62444186 0.50515199 95 54892800 502 7 1052 502
2.141289 -0.64940441 0.50412184 67 55088896 354 7 975 354
2.1312928 -0.6750412 0.50370973 73 55284736 385 7 954 385
2.1135573 -0.69807404 0.50164944 369 55479808 1913 7 1059 1913
2.1103835 -0.7258687 0.50288564 716 55675136 3728 7 1112 3728
2.1003957 -0.75138193 0.50267959 661 55870976 3440 7 1054 3440
2.061667 -0.76618707 0.49608651 188 56067072 953 7 1031 953
2.073107 -0.79953146 0.50082529 572 56262912 2954 7 1080 2954
2.0613222 -0.82418454 0.50041324 740 56460032 3813 7 1059 3813
2.0519571 -0.84979266 0.50061923 732 56655104 3777 7 1079 3777
2.0404749 -0.8745237 0.50041324 636 56851712 3277 7 1078 3277
2.0278003 -0.89870435 0.50000113 742 57048576 3816 7 1084 3816
2.5543551 0.22007482 0.50990433 362 49040896 2468 8 940 2468
2.5411756 0.18755688 0.5069803 414 49236992 2789 8 898 2789
2.5030518 0.15389121 0.49948755 188 49432064 1230 8 892 1230
2.5076978 0.12330773 0.50003582 231 49627136 1513 8 871 1513
2.4824946 0.091550961 0.49510154 527 49822208 3372 8 897 3372
2.4844141 0.061104063 0.49528429 438 50018048 2805 8 899 2805
2.4594166 0.03030098 0.49053279 287 50213120 1797 8 826 1797
2.434041 0.00012066231 0.48578128 47 50409216 289 8 748 289
2.4191132 -0.029566193 0.48304 164 50605056 999 8 889 999
2.4087396 -0.059007853 0.4812125 412 50799616 2482 8 905 2482
2.3930967 -0.088017933 0.47847125 72 50993408 433 8 860 433
2.3839805 -0.1169915 0.47700927 45 51188992 265 8 850 265
2.3754964 -0.14581503 0.47573 51 51383552 299 8 832 299
2.3617623 -0.17408586 0.473537 463 51578368 2693 8 954 2693
2.3565094 -0.20280182 0.47298875 485 51773696 2812 8 977 2812
2.3489513 -0.23122218 0.47207499 331 51968768 1914 8 869 1914
2.3478913 -0.26024696 0.47244048 331 52164864 1917 8 967 1917
2.3152483 -0.28542593 0.46695799 498 52360960 2810 8 1017 2810
2.3008552 -0.31235948 0.46494773 518 52555264 2896 8 946 2896
2.2871237 -0.33912733 0.46312022 486 52751104 2692 8 991 2692
2.2915258 -0.36857492 0.46476498 45 52944640 251 8 829 251
2.2703629 -0.39380851 0.46165824 57 53139712 314 8 793 314
2.2498949 -0.41875869 0.45873421 81 53334784 439 8 852 439
2.2349441 -0.44441774 0.45690671 178 53528832 961 8 875 961
2.2235513 -0.47058809 0.45581022 79 53723648 427 8 860 427
2.2195275 -0.49827009 0.45617571 81 53918976 439 8 869 439
2.2151589 -0.52592415 0.45654121 68 54113536 365 8 836 365
2.1932795 -0.54924405 0.45361722 598 54306560 3168 8 947 3168
2.187325 -0.57636827 0.45379996 644 54501888 3416 8 929 3416
2.1800873 -0.60316676 0.45379996 662 54697472 3510 8 893 3510
2.1328638 -0.61836922 0.44612443 433 54892800 2215 8 927 2215
2.1288781 -0.64563817 0.44685546 330 55088896 1691 8 847 1691
2.1264181 -0.67349625 0.44795194 621 55284736 3203 8 948 3203
2.1179931 -0.69953996 0.44795194 660 55479808 3404 8 908 3404
2.1176162 -0.72835773 0.4495967 269 55675136 1401 8 883 1401
2.099262 -0.75097615 0.44776919 91 55870976 473 8 873 473
2.0880454 -0.77599543 0.4474037 94 56067072 483 8 842 483
2.0737793 -0.79979086 0.44648996 78 56262912 403 8 885 403
2.0720239 -0.82846558 0.44813469 716 56460032 3695 8 887 3695
2.0598848 -0.85307747 0.44776919 682 56655104 3513 8 924 3513
2.0393217 -0.87402916 0.44575894 327 56851712 1671 8 902 1671
2.022151 -0.89619935 0.4444797 112 57048576 567 8 838 567
2.0136824 -0.92217535 0.44502795 609 57243648 3097 8 959 3097
2.5425298 0.21860796 0.44473243 200 49040896 1338 9 1180 1338
2.5410826 0.18710136 0.44409636 132 49236992 886 9 883 886
2.5136242 0.15409645 0.43932575 40 49432064 266 9 896 266
2.5094092 0.12294983 0.43837163 65 49627136 427 9 889 427
2.4890234 0.091352962 0.43487319 368 49822208 2348 9 957 2348
2.4820614 0.060610343 0.43360105 63 50018048 404 9 901 404
2.4766951 0.030076057 0.43264693 57 50213120 363 9 944 363
2.4413357 -0.00030898469 0.42692223 368 50409216 2254 9 1006 2254
2.4362121 -0.030205928 0.42612714 560 50605056 3416 9 1006 3416
2.4297361 -0.059952669 0.42517301 499 50799616 3030 9 993 3030
2.4051392 -0.088885903 0.42135653 342 50993408 2038 9 945 2038
2.4009089 -0.1182478 0.42087948 258 51188992 1535 9 919 1535
2.3785837 -0.14642453 0.41754007 542 51383552 3163 9 1016 3163
2.3736541 -0.17538366 0.417063 443 51578368 2580 9 975 2580
2.3546016 -0.2030541 0.41435966 74 51773696 429 9 893 429
2.3430903 -0.23105995 0.41292849 68 51968768 391 9 957 391
2.330266 -0.2587049 0.4113383 60 52164864 343 9 920 343
2.3249562 -0.2870391 0.41102025 519 52360960 2926 9 1081 2926
2.3124545 -0.31434998 0.40958908 501 52555264 2803 9 1043 2803
2.2918215 -0.34023628 0.40688574 84 52751104 467 9 930 467
2.2826002 -0.36754927 0.40609065 258 52944640 1420 9 936 1420
2.2691636 -0.39401105 0.40465948 639 53139712 3483 9 968 3483
2.2622166 -0.42146555 0.40434143 592 53334784 3221 9 966 3221
2.252033 -0.44823027 0.40354633 650 53528832 3519 9 1064 3519
2.2260809 -0.47153267 0.40020692 125 53723648 667 9 986 667
2.1960461 -0.49339995 0.39623141 76 53918976 400 9 882 400
2.1907866 -0.52054006 0.39639044 102 54113536 535 9 910 535
2.1928523 -0.5495466 0.39782164 617 54306560 3240 9 934 3240
2.1830797 -0.57565922 0.39734456 84 54501888 439 9 847 439
2.1768024 -0.60266924 0.39750358 94 54697472 496 9 911 496
2.1673467 -0.62878609 0.39718553 87 54892800 458 9 971 458
2.1452971 -0.65103251 0.39480025 433 55088896 2238 9 896 2238
2.1267943 -0.67402685 0.39305103 694 55284736 3551 9 971 3551
2.116488 -0.6994552 0.39273298 708 55479808 3615 9 996 3615
2.1040113 -0.72408938 0.39209691 743 55675136 3781 9 1011 3781
2.0875316 -0.74719137 0.39082476 399 55870976 2017 9 955 2017
2.0828316 -0.77447361 0.39161986 719 56067072 3649 9 995 3649
2.0704079 -0.79890811 0.39114279 746 56262912 3774 9 941 3774
2.0558653 -0.82242078 0.39034769 758 56460032 3818 9 1063 3818
2.0456181 -0.84758747 0.39034769 138 56655104 698 9 981 698
2.0350628 -0.87262654 0.39034769 165 56851712 834 9 915 834
2.0251036 -0.8979345 0.39050671 142 57048576 719 9 912 719
2.0013673 -0.91695863 0.38828045 392 57243648 1954 9 1013 1954
2.5303745 0.18631455 0.38116235 426 49236992 2798 10 1077 2798
2.512692 0.15403944 0.3784515 546 49432064 3530 10 1108 3530
2.5104346 0.12299991 0.37790933 551 49627136 3550 10 1073 3550
2.5008638 0.091785707 0.37641835 578 49822208 3694 10 1031 3694
2.473078 0.060392365 0.3724876 69 50018048 435 10 933 435
2.4627352 0.029908696 0.37099665 56 50213120 350 10 955 350
2.4500368 -0.00031145249 0.36923459 290 50409216 1778 10 1014 1778
2.4339974 -0.03017812 0.36706591 75 50605056 457 10 932 457
2.427501 -0.059897166 0.36625266 52 50799616 317 10 921 317
2.4147019 -0.089240849 0.36462614 75 50993408 450 10 1011 450
2.3886859 -0.11764385 0.36123759 447 51188992 2609 10 1041 2609
2.3890402 -0.14706992 0.36150867 612 51383552 3576 10 1095 3576
2.3801391 -0.17586388 0.36055985 553 51578368 3213 10 1143 3213
2.3629954 -0.20377932 0.35852674 531 51773696 3047 10 1112 3047
2.348485 -0.23159285 0.35690022 627 51968768 3560 10 1126 3560
2.3375885 -0.25951907 0.35581586 598 52164864 3375 10 1055 3375
2.3322613 -0.2879422 0.35554478 657 52360960 3700 10 1078 3700
2.2902651 -0.3113299 0.35025862 94 52555264 514 10 1041 514
2.2833321 -0.33897457 0.349852 69 52751104 378 10 990 378
2.2780223 -0.36681136 0.34971645 88 52944640 481 10 951 481
2.2733495 -0.39473858 0.34971645 432 53139712 2347 10 1071 2347
2.2439847 -0.4180657 0.34632787 299 53334784 1592 10 981 1592
2.2532606 -0.44847482 0.34836102 88 53528832 477 10 950 477
2.2446797 -0.47547561 0.34795439 88 53723648 476 10 947 476
2.2174098 -0.49820372 0.34497246 707 53918976 3724 10 1077 3724
2.2053459 -0.52400202 0.34415922 783 54113536 4103 10 1009 4103
2.1920223 -0.54933846 0.3432104 786 54306560 4093 10 1110 4093
2.1697884 -0.57215202 0.34104171 495 54501888 2542 10 1025 2542
2.1673779 -0.6000582 0.34171942 92 54697472 477 10 1027 477
2.1465302 -0.62274301 0.33982185 236 54892800 1205 10 980 1205
2.1529469 -0.65335548 0.34185499 819 55088896 4229 10 1137 4229
2.1239898 -0.67313755 0.33887303 220 55284736 1116 10 982 1116
2.0995779 -0.69386357 0.3365688 135 55479808 676 10 973 676
2.0909052 -0.71957636 0.3365688 138 55675136 690 10 1047 690
2.0893795 -0.74785316 0.33765316 153 55870976 771 10 998 771
2.0809734 -0.77378225 0.3377887 823 56067072 4138 10 1114 4138
2.0694728 -0.79854703 0.33751762 821 56262912 4119 10 1139 4119
2.0585976 -0.8235144 0.33738208 899 56460032 4508 10 1109 4508
2.0510826 -0.84985274 0.3377887 700 56655104 3518 10 1050 3518
2.0414097 -0.87534934 0.33792424 794 56851712 3995 10 1076 3995
2.0259857 -0.89832586 0.33724654 844 57048576 4226 10 1146 4226
2.0148094 -0.9231202 0.33724654 827 57243648 4142 10 1078 4142
2.0015385 -0.94692773 0.33697546 880 57440000 4401 10 1060 4401
2.5283241 0.15499537 0.31811306 508 49432064 3301 11 793 3301
2.4972796 0.12235739 0.31444031 324 49627136 2052 11 795 2052
2.5045519 0.091920495 0.31510809 58 49822208 370 11 738 370
2.478667 0.06052798 0.31210309 192 50018048 1196 11 789 1196
2.4613364 0.029891925 0.31009978 591 50213120 3629 11 800 3629
2.4495924 -0.00031132641 0.30876425 547 50409216 3324 11 808 3324
2.4325111 -0.030159457 0.30687222 471 50605056 2824 11 811 2824
2.3971858 -0.05914437 0.30297688 79 50799616 461 11 788 461
2.4091899 -0.089036256 0.30442372 333 50993408 1962 11 797 1962
2.3930273 -0.11785836 0.30275428 535 51188992 3112 11 854 3112
2.3884251 -0.14703195 0.30242038 80 51383552 465 11 756 465
2.386441 -0.17633052 0.30242038 70 51578368 407 11 707 407
2.3811271 -0.20534591 0.3020865 73 51773696 423 11 747 423
2.3457918 -0.23132682 0.29841375 411 51968768 2317 11 931 2317
2.3467271 -0.26053515 0.29885894 573 52164864 3241 11 909 3241
2.3394082 -0.28882575 0.29841375 588 52360960 3316 11 879 3316
2.3268254 -0.31630594 0.2974121 229 52555264 1279 11 822 1279
2.3001597 -0.34147558 0.29485229 611 52751104 3352 11 863 3352
2.2889283 -0.36856931 0.29407322 709 52944640 3866 11 893 3866
2.2793374 -0.39577937 0.29351676 679 53139712 3682 11 808 3682
2.2616088 -0.42135221 0.29206991 149 53334784 799 11 755 799
2.2455468 -0.44693819 0.29084566 88 53528832 468 11 754 468
2.2321157 -0.47281203 0.28995529 87 53723648 459 11 784 459
2.2106321 -0.49667969 0.28817457 245 53918976 1275 11 730 1275
2.1889014 -0.52009177 0.28639385 162 54113536 831 11 747 831
2.1794624 -0.54618859 0.28605995 101 54306560 517 11 743 517
2.169713 -0.57213217 0.28572607 104 54501888 531 11 785 531
2.1500785 -0.59526557 0.28427923 593 54697472 2990 11 826 2990
2.1540644 -0.6249302 0.28561479 783 54892800 3994 11 865 3994
2.1414788 -0.64987308 0.28505829 778 55088896 3953 11 893 3953
2.1305008 -0.67520219 0.28472441 747 55284736 3783 11 863 3783
2.1173368 -0.69973588 0.28416795 161 55479808 812 11 741 812
2.1057715 -0.7246955 0.28383404 197 55675136 990 11 762 990
2.09672 -0.75048196 0.28383404 784 55870976 3944 11 871 3944
2.086421 -0.77580893 0.28372276 697 56067072 3498 11 811 3498
2.060056 -0.7949115 0.28171945 205 56262912 1013 11 818 1013
2.0501459 -0.82013172 0.28171945 219 56460032 1082 11 795 1082
2.0454354 -0.84751177 0.2823872 290 56655104 1440 11 766 1440
2.0485806 -0.87842566 0.28405663 598 56851712 3009 11 796 3009
2.0240204 -0.89745402 0.2823872 798 57048576 3968 11 894 3968
2.0110481 -0.92139614 0.2821646 833 57243648 4134 11 881 4134
2.0013862 -0.94685566 0.2823872 822 57440000 4088 11 873 4088
2.499685 0.15324405 0.25391194 173 49432064 1094 12 1239 1094
2.4964023 0.12231454 0.25347617 249 49627136 1574 12 1300 1574
2.5026929 0.091852553 0.25391194 57 49822208 360 12 1256 360
2.4896891 0.06079543 0.25269178 58 50018048 363 12 1213 363
2.4603641 0.029880268 0.2500771 196 50213120 1196 12 1279 1196
2.4665227 -0.00031612813 0.25060004 52 50409216 319 12 1204 319
2.449399 -0.030371506 0.24911839 77 50605056 467 12 1184 467
2.4169734 -0.059635743 0.2463294 267 50799616 1578 12 1330 1578
2.4170551 -0.089328185 0.24641655 572 50993408 3378 12 1417 3378
2.4078171 -0.11858914 0.24571931 562 51188992 3298 12 1331 3298
2.388283 -0.14702319 0.2441505 474 51383552 2741 12 1349 2741
2.3793447 -0.17580505 0.24354042 275 51578368 1578 12 1283 1578
2.3650982 -0.203961 0.24249455 552 51773696 3142 12 1303 3142
2.3564689 -0.23238149 0.24197161 612 51968768 3465 12 1373 3465
2.3415587 -0.25996047 0.24092574 86 52164864 481 12 1254 481
2.3332491 -0.2880643 0.24048997 76 52360960 423 12 1255 423
2.3246028 -0.31600344 0.24005419 83 52555264 460 12 1254 460
2.2949302 -0.34069836 0.23778814 445 52751104 2415 12 1275 2415
2.2905767 -0.36883503 0.23778814 677 52944640 3679 12 1376 3679
2.2662485 -0.39350435 0.23604503 442 53139712 2363 12 1289 2363
2.2348073 -0.4163543 0.23369183 109 53334784 568 12 1220 568
2.2373457 -0.44530448 0.23438907 677 53528832 3557 12 1370 3557
2.2278147 -0.47190022 0.23404044 764 53723648 3994 12 1257 3994
2.2179682 -0.49832922 0.23369183 720 53918976 3752 12 1259 3752
2.1961792 -0.52182233 0.23229733 423 54113536 2177 12 1297 2177
2.1896102 -0.54873353 0.23229733 102 54306560 528 12 1294 528
2.1807852 -0.57505375 0.23212302 114 54501888 585 12 1223 585
2.1706839 -0.60097414 0.23186155 119 54697472 608 12 1261 608
2.1478386 -0.62312281 0.23046707 206 54892800 1038 12 1270 1038
2.1333575 -0.64740705 0.22985697 135 55088896 676 12 1245 676
2.1176555 -0.67112887 0.22915973 158 55284736 786 12 1256 786
2.0979104 -0.69331211 0.22811386 243 55479808 1200 12 1335 1200
2.1033731 -0.72386962 0.22942118 849 55675136 4238 12 1317 4238
2.0924561 -0.74895495 0.22924688 810 55870976 4038 12 1349 4038
2.0821741 -0.77422887 0.22915973 845 56067072 4210 12 1332 4210
2.0669401 -0.79756933 0.22863679 632 56262912 3133 12 1293 3133
2.0560722 -0.82250363 0.22854963 361 56460032 1785 12 1237 1785
2.0504253 -0.84958029 0.22898541 775 56655104 3853 12 1390 3853
2.0389297 -0.87428546 0.22889826 870 56851712 4319 12 1413 4319
2.0189412 -0.89520085 0.2280267 546 57048576 2689 12 1324 2689
2.0059927 -0.91907877 0.22785239 523 57243648 2572 12 1341 2572
2.4990287 0.12244282 0.19260336 399 49627136 2509 13 774 2509
2.4903696 0.091402151 0.19197546 635 49822208 3962 13 792 3962
2.4883103 0.060761977 0.19178709 623 50018048 3878 13 803 3878
2.480885 0.03012629 0.19128476 587 50213120 3629 13 819 3629
2.4571152 -0.00031346007 0.18977779 118 50409216 717 13 746 717
2.4459491 -0.030328186 0.18908709 64 50605056 386 13 685 386
2.4254382 -0.059845943 0.18783128 502 50799616 2969 13 791 2969
2.4105585 -0.089087054 0.18695222 159 50993408 930 13 740 930
2.3883507 -0.11762728 0.18563361 59 51188992 340 13 705 340
2.3757699 -0.14625086 0.18494292 73 51383552 416 13 761 416
2.3777776 -0.175689 0.18519409 306 51578368 1746 13 826 1746
2.3625164 -0.20373793 0.1843778 596 51773696 3370 13 881 3370
2.3548722 -0.23222376 0.18406385 651 51968768 3667 13 880 3667
2.3429179 -0.26011163 0.18349874 607 52164864 3386 13 820 3386
2.3246922 -0.2870065 0.18255688 647 52360960 3566 13 827 3566
2.3071506 -0.31362808 0.18167782 727 52555264 3958 13 841 3958
2.2962179 -0.34088972 0.18123828 704 52751104 3811 13 850 3811
2.2948177 -0.36951864 0.18142666 189 52944640 1026 13 764 1026
2.2645447 -0.39320827 0.1797941 88 53139712 468 13 765 468
2.2546434 -0.42005333 0.17948015 102 53334784 540 13 705 540
2.2287643 -0.44359499 0.17816155 290 53528832 1505 13 742 1505
2.2436559 -0.47525853 0.17948015 764 53723648 4035 13 810 4035
2.1996799 -0.49421701 0.17703132 282 53918976 1441 13 720 1441
2.181798 -0.5184027 0.17627783 110 54113536 557 13 728 557
2.195601 -0.55023599 0.17759643 720 54306560 3705 13 777 3705
2.1838586 -0.57586479 0.17728248 874 54501888 4476 13 841 4476
2.1708565 -0.60102195 0.17690574 835 54697472 4257 13 786 4257
2.1594839 -0.62650347 0.17665458 846 54892800 4295 13 833 4295
2.1306236 -0.64657688 0.17527318 157 55088896 782 13 760 782
2.1253829 -0.67357928 0.17546156 184 55284736 919 13 754 919
2.1226423 -0.70149022 0.17583829 219 55479808 1100 13 779 1100
2.0742409 -0.71383822 0.1732011 431 55675136 2083 13 794 2083
2.0869353 -0.74697787 0.17464527 253 55870976 1249 13 800 1249
2.0794823 -0.77322751 0.17477086 334 56067072 1652 13 757 1652
2.067975 -0.79796886 0.17464527 357 56262912 1763 13 776 1763
2.0663662 -0.82662362 0.17521039 840 56460032 4180 13 839 4180
2.050535 -0.84962577 0.17483366 900 56655104 4458 13 916 4458
2.0362856 -0.87315106 0.17458248 893 56851712 4405 13 849 4405
2.0235927 -0.8972643 0.17445691 858 57048576 4228 13 884 4228
2.0115223 -0.92161345 0.17439412 894 57243648 4395 13 823 4395
2.4894967 0.091808103 0.13040997 546 49822208 3397 14 1121 3397
2.4754512 0.060885016 0.12983939 67 50018048 415 14 1005 415
2.4730144 0.030466376 0.12972528 65 50213120 401 14 1071 401
2.4522173 0.00011867961 0.12892646 120 50409216 726 14 1068 726
2.4410429 -0.029837718 0.12850803 592 50605056 3536 14 1174 3536
2.4335001 -0.059618395 0.12824176 577 50799616 3425 14 1168 3425
2.4206021 -0.089034021 0.12778528 565 50993408 3321 14 1158 3321
2.3903832 -0.11730674 0.12668216 91 51188992 524 14 1110 524
2.3937507 -0.14693852 0.12687235 384 51383552 2214 14 1177 2214
2.3837948 -0.17571349 0.12656803 575 51578368 3292 14 1173 3292
2.3535829 -0.20254946 0.12550294 167 51773696 936 14 1116 936
2.3449533 -0.23082796 0.12527472 72 51968768 403 14 1068 403
2.3369782 -0.2590355 0.12508452 66 52164864 368 14 1052 368
2.3207307 -0.28610274 0.12459001 360 52360960 1974 14 1149 1974
2.3130844 -0.31402177 0.12443785 702 52555264 3833 14 1158 3833
2.3041143 -0.34164956 0.12424766 718 52751104 3905 14 1191 3905
2.2967887 -0.36942232 0.12413354 446 52944640 2420 14 1186 2420
2.273376 -0.39433166 0.12341081 681 53139712 3633 14 1160 3633
2.2605066 -0.42073566 0.12310649 708 53334784 3752 14 1153 3752
2.2502732 -0.44746861 0.1229163 735 53528832 3878 14 1149 3878
2.2309263 -0.47215027 0.12238375 380 53723648 1981 14 1094 1981
2.2113147 -0.49642491 0.12185121 117 53918976 604 14 1026 604
2.2070007 -0.52398574 0.12192728 127 54113536 655 14 1179 655
2.1984658 -0.55054379 0.12185121 112 54306560 578 14 1094 578
2.1847806 -0.57569736 0.12158493 909 54501888 4650 14 1085 4650
2.17081 -0.60059828 0.12131866 423 54697472 2151 14 1141 2151
2.1536794 -0.62440801 0.12093826 166 54892800 838 14 1097 838
2.1391611 -0.64875871 0.12067199 363 55088896 1818 14 1132 1818
2.1300862 -0.67465878 0.12063395 806 55284736 4033 14 1152 4033
2.1178515 -0.69949317 0.1204818 900 55479808 4488 14 1171 4488
2.1072185 -0.72477943 0.12040572 913 55675136 4543 14 1186 4543
2.0802898 -0.74418545 0.11968298 446 55870976 2183 14 1138 2183
2.0775573 -0.77209562 0.11994925 318 56067072 1566 14 1157 1566
2.0660615 -0.79681283 0.11987317 417 56262912 2050 14 1111 2050
2.059839 -0.82359123 0.12002533 726 56460032 3581 14 1167 3581
2.0449612 -0.84689403 0.11983514 981 56655104 4820 14 1292 4820
2.0380883 -0.87350035 0.11998729 925 56851712 4557 14 1188 4557
2.0281291 -0.89885008 0.12002533 917 57048576 4523 14 1193 4523
2.0187631 -0.92450315 0.12010141 660 57243648 3260 14 1203 3260
2.4720876 0.091168784 0.070072755 117 49822208 721 15 903 721
2.4600253 0.060508013 0.069893517 317 50018048 1925 15 962 1925
2.4445853 0.030120581 0.069672912 68 50213120 407 15 830 407
2.4347718 0.0001205826 0.069535032 120 50409216 716 15 895 716
2.4495873 -0.029943513 0.069741853 328 50605056 1975 15 936 1975
2.4270442 -0.059459209 0.069438525 57 50799616 341 15 909 341
2.4231341 -0.089127563 0.069397159 75 50993408 446 15 892 446
2.4058788 -0.11806968 0.069176555 142 51188992 829 15 879 829
2.3902767 -0.14672469 0.068983525 545 51383552 3130 15 1004 3130
2.3853045 -0.17582501 0.068942167 575 51578368 3294 15 1002 3294
2.3779862 -0.20465364 0.068873227 564 51773696 3219 15 1028 3219
2.3374827 -0.23009136 0.068349294 111 51968768 613 15 833 613
2.3434274 -0.25975141 0.068473384 649 52164864 3613 15 1016 3613
2.3360939 -0.2879993 0.068418235 628 52360960 3486 15 986 3486
2.3095953 -0.31354752 0.068101116 221 52555264 1205 15 953 1205
2.2838144 -0.33863607 0.067797787 82 52751104 437 15 829 437
2.2794869 -0.36663648 0.067797787 79 52944640 426 15 892 426
2.2797418 -0.39543694 0.067866728 234 53139712 1257 15 920 1257
2.2619386 -0.42100242 0.067687489 733 53334784 3887 15 954 3887
2.2556212 -0.44853303 0.067673698 758 53528832 4016 15 987 4016
2.2206013 -0.46996322 0.067260072 499 53723648 2576 15 887 2576
2.2263739 -0.49980828 0.067425519 675 53918976 3522 15 930 3522
2.2142358 -0.5257048 0.067342795 837 54113536 4340 15 941 4340
2.2017984 -0.55137897 0.067260072 845 54306560 4361 15 927 4361
2.1890652 -0.57682717 0.06717734 763 54501888 3917 15 979 3917
2.1770036 -0.60231298 0.067108408 168 54697472 857 15 851 857
2.1627262 -0.62703264 0.067011893 158 54892800 806 15 859 806
2.1491277 -0.65178323 0.066929169 181 55088896 918 15 867 918
2.1409676 -0.67810726 0.066929169 573 55284736 2894 15 963 2894
2.1229908 -0.7011916 0.066791289 888 55479808 4444 15 1007 4444
2.1123354 -0.72654039 0.066763714 842 55675136 4209 15 944 4209
2.1023192 -0.75207037 0.066749923 836 55870976 4173 15 999 4173
2.0929317 -0.77781242 0.066749923 861 56067072 4298 15 970 4298
2.0505791 -0.79083866 0.066267356 502 56262912 2429 15 900 2429
2.4490995 0.06067146 0.0089903576 306 50018048 1838 16 751 1838
2.4646575 0.030797716 0.008822809 556 50213120 3383 16 683 3383
2.4558506 0.00054966786 0.0089233378 561 50409216 3386 16 734 3386
2.4436741 -0.029440973 0.0090573765 558 50605056 3334 16 794 3334
2.4491265 -0.059573241 0.0089903576 180 50799616 1083 16 652 1083
2.4002464 -0.087859809 0.0095265117 70 50993408 405 16 723 405
2.4089749 -0.1177979 0.0094148125 489 51188992 2847 16 800 2847
2.3863888 -0.14606458 0.0096493801 273 51383552 1563 16 717 1563
2.3714526 -0.17438281 0.0097945882 74 51578368 420 16 702 420
2.3661454 -0.20321387 0.0098280981 76 51773696 431 16 678 431
2.3545172 -0.2313533 0.0099286269 229 51968768 1285 16 683 1285
2.3375869 -0.25868732 0.010085005 611 52164864 3382 16 819 3382
2.3302667 -0.28686428 0.010129685 669 52360960 3692 16 777 3692
2.3226075 -0.31490061 0.010174364 680 52555264 3738 16 777 3738
2.2968078 -0.34015241 0.010420102 304 52751104 1641 16 747 1641
2.2885115 -0.36767703 0.010464781 667 52944640 3585 16 749 3585
2.2828419 -0.39556202 0.010475951 760 53139712 4083 16 719 4083
2.2493074 -0.41824025 0.010799877 407 53334784 2133 16 758 2133
2.2351789 -0.44405609 0.010900406 89 53528832 464 16 658 464
2.2266266 -0.47083065 0.010933916 113 53723648 588 16 649 588
2.2138515 -0.49658614 0.011012105 99 53918976 511 16 684 511
2.2105095 -0.52440906 0.010978595 797 54113536 4116 16 773 4116
2.2019677 -0.55101013 0.011000935 848 54306560 4374 16 760 4374
2.1911726 -0.57697105 0.011045614 864 54501888 4438 16 791 4438
2.1762173 -0.60168356 0.011134974 856 54697472 4368 16 781 4368
2.163868 -0.62695163 0.011190823 852 54892800 4328 16 788 4328
2.151227 -0.65200734 0.011246672 864 55088896 4369 16 756 4369
2.1297181 -0.6741302 0.01140305 485 55284736 2424 16 685 2424
2.4542365 0.030237973 -0.051109683 456 50213120 2753 17 787 2753
2.4234426 0.00012181843 -0.050000764 65 50409216 385 17 653 385
2.4182651 -0.029555695 -0.049821906 50 50605056 295 17 683 295
2.4177203 -0.059229303 -0.049821906 58 50799616 342 17 668 342
2.4048274 -0.088451281 -0.049392644 543 50993408 3148 17 845 3148
2.3985701 -0.11770983 -0.049213789 542 51188992 3131 17 822 3131
2.3929551 -0.14688955 -0.049070701 536 51383552 3086 17 846 3086
2.4029322 -0.17712724 -0.049499962 116 51578368 676 17 741 676
2.372699 -0.20419775 -0.048498355 165 51773696 939 17 738 939
2.3580799 -0.23212229 -0.048069097 639 51968768 3593 17 789 3593
2.3034046 -0.25530857 -0.04620897 334 52164864 1799 17 692 1799
2.3219182 -0.28624934 -0.046995949 89 52360960 489 17 714 489
2.3112991 -0.31377909 -0.046745546 86 52555264 470 17 685 470
2.2706988 -0.33668911 -0.045421995 178 52751104 941 17 724 941
2.2772493 -0.36627623 -0.045815483 700 52944640 3730 17 798 3730
2.2735677 -0.39436495 -0.045851257 648 53139712 3456 17 738 3456
2.2606974 -0.42077118 -0.045565084 706 53334784 3740 17 789 3740
2.2279198 -0.44301972 -0.044563476 396 53528832 2047 17 716 2047
2.2340477 -0.4728114 -0.044992737 771 53723648 4029 17 718 4029
2.225152 -0.4995338 -0.044885423 814 53918976 4240 17 764 4240
2.2188544 -0.52680224 -0.044885423 769 54113536 4006 17 693 4006
2.1792638 -0.54573166 -0.043669187 368 54306560 1861 17 765 1861
2.4415691 0.00011984115 -0.10963957 303 50409216 1819 18 864 1819
2.4024599 -0.029360002 -0.10729944 72 50605056 417 18 843 417
2.3949335 -0.058667429 -0.10687942 125 50799616 725 18 858 725
2.4060035 -0.088494726 -0.10759946 372 50993408 2169 18 938 2169
2.3907783 -0.11732619 -0.10675941 58 51188992 333 18 853 333
2.3861697 -0.14647193 -0.1065794 59 51383552 338 18 842 338
2.3841925 -0.17574286 -0.1065794 80 51578368 459 18 856 459
2.3540101 -0.20258631 -0.10489931 463 51773696 2599 18 946 2599
2.3473732 -0.23106658 -0.1046593 570 51968768 3187 18 1001 3187
2.343369 -0.25974494 -0.10459929 620 52164864 3463 18 947 3463
2.3300982 -0.28725913 -0.10399926 99 52360960 547 18 856 547
2.3066156 -0.31314248 -0.10279919 293 52555264 1598 18 874 1598
2.3006244 -0.34113148 -0.10267919 629 52751104 3420 18 946 3420
2.2923229 -0.36870328 -0.10243917 611 52944640 3311 18 869 3311
2.2817249 -0.39578128 -0.10207915 631 53139712 3403 18 917 3403
2.2649205 -0.42155793 -0.10135911 275 53334784 1470 18 893 1470
2.3006947 -0.45750377 -0.10387925 51 53528832 281 18 844 281
2.2596419 -0.90351927 -0.10915954 11 56460032 70 18 900 70
2.2239439 -0.9531942 -0.1083195 11 56851712 70 18 857 70
2.192004 -0.9715122 -0.10699943 17 57048576 98 18 834 98
2.1672122 -0.99251741 -0.10615938 7 57243648 44 18 934 44
2.0989258 -0.99257094 -0.10243917 35 57440000 189 18 833 189
2.0865874 -1.0182532 -0.10243917 64 57635840 346 18 802 346
2.0703685 -1.0419866 -0.10219916 15 57831936 81 18 843 81
2.0423639 -1.0594981 -0.10117911 14 58027264 79 18 858 79
