# .PCD v0.7 - Point Cloud Data file format
VERSION 0.7
FIELDS x y z intensity t reflectivity ring noise range
SIZE 4 4 4 4 4 2 2 2 4
TYPE F F F F U U U U U
COUNT 1 1 1 1 1 1 1 1 1
WIDTH 838
HEIGHT 1
VIEWPOINT 0 0 0 1 0 0 0
POINTS 838
DATA ascii
2.3795602 -1.2717973 -0.12506041 48 58170112 351 18 836 351
2.3830118 -1.3114935 -0.12638047 59 58367488 438 18 831 438
2.2729442 -1.2874906 -0.11990012 33 58562816 226 18 856 226
2.3164763 -1.3499743 -0.12404035 67 58757120 483 18 853 483
2.0702937 -1.240743 -0.10795948 6 58953216 35 18 841 35
0 -0 -0 14 59147776 0 18 834 0
2.0198255 -1.2788919 -0.1065794 64 59342848 367 18 837 367
0 -0 -0 6 59536896 0 18 821 0
2.0650132 -1.3796592 -0.11215971 11 59731712 68 18 830 68
0 -0 -0 10 59926272 0 18 864 0
0 -0 -0 7 60120576 0 18 790 0
0 -0 -0 6 60313600 0 18 785 0
0 -0 -0 8 60509952 0 18 848 0
0 -0 -0 10 60704768 0 18 864 0
0 -0 -0 197 60897280 0 18 920 0
1.1013206 -0.8811394 -0.047656197 48 61091840 95 18 847 95
0 -0 -0 17 61286400 0 18 850 0
0 -0 -0 6 61481984 0 18 867 0
2.9711795 -2.5630121 -0.19874442 25 61675264 386 18 854 386
3.7440443 -3.310843 -0.26330793 987 61869824 24761 18 1034 24761
0.94611716 -0.85717738 -0.039615761 27 62064640 45 18 879 45
0.88068253 -0.8177641 -0.035115514 25 62260224 36 18 856 36
0.87058103 -0.82850981 -0.035115514 14 62455040 20 18 852 20
0.83748871 -0.81682056 -0.03319541 21 62651392 30 18 886 30
0.81046385 -0.81009448 -0.031755332 26 62844672 35 18 871 35
0.78861201 -0.80783236 -0.030735279 41 63040768 52 18 827 52
0.78001577 -0.81889504 -0.030855285 43 63237632 55 18 841 55
0.76651144 -0.82474834 -0.030555269 34 63433472 43 18 790 43
0.75097066 -0.82817495 -0.030075241 33 63630080 42 18 870 42
0.73942882 -0.83583248 -0.029955234 41 63827456 51 18 850 51
0.73824298 -0.85542625 -0.030795282 32 64025344 41 18 818 41
0.85106695 -1.0110821 -0.042315908 97 64222720 171 18 865 171
0.6948666 -0.846277 -0.028695166 74 64418560 90 18 875 90
0.68318188 -0.85318154 -0.02857516 88 64615936 105 18 837 105
0.67081851 -0.85914004 -0.02839515 97 64812288 115 18 855 115
0.65901631 -0.86571836 -0.028275143 86 65008128 103 18 868 103
0.65012664 -0.87614578 -0.028455153 68 65203712 81 18 815 81
0.63757205 -0.88163072 -0.028275143 85 65400576 101 18 816 101
0.66923153 -0.94978523 -0.032715384 31 65596160 42 18 838 42
0.67841685 -0.98838329 -0.034935504 28 65792000 40 18 833 40
0.89080065 -1.3327971 -0.059236828 44 65987584 113 18 818 113
0.8945154 -1.3745888 -0.061456949 345 66183936 934 18 942 934
0.8989374 -1.4191979 -0.063857079 160 66380288 453 18 826 453
1.2275217 -1.991892 -0.10351923 26 66575104 148 18 863 148
1.2168388 -2.0299242 -0.10513932 34 66770176 196 18 869 196
1.218974 -2.0912771 -0.1083795 49 66965248 293 18 863 293
1.3132464 -2.3180101 -0.12302029 82 67161344 590 18 886 590
1.3198309 -2.3977928 -0.12740053 54 67356160 413 18 871 413
0 -0 -0 11 67549952 0 18 868 0
1.0905321 -2.1016076 -0.10519932 36 67744512 202 18 855 202
0.3763482 -0.74701947 -0.013154322 44 67939328 31 18 869 31
0.36233777 -0.74171346 -0.012494287 50 68134144 34 18 858 34
0.35278183 -0.74520165 -0.012434282 51 68329984 34 18 776 34
0.35358441 -0.77125651 -0.013874361 20 68523520 14 18 810 14
0.33560064 -0.75637275 -0.012614293 35 68718592 24 18 854 24
0.32118216 -0.74850661 -0.01183425 68 68913152 45 18 880 45
0.31159076 -0.75146937 -0.011774247 228 69107456 152 18 910 152
0.29975176 -0.74874836 -0.011354224 568 69304064 371 18 918 371
0.2905409 -0.75237042 -0.011354224 603 69500416 395 18 921 395
0.2812863 -0.75587916 -0.011354224 549 69695488 359 18 958 359
0.27198932 -0.75927407 -0.011354224 610 69890816 399 18 902 399
0.26232675 -0.76161069 -0.011294221 772 70085376 503 18 921 503
0.25264785 -0.76382464 -0.011234217 774 70280960 503 18 1005 503
0.24385823 -0.76877069 -0.011354224 718 70475520 469 18 882 469
0.23382656 -0.76979482 -0.011234217 703 70671104 457 18 985 457
0.22380656 -0.77068883 -0.011114211 711 70866176 460 18 1012 460
0.21326765 -0.76952899 -0.010874198 715 71060480 458 18 906 458
0.2030454 -0.7691924 -0.010694188 766 71254784 487 18 938 487
0.1933485 -0.77065784 -0.010634185 775 71450624 491 18 957 491
0.18410732 -0.77394366 -0.010694188 743 71643904 473 18 1015 473
0.17437737 -0.77517074 -0.010634185 826 71840512 524 18 941 524
0.16567823 -0.78115857 -0.010874198 793 72036096 508 18 960 508
0.1558851 -0.78215379 -0.010814195 776 72229632 495 18 941 495
0.14627513 -0.78400785 -0.010814195 799 72424448 510 18 899 510
0.1364726 -0.78476036 -0.010754191 784 72619264 500 18 966 500
0.1268321 -0.786376 -0.010754191 794 72814336 506 18 959 506
0.11731887 -0.78886062 -0.010814195 744 73008128 475 18 968 475
0.10776373 -0.79123002 -0.010874198 745 73203712 478 18 918 478
0.097923927 -0.79150218 -0.010814195 822 73398784 526 18 972 526
0.08831352 -0.79363638 -0.010874198 894 73595136 573 18 1004 573
0.078763194 -0.79664713 -0.010994204 793 73790976 510 18 940 510
0.068981178 -0.79755372 -0.010994204 648 73987072 417 18 949 417
0.059408739 -0.80132669 -0.011174214 629 74183168 408 18 984 408
0.049876265 -0.80697697 -0.01147423 729 74380800 479 18 964 479
0.040165141 -0.81151628 -0.011714243 730 74576128 484 18 961 484
0.03031346 -0.81494063 -0.011894253 662 74774016 442 18 881 442
0.020359378 -0.81724709 -0.01201426 584 74970624 392 18 976 392
0.01018328 -0.80545789 -0.011294221 487 75164928 317 18 981 317
0.00029787063 -0.809515 -0.011534234 101 75361280 67 18 881 67
-0.0098956702 -0.83041823 -0.012794303 60 75556864 42 18 952 42
-0.020159252 -0.83322799 -0.012974313 48 75750400 33 18 777 33
-0.030382723 -0.83291787 -0.012974313 39 75945984 27 18 824 27
-0.040601619 -0.83248228 -0.012974313 41 76141056 29 18 915 29
-0.05087572 -0.83291769 -0.013034316 48 76337152 34 18 867 34
-0.080801949 -1.0990207 -0.029115189 8 76532992 9 18 790 9
-0.15207885 -1.7682449 -0.069557391 13 76727808 44 18 859 44
-0.1720034 -1.7483647 -0.068477333 18 76921344 56 18 814 56
-0.19333544 -1.7451302 -0.068417326 35 77115136 108 18 856 108
-0.21070048 -1.7099339 -0.066437222 79 77308416 238 18 896 238
-0.23610486 -1.7398598 -0.068417326 27 77504512 83 18 836 83
-0.25479952 -1.7190586 -0.067337267 21 77697536 63 18 827 63
-0.23874484 -1.4851942 -0.053296503 182 77892864 415 18 874 415
-0.25609866 -1.4772352 -0.052996486 290 78087936 656 18 880 656
-0.27402452 -1.4729999 -0.052936483 305 78282752 689 18 865 689
-0.29305407 -1.4744213 -0.053236499 279 78477056 635 18 890 635
-0.31733078 -1.50001 -0.055036597 113 78671616 266 18 821 266
-0.32543012 -1.4502287 -0.052216444 28 78867712 62 18 819 62
-0.34181768 -1.440299 -0.051856425 17 79063808 37 18 840 37
-0.35461366 -1.4166307 -0.05065636 22 79258368 47 18 851 47
-0.3915686 -1.4864933 -0.055276614 62 79453184 147 18 843 147
-0.38421232 -1.3892232 -0.049516298 6 79648256 12 18 822 12
-0.40095314 -1.3834451 -0.049456295 12 79844096 25 18 844 25
-0.41210264 -1.3593169 -0.04825623 11 80041216 22 18 811 22
-0.42724469 -1.3493997 -0.047956213 18 80238080 36 18 819 36
-0.37173116 -1.126065 -0.034155462 423 80434176 598 18 976 598
-0.38357276 -1.1157553 -0.033795442 470 80629504 658 18 956 658
-0.3952176 -1.1053253 -0.033435423 495 80825856 685 18 1003 685
-0.4021419 -1.0826156 -0.032295361 613 81022464 822 18 981 822
-0.41288155 -1.0710802 -0.031875338 604 81216512 800 18 945 800
-0.42376977 -1.0603721 -0.031515319 551 81410560 723 18 925 723
-0.43216512 -1.0440259 -0.030795282 629 81606144 808 18 925 808
-0.44061717 -1.0285524 -0.030135246 657 81802240 827 18 928 827
-0.45037365 -1.0166802 -0.029715221 634 81997312 787 18 954 787
-0.45824242 -1.0010946 -0.029055186 662 82191104 807 18 903 807
-0.46707779 -0.98817742 -0.02857516 679 82385664 815 18 947 815
-0.47741741 -0.97878319 -0.028335147 708 82582784 844 18 911 844
-0.48804593 -0.97017616 -0.028155137 559 82778624 663 18 898 663
-0.52152562 -1.0057555 -0.030975292 435 82973184 562 18 944 562
-0.54324138 -1.0168855 -0.032175355 360 83169536 481 18 969 481
-0.56482601 -1.0267569 -0.033315416 358 83364096 495 18 902 495
-0.58574915 -1.0345122 -0.034335472 407 83558656 578 18 954 578
-0.60443276 -1.0375946 -0.035055511 314 83753472 455 18 923 455
-0.62635905 -1.0455095 -0.036135573 457 83949056 682 18 931 682
-0.12692691 -0.20667507 0.022547619 795 84142592 47 18 1087 47
-0 -0 -0 34 84337152 0 18 3797 0
-0 -0 -0 26 84532224 0 18 1632 0
-0 -0 -0 23 84727296 0 18 3781 0
-0 -0 -0 0 84922624 0 18 7206 0
-0 -0 -0 0 85116672 0 18 10233 0
-0 -0 -0 0 85312512 0 18 11526 0
-0 -0 -0 0 85507840 0 18 10627 0
-0 -0 -0 0 85705472 0 18 8994 0
-0 -0 -0 0 85900800 0 18 6635 0
-0 -0 -0 0 86097920 0 18 4777 0
-0 -0 -0 0 86293760 0 18 6465 0
-0 -0 -0 0 86491392 0 18 6339 0
-0 -0 -0 0 86685952 0 18 6243 0
-0 -0 -0 0 86882048 0 18 6979 0
-0 -0 -0 0 87076352 0 18 6809 0
-0 -0 -0 1 87270400 0 18 4692 0
-0 -0 -0 0 87463168 0 18 5582 0
-0 -0 -0 0 87657472 0 18 6229 0
-0 -0 -0 0 87851264 0 18 4796 0
-0 -0 -0 0 88046080 0 18 6981 0
-0 -0 -0 0 88240640 0 18 5904 0
-0 -0 -0 0 88435712 0 18 5417 0
-0 -0 -0 0 88631552 0 18 5962 0
-0 -0 -0 0 88827136 0 18 5055 0
-0 -0 -0 0 89022208 0 18 5990 0
-0 -0 -0 0 89217280 0 18 3584 0
-0 -0 -0 0 89414656 0 18 4013 0
-0 -0 -0 1 89609472 0 18 2965 0
-0 -0 -0 1 89804800 0 18 3153 0
-0 -0 -0 2 90000128 0 18 3069 0
-0 -0 -0 2 90195712 0 18 2550 0
-0 -0 -0 2 90393344 0 18 3032 0
-0 -0 -0 0 90589184 0 18 3172 0
-0 -0 -0 0 90785792 0 18 4598 0
-0 -0 -0 0 90981632 0 18 3368 0
-0 -0 -0 3 91176448 0 18 2259 0
-0 -0 -0 3 91371008 0 18 2672 0
-0 -0 -0 2 91566336 0 18 2267 0
-0 -0 -0 4 91760640 0 18 1421 0
-0 -0 -0 6 91954944 0 18 1526 0
-0 -0 -0 2 92148992 0 18 2782 0
-0 -0 -0 0 92345856 0 18 5909 0
-0 -0 -0 0 92537344 0 18 7688 0
-0 -0 -0 0 92735744 0 18 7442 0
-0 -0 -0 0 92931072 0 18 6209 0
-0 -0 -0 4 93127168 0 18 4288 0
-0 -0 -0 4 93322496 0 18 1616 0
-0 -0 -0 52 93517824 0 18 904 0
-0 -0 -0 22 93712384 0 18 880 0
-0 -0 -0 5 93908736 0 18 949 0
-0 -0 -0 6 94104576 0 18 1001 0
-0 -0 -0 5 94301184 0 18 883 0
-0.85388768 -0.32968771 -0.017894579 32 94497536 27 18 870 27
-0.85786915 -0.31918436 -0.017894579 29 94694144 24 18 822 24
-0.8617214 -0.30863297 -0.017894579 35 94890496 30 18 875 30
-0.86544394 -0.29803509 -0.017894579 130 95086336 110 18 884 110
-0.8709318 -0.28801835 -0.018014586 148 95282944 125 18 843 125
-0.87154579 -0.27640489 -0.017834576 208 95479552 175 18 968 175
-0.88060361 -0.26742682 -0.018194595 248 95674880 211 18 879 211
-0.88765395 -0.25771198 -0.018434608 250 95870976 215 18 1004 215
-0.89459789 -0.2478642 -0.018674621 246 96066048 213 18 927 213
-0.89950275 -0.23737605 -0.018794628 254 96260096 221 18 935 221
-0.90622121 -0.22728963 -0.019034641 222 96455168 195 18 949 195
-0.91768306 -0.21822661 -0.01957467 186 96650496 166 18 950 166
-0.9212659 -0.2071674 -0.019634673 204 96844288 183 18 946 183
-0.93350458 -0.19791277 -0.020234708 157 97038080 144 18 962 144
-0.94369531 -0.18799938 -0.020714734 143 97231872 133 18 918 133
-0.95181942 -0.17750026 -0.021074753 142 97425408 134 18 888 134
-0.96179408 -0.16717097 -0.021554779 122 97618944 117 18 902 117
-0.96968639 -0.15630648 -0.021914799 106 97811968 103 18 917 103
-0.97745591 -0.14527331 -0.022274818 112 98005760 110 18 865 110
-0.98509985 -0.13407287 -0.022634838 124 98197760 123 18 893 123
-0.99063379 -0.12246241 -0.022874851 115 98391808 115 18 998 115
-0 -0 -0 45 98587136 0 18 1285 0
-0 -0 -0 2 98781440 0 18 2376 0
-0 -0 -0 0 98976512 0 18 3777 0
-0 -0 -0 0 99170560 0 18 6087 0
-0 -0 -0 0 99365376 0 18 7218 0
-0 -0 -0 0 99559680 0 18 7134 0
-0 -0 -0 0 99755520 0 18 5730 0
-0 -0 -0 0 0 0 19 5329 0
-0 -0 -0 0 197376 0 19 5040 0
-0 0 -0 0 394752 0 19 4362 0
-0 0 -0 8 589824 0 19 3278 0
-0 0 -0 60 785664 0 19 2286 0
-0 0 -0 87 982016 0 19 1404 0
-0 0 -0 67 1178112 0 19 1238 0
-0 0 -0 27 1372160 0 19 1221 0
-0 0 -0 25 1568256 0 19 1095 0
-0 0 -0 56 1764864 0 19 909 0
-1.1086237 0.10892396 -0.056815971 335 1960192 419 19 947 419
-1.0774931 0.11922216 -0.054284766 420 2156032 499 19 869 499
-1.0650707 0.13109279 -0.053356659 446 2352896 518 19 891 518
-1.0525209 0.14267668 -0.052428551 450 2547712 512 19 866 512
-1.0280212 0.15221675 -0.050487958 541 2741504 589 19 881 589
-1.0113194 0.1624447 -0.049222358 569 2936320 601 19 820 601
-1.0013958 0.17347923 -0.048547368 559 3129344 582 19 807 582
-0.98743665 0.18356492 -0.047534887 567 3323392 576 19 800 576
-0.9724052 0.19313994 -0.046438031 555 3517440 549 19 829 549
-0.95826417 0.20258056 -0.045425549 549 3712512 530 19 831 530
-0.94598407 0.21214041 -0.044581816 528 3906560 500 19 845 500
-0.92973727 0.22050837 -0.043400586 537 4101888 494 19 930 494
-0.91729581 0.22947887 -0.042556848 506 4297472 456 19 845 456
-0.90477568 0.2381776 -0.041713115 578 4490240 511 19 919 511
-0.89122134 0.24633813 -0.040785007 508 4685824 438 19 911 438
-0.87569064 0.25364703 -0.039688151 395 4880128 331 19 799 331
-0.87060505 0.26379529 -0.039519403 309 5074432 257 19 806 257
-0.85780358 0.27144876 -0.03867567 150 5268992 122 19 768 122
-0.86859953 0.28664491 -0.03994127 103 5463808 87 19 783 87
-0.87255412 0.29987639 -0.040616259 30 5658112 25 19 749 25
-0.84535474 0.30216661 -0.038506921 33 5853440 27 19 725 27
-0.88174325 0.32745063 -0.042134982 15 6049280 13 19 732 13
-0.83861423 0.32318038 -0.038591295 34 6243584 27 19 749 27
-0.80775565 0.32271439 -0.036144461 57 6439168 43 19 753 43
-0.7844032 0.32459268 -0.03437262 108 6634240 78 19 747 78
-0.75655025 0.32398424 -0.032178909 223 6829824 152 19 768 152
-0.73885393 0.32718542 -0.030913306 354 7025920 233 19 787 233
-0.73206562 0.33498254 -0.030660186 456 7220480 298 19 783 298
-0.72519755 0.34266248 -0.030407066 580 7416576 376 19 802 376
-0.71377456 0.34803879 -0.029732076 679 7609856 432 19 831 432
-0.70410991 0.35408306 -0.029225836 745 7803904 467 19 771 467
-0.6944052 0.35994294 -0.028719595 759 7999744 467 19 784 467
-0.68729967 0.36702782 -0.028466474 762 8193536 466 19 858 466
-0.67837948 0.37303162 -0.028044607 786 8388352 475 19 840 475
-0.66941607 0.37887213 -0.027622739 808 8582400 482 19 898 482
-0.66041213 0.38454917 -0.027200872 844 8776448 497 19 900 497
-0.65137035 0.39006266 -0.026779003 805 8972800 468 19 817 468
-0.64229327 0.39541256 -0.026357137 792 9168640 454 19 896 454
-0.63402545 0.40113199 -0.026019642 817 9364992 463 19 855 463
-0.62571454 0.40670836 -0.025682148 799 9560576 449 19 958 449
-0 0 -0 816 9757952 0 19 939 0
-0 0 -0 783 9954816 0 19 962 0
-0 0 -0 1080 10151680 0 19 1395 0
-0.36113852 0.2606141 -0.00020134961 8667 10348288 1736 19 4584 1736
-0.37071764 0.27452481 -0.0015513257 10719 10544640 2301 19 6641 2301
-0.36811382 0.27965683 -0.0016356992 10803 10739712 2334 19 6725 2334
-0.36072692 0.28108749 -0.0012138317 9904 10935808 2092 19 5824 2092
-0 0 -0 6311 11132672 0 19 2223 0
-0 0 -0 5466 11326464 0 19 1437 0
-0 0 -0 5272 11519488 0 19 1411 0
-0 0 -0 2912 11712512 0 19 1300 0
-0.36445701 0.32182246 -0.0036606633 1890 11906816 450 19 1335 450
-0.3730303 0.33764786 -0.005095013 1102 12100352 281 19 1033 281
-0.44623536 0.41409498 -0.014038605 581 12293120 217 19 944 217
-0.46926215 0.44633904 -0.017329171 505 12486400 214 19 912 214
-0.48514265 0.47294292 -0.019860376 703 12679680 326 19 979 326
-0.48423395 0.48379341 -0.020450991 1143 12873728 540 19 1074 540
-0.48104382 0.49255228 -0.020788485 1087 13068544 519 19 1096 519
-0.45572713 0.47820964 -0.018426027 2858 13264128 1258 19 1176 1258
-0.47152346 0.50712979 -0.02112598 1542 13459456 745 19 1174 745
-0.44385403 0.48924971 -0.018426027 6140 13653248 2703 19 2480 2703
-0.45365611 0.51257652 -0.020450991 1940 13847296 917 19 1174 917
-0.44017345 0.50980461 -0.019522883 3051 14043392 1395 19 1257 1395
-0.4409402 0.52355546 -0.020450991 1604 14240256 758 19 1177 758
-0.43321806 0.52738637 -0.020282244 1375 14436608 646 19 1113 646
-0.43107143 0.53810906 -0.020872859 1130 14635008 541 19 1080 541
-0.42259669 0.54100168 -0.020619739 1164 14832640 552 19 1049 552
-0.41411614 0.54376763 -0.020366618 1183 15029760 557 19 1068 557
-0.40622514 0.54720771 -0.02019787 1244 15225856 583 19 1105 583
-0.39831221 0.55053627 -0.020029124 1243 15421952 578 19 1070 578
-0.39095265 0.55456799 -0.01994475 1327 15617792 616 19 1115 616
-0.38411781 0.55932379 -0.01994475 1392 15812864 646 19 1135 646
-0.37611812 0.56233829 -0.019776003 1363 16009472 629 19 1147 629
-0.36973232 0.56774676 -0.019860376 1393 16204288 644 19 1103 644
-0.36167136 0.57055742 -0.019691629 1393 16399104 641 19 1107 641
-0.3541199 0.57410431 -0.019607255 1401 16593408 643 19 1149 643
-0.34858462 0.58097088 -0.019860376 1442 16789760 667 19 1075 667
-0.33942235 0.581761 -0.019522883 1398 16983808 639 19 1025 639
-0.33176666 0.58501542 -0.019438509 1334 17178624 609 19 1071 609
-0.3236019 0.58729666 -0.019269763 1278 17373440 579 19 1047 579
-0.31684011 0.59210235 -0.019354135 1277 17568256 580 19 1079 580
-0.31092665 0.59859943 -0.019607255 1146 17763328 525 19 973 525
-0.30400541 0.60326004 -0.019691629 1171 17958656 539 19 1006 539
-0.29876438 0.61142278 -0.020113498 1050 18153984 490 19 1012 490
-0.29251656 0.61774546 -0.020366618 1012 18350336 476 19 1043 476
-0.28615838 0.62400651 -0.020619739 969 18545920 460 19 1080 460
-0.27888301 0.62838215 -0.020704111 904 18740480 431 19 1090 431
-0.27154329 0.63267303 -0.020788485 958 18936064 458 19 940 458
-0.26414019 0.63687825 -0.020872859 930 19134464 446 19 1047 446
-0.2577844 0.64377266 -0.021210352 872 19329280 423 19 1014 423
-0.25129896 0.65060639 -0.021547846 776 19523328 380 19 1022 380
-0.24329609 0.65364122 -0.021547846 855 19718656 419 19 963 419
-0.23626333 0.6593923 -0.021800967 745 19912448 368 19 1006 368
-0.22782974 0.66129971 -0.021716593 803 20109056 396 19 976 396
-0.22032234 0.66593808 -0.021885341 750 20303872 372 19 989 372
-0.21303615 0.67144144 -0.022138461 710 20498944 355 19 1031 355
-0.20478049 0.67400515 -0.022138461 787 20695808 394 19 955 394
-0.19760367 0.68029553 -0.022475956 752 20890368 381 19 1078 381
-0.19030315 0.68651068 -0.022813449 706 21084928 361 19 983 361
-0.18287969 0.69264853 -0.023150943 754 21280768 390 19 1024 390
-0.17509207 0.69774038 -0.023404064 799 21475072 417 19 1060 417
-0.16720693 0.70274496 -0.023657184 805 21668608 424 19 1026 424
-0.15900701 0.70668846 -0.02382593 777 21862656 411 19 1018 411
-0.15052915 0.70956135 -0.023910305 761 22055424 404 19 1000 404
-0.14200468 0.71233243 -0.023994679 798 22249728 425 19 984 425
-0.13361715 0.71598065 -0.024163425 807 22444032 432 19 962 432
-0.12584236 0.72345716 -0.024669666 753 22638080 409 19 1051 409
-0.11742952 0.72789836 -0.024922786 784 22834688 430 19 977 430
-0.10907264 0.73322725 -0.025260281 754 23030272 418 19 941 418
-0.10073657 0.73944741 -0.025682148 744 23226368 418 19 913 418
-0.092020422 0.74359483 -0.02593527 723 23420672 410 19 966 410
-0.083437048 0.7496199 -0.026357137 755 23616512 433 19 1003 433
-0.074622013 0.75455397 -0.026694631 787 23812096 457 19 887 457
-0.065783769 0.76037675 -0.027116498 780 24007168 458 19 888 458
-0.056813795 0.76609546 -0.027538365 768 24202240 457 19 897 457
-0.047591329 0.76971865 -0.027791485 809 24398592 485 19 889 485
-0.038386032 0.77522093 -0.028213354 768 24595456 466 19 962 466
-0.029016258 0.77961665 -0.028550848 715 24790272 439 19 918 439
-0.019617394 0.78688699 -0.029141461 778 24987136 486 19 916 486
-0.010044437 0.794043 -0.029732076 723 25184256 460 19 916 460
-0.0002985732 0.80307436 -0.030491438 773 25379584 502 19 996 502
0.0096921083 0.81397748 -0.031419545 769 25575680 514 19 969 514
0.019974884 0.82575083 -0.032432027 719 25773568 495 19 971 495
0.030474458 0.83540106 -0.033275764 749 25968384 527 19 948 527
0.041213833 0.84491652 -0.034119498 764 26164480 551 19 971 551
0.052130051 0.85329807 -0.034878861 802 26359808 591 19 989 591
0.063331507 0.86253136 -0.035722595 793 26554880 598 19 983 598
0.07451053 0.86863852 -0.03631321 727 26750976 557 19 1005 557
0.085848875 0.87460011 -0.036903825 821 26946048 640 19 934 640
0.097564541 0.88239396 -0.037663188 793 27140352 630 19 982 630
0.10936218 0.88904166 -0.038338173 864 27334912 700 19 1013 700
0.12066647 0.89059472 -0.038591295 977 27527936 796 19 1040 796
0.13319582 0.89988887 -0.039519403 1134 27722752 946 19 1057 946
0.14502081 0.90310544 -0.03994127 1369 27915776 1155 19 1097 1155
0.15694468 0.90616649 -0.040363137 1385 28110848 1182 19 1079 1182
0.16586299 0.89241737 -0.039350655 1809 28305664 1501 19 1176 1501
0.17952485 0.90399653 -0.040531885 1199 28499968 1027 19 1049 1027
0.18853997 0.89197731 -0.039688151 2434 28695040 2040 19 1202 2040
0.19794272 0.8827911 -0.039097536 1809 28890624 1492 19 1154 1492
0.20876102 0.88029557 -0.039097536 1765 29085184 1455 19 1129 1455
0.21809457 0.87186819 -0.038591295 1165 29280512 949 19 1105 949
0.22674482 0.86141819 -0.037916306 959 29475072 767 19 1049 767
0.23570347 0.85280895 -0.037410066 1010 29669632 797 19 1057 797
0.24337469 0.8402825 -0.036566332 1062 29864960 819 19 1045 819
0.24874891 0.82102323 -0.03513198 940 30059520 698 19 1026 698
0.255193 0.80651039 -0.034119498 967 30254080 698 19 1025 698
0.26288226 0.79669529 -0.033528883 1030 30448640 730 19 1025 730
0.2693966 0.78398734 -0.032685149 1047 30642688 725 19 1049 725
0.27631071 0.77311718 -0.03201016 1015 30838272 690 19 1033 690
0.28230447 0.76032865 -0.031166427 990 31033856 656 19 1067 656
0.28838518 0.74844044 -0.030407066 1027 31229696 666 19 1009 666
0.29236668 0.73189294 -0.029225836 1010 31425280 633 19 982 633
0.29789335 0.71996516 -0.028466474 994 31621632 609 19 1048 609
0.30434987 0.71076059 -0.027960233 986 31817216 594 19 1032 594
0.30981791 0.69968498 -0.027285244 946 32013056 559 19 992 559
0.30924985 0.675901 -0.025429027 787 32207616 438 19 947 438
0.31709477 0.67115438 -0.025344655 901 32403968 500 19 1012 500
0.32137263 0.65915382 -0.024585294 834 32599040 452 19 1033 452
0.32854107 0.65338045 -0.024416545 845 32794368 456 19 942 456
0.33148539 0.63957089 -0.023488438 534 32989440 280 19 916 280
0.33179197 0.62139529 -0.022138461 149 33185536 74 19 773 74
0.36486211 0.6635403 -0.026610257 64 33380096 37 19 699 37
0.45157492 0.79772186 -0.040110018 25 33575168 21 19 662 21
0.47237059 0.8110587 -0.041966233 15 33771264 13 19 740 13
0.77843368 1.2991679 -0.090734124 18 33965824 42 19 718 42
0.79745471 1.294607 -0.091240361 14 34160384 33 19 748 33
0.84313965 1.3318634 -0.095965281 19 34356224 48 19 679 48
0.85833323 1.3197461 -0.095796533 12 34551552 30 19 706 30
0.89218169 1.335624 -0.098496482 23 34749184 60 19 726 60
0.90737706 1.3229318 -0.098327734 13 34944000 34 19 678 34
0.93444616 1.3271748 -0.09993083 164 35139584 436 19 711 436
0.96058685 1.3293353 -0.10136519 30 35336192 82 19 717 82
0.96554792 1.302242 -0.09976209 68 35532800 181 19 702 181
0.95188725 1.2514415 -0.095627785 84 35730432 210 19 726 210
0.91628343 1.1744722 -0.088624783 219 35925760 490 19 714 490
0.56509256 0.70652092 -0.039097536 139 36123136 115 19 759 115
0.57561678 0.70184374 -0.039350655 116 36319744 96 19 675 96
0.62909943 0.74809301 -0.045256801 241 36515328 232 19 784 232
0.65320367 0.75766873 -0.047197394 302 36710912 304 19 765 304
0.67499477 0.76377732 -0.048800491 282 36906240 295 19 726 295
0.6997093 0.772416 -0.05074108 310 37102336 339 19 792 339
0.72744823 0.78348047 -0.053019166 282 37295872 324 19 805 324
0.75349981 0.79181272 -0.055044129 295 37491200 355 19 710 355
0.78055888 0.80033404 -0.057153467 292 37685248 368 19 758 368
0.81075668 0.81112587 -0.059600297 223 37878272 296 19 756 296
0.83491451 0.81503177 -0.061287768 241 38073088 330 19 781 330
0.86217505 0.82121277 -0.063312732 253 38266112 361 19 753 361
0.88532978 0.82277644 -0.064831458 251 38458368 370 19 708 370
0.90717393 0.82255542 -0.066181429 226 38653184 341 19 752 341
0.94855422 0.83907992 -0.069725119 146 38847232 236 19 760 236
0.96406162 0.83193183 -0.070315734 75 39041792 123 19 730 123
0 0 -0 12 39236608 0 19 711 0
2.8368146 2.3280954 -0.27323401 29 39432448 396 19 752 396
2.8589463 2.2881277 -0.27255902 77 39628544 1044 19 723 1044
2.8805251 2.247968 -0.27188405 25 39823872 340 19 726 340
2.0664523 1.5723858 -0.18236375 18 40019200 124 19 688 124
2.1280138 1.5783637 -0.18683554 14 40213504 101 19 716 101
2.9282017 2.1164923 -0.26842472 84 40408064 1107 19 784 1107
2.8855164 2.0322113 -0.26133734 25 40604672 318 19 703 318
0.24543041 0.16881309 0.012285929 22 40799744 1 19 765 1
3.0057769 2.0083861 -0.26859346 222 40995072 2925 19 749 2925
3.034373 1.9740658 -0.26901534 264 41191424 3486 19 840 3486
3.0499504 1.9313507 -0.26817161 267 41387264 3506 19 842 3506
3.0768149 1.8958682 -0.26850909 295 41582336 3884 19 782 3884
3.0972843 1.8564317 -0.26825598 267 41777920 3509 19 786 3509
3.1224151 1.8197885 -0.26850909 206 41974016 2713 19 775 2713
3.1583841 1.7891912 -0.26985908 300 42169856 3984 19 780 3984
3.1731186 1.7464554 -0.26918408 326 42365184 4310 19 810 4310
3.2013419 1.7111418 -0.26985908 352 42561280 4675 19 770 4675
3.2185612 1.6698923 -0.26952159 346 42757120 4586 19 762 4586
3.2112181 1.6163846 -0.26690599 223 42953216 2907 19 754 2907
3.2469313 1.5847216 -0.26842472 153 43149824 2014 19 752 2014
3.2724395 1.5477389 -0.26901534 224 43343872 2960 19 748 2960
3.3083997 1.5153466 -0.27061844 181 43538688 2417 19 756 2417
3.334034 1.477863 -0.27129343 210 43733760 2816 19 784 2816
3.2905548 1.4105413 -0.26564041 176 43927808 2275 19 763 2275
3.3039339 1.36853 -0.2653029 183 44121344 2361 19 738 2361
3.3269558 1.3304719 -0.26589352 193 44315904 2498 19 794 2498
3.3402431 1.2884693 -0.26564041 257 44509184 3319 19 801 3319
3.3660774 1.2512002 -0.26656851 247 44702208 3212 19 737 3212
3.3905604 1.2131549 -0.26741225 293 44896768 3830 19 751 3830
3.4362874 1.1821496 -0.27019656 264 45091840 3514 19 762 3514
3.5158215 1.1614519 -0.27601835 234 45285376 3234 19 754 3234
6.716857 2.1274893 -0.55909145 875 45481728 43765 19 779 43765
6.7519941 2.0477943 -0.55993521 540 45675520 27084 19 805 27084
3.4269891 0.99380523 -0.2646279 106 45869824 1362 19 752 1362
3.3832252 0.93626785 -0.25973424 107 46064384 1331 19 745 1331
3.1940403 0.84187883 -0.24218456 136 46258944 1499 19 686 1499
3.5530729 0.88998467 -0.27264339 182 46454272 2463 19 738 2463
3.6122017 0.85782242 -0.27686208 169 46648832 2351 19 725 2351
3.6535685 0.82041341 -0.27956203 185 46843648 2619 19 672 2619
3.6818833 0.77943575 -0.28116512 198 47038720 2828 19 763 2828
3.7331951 0.74254906 -0.2847932 171 47235072 2498 19 772 2498
3.7459447 0.69741023 -0.28513068 188 47430400 2752 19 766 2752
3.7836745 0.65649658 -0.28766188 267 47626496 3967 19 813 3967
3.7934134 0.61033201 -0.28783062 208 47821824 3095 19 792 3095
3.8183594 0.56636482 -0.28934935 602 48017920 9037 19 833 9037
3.7460313 0.50874561 -0.28259948 101 48213248 1459 19 709 1459
3.6837547 0.45432895 -0.27677771 123 48409600 1710 19 734 1710
3.5900149 0.39811727 -0.26834035 98 48604416 1291 19 744 1291
3.8038678 0.37461734 -0.28614315 119 48800256 1753 19 782 1753
3.9928336 0.3437911 -0.30183664 167 48995840 2707 19 720 2707
4.0414701 0.29806072 -0.30563346 170 49192192 2815 19 793 2815
4.0826168 0.25076097 -0.30883965 196 49387776 3306 19 770 3306
4.0983248 0.20127629 -0.30993649 236 49582592 4007 19 759 4007
4.1393209 0.15239452 -0.31322706 198 49777408 3426 19 739 3426
4.1548252 0.10192803 -0.31440827 493 49972992 8581 19 783 8581
4.1368322 0.050703999 -0.31280518 177 50168064 3056 19 744 3056
4.0683894 -5.761741e-05 -0.30698341 168 50363904 2804 19 772 2804
4.0212531 -0.049403194 -0.30301785 135 50558720 2202 19 778 2202
3.919735 -0.096265636 -0.29449615 149 50753792 2311 19 777 2311
3.8405898 -0.14149037 -0.28791499 158 50947840 2353 19 792 2353
4.4197779 -0.2172264 -0.33718914 296 51143168 5843 19 745 5843
4.445621 -0.27322263 -0.33963597 291 51338496 5821 19 736 5821
4.4995699 -0.33201447 -0.34452963 307 51533312 6298 19 782 6298
4.5179896 -0.38917491 -0.34647021 336 51728384 6962 19 824 6962
4.5535307 -0.4485971 -0.34992954 377 51923456 7953 19 844 7953
4.5744224 -0.50741047 -0.35220763 388 52119296 8282 19 767 8282
4.621253 -0.57009989 -0.35676378 421 52314880 9202 19 749 9202
4.6672263 -0.63401407 -0.36131996 486 52508928 10869 19 732 10869
4.7418876 -0.70353085 -0.36840734 310 52703488 7199 19 890 7199
4.7781506 -0.76895446 -0.37228853 75 52896768 1779 19 675 1779
4.7909346 -0.83145237 -0.3742291 57 53091584 1366 19 702 1366
4.9273076 -0.91755605 -0.38688514 13 53286656 339 19 672 339
4.9401083 -0.98281509 -0.38899446 16 53481472 417 19 721 417
4.9383984 -1.0456351 -0.38992259 11 53676032 289 19 736 289
4.9864435 -1.1199189 -0.3952381 243 53871360 6402 19 724 6402
5.4715896 -1.299651 -0.43869045 653 54065664 20835 19 859 20835
5.2541871 -1.3163164 -0.42114076 829 54258432 24531 19 865 24531
5.1711569 -1.3631639 -0.415319 1202 54453504 34632 19 837 34632
5.6476388 -1.5631747 -0.45868698 882 54647808 30541 19 876 30541
5.6950192 -1.6517965 -0.46459314 991 54841856 35138 19 884 35138
8.4356461 -2.5595267 -0.70893878 898 55037952 4814 19 984 4814
8.6334715 -2.7357023 -0.72935718 37 55233536 3079 19 738 3079
4.455296 -1.4719633 -0.35980123 31 55429120 692 19 766 692
4.4284172 -1.5236075 -0.35904187 25 55624448 557 19 746 557
4.3990674 -1.5741426 -0.35811377 29 55820288 645 19 701 645
2.5974255 -0.96540064 -0.19712912 535 56016128 4141 19 764 4141
2.5212388 -0.97245115 -0.19130734 39 56211968 288 19 764 288
2.5553732 -1.0218221 -0.19552602 65 56408576 498 19 736 498
2.5398798 -1.0519593 -0.19527289 79 56603392 604 19 714 604
2.5276952 -1.083441 -0.19535726 115 56798976 878 19 737 878
2.5214965 -1.1176093 -0.19603226 149 56995584 1144 19 718 1144
2.5012507 -1.1455624 -0.19544165 58 57190400 444 19 722 444
2.5014162 -1.1829884 -0.19679162 90 57387008 696 19 766 696
2.4867108 -1.2135956 -0.19679162 136 57583360 1051 19 725 1051
2.4636209 -1.239987 -0.19603226 198 57779456 1519 19 766 1519
2.4473343 -1.269667 -0.19594789 177 57974272 1357 19 742 1357
1.7233168 -0.92093581 -0.12794285 184 58170112 708 19 732 708
1.7197418 -0.94633925 -0.12870219 119 58367488 462 19 822 462
1.6949953 -0.96000332 -0.12743659 166 58562816 635 19 780 635
1.6727569 -0.97470921 -0.12642412 70 58757120 264 19 795 264
1.635886 -0.9803046 -0.12397728 48 58953216 176 19 785 176
1.6398499 -1.010239 -0.12558039 74 59147776 277 19 779 277
1.623962 -1.0281538 -0.12524289 99 59342848 369 19 780 369
1.5895082 -1.0338745 -0.12304918 128 59536896 464 19 739 464
1.5783582 -1.0544097 -0.12321792 148 59731712 537 19 824 537
1.5365446 -1.0539662 -0.12026485 32 59926272 113 19 712 113
1.5072029 -1.0612657 -0.11857738 39 60120576 134 19 768 134
1.4932586 -1.0790976 -0.11849301 55 60313600 189 19 683 189
1.4150814 -1.0492543 -0.11165875 573 60509952 1791 19 832 1791
1.3632451 -1.036972 -0.10752445 1020 60704768 3019 19 863 3019
0 -0 -0 113 60897280 0 19 748 0
1.0939078 -0.87520528 -0.081115544 31 61091840 62 19 710 62
0 -0 -0 42 61286400 0 19 710 0
1.0362685 -0.87163144 -0.077149987 57 61481984 105 19 742 105
0 -0 -0 8 61675264 0 19 762 0
0.98844165 -0.87369549 -0.074196912 15 61869824 26 19 743 26
0.94516325 -0.85631263 -0.070484482 47 62064640 77 19 736 77
0.92144436 -0.85563815 -0.068965755 33 62260224 53 19 737 53
0.87190914 -0.82977462 -0.064409591 111 62455040 162 19 742 162
0.87235743 -0.85085124 -0.065675192 159 62651392 238 19 755 238
0.86537302 -0.86501569 -0.066097058 134 62844672 202 19 732 202
0.82755631 -0.84775305 -0.062806495 29 63040768 41 19 717 41
0.83151782 -0.87300116 -0.064578332 67 63237632 98 19 702 98
0.86210591 -0.9276765 -0.069725119 130 63433472 210 19 715 210
0.85534054 -0.94335467 -0.070315734 141 63630080 231 19 722 231
0.87867826 -0.99334645 -0.074787527 229 63827456 406 19 664 406
0.83453488 -0.96707994 -0.07065323 109 64025344 179 19 725 179
0.80464381 -0.95589793 -0.06829077 92 64222720 145 19 726 145
0.70183814 -0.85477364 -0.056140985 81 64418560 100 19 685 100
0.68756062 -0.85865378 -0.055634744 74 64615936 90 19 678 90
0.66839051 -0.85602814 -0.054453515 93 64812288 110 19 746 110
0.65843862 -0.86495894 -0.054537889 62 65008128 74 19 697 74
0.65014863 -0.87617546 -0.054875381 73 65203712 88 19 717 88
0.6422658 -0.88812602 -0.055297248 54 65400576 65 19 725 65
0.83210188 -1.1810969 -0.084827974 67 65596160 141 19 727 141
0.90434355 -1.3177626 -0.097821496 470 65792000 1210 19 781 1210
0.8881045 -1.328761 -0.097821496 534 65987584 1375 19 788 1375
0.87010181 -1.3370535 -0.097568378 377 66183936 966 19 812 966
0.90106541 -1.4225594 -0.10507762 116 66380288 332 19 755 332
0.86211288 -1.3987262 -0.1016183 173 66575104 470 19 813 470
0.80237281 -1.3382581 -0.094615303 815 66770176 2000 19 800 2000
0.78689325 -1.3497256 -0.094784051 879 66965248 2161 19 856 2161
0.77174389 -1.3618815 -0.09503717 882 67161344 2179 19 811 2179
0.75593418 -1.3729954 -0.095205918 868 67356160 2148 19 816 2148
0.73902845 -1.3821685 -0.095205918 808 67549952 2000 19 842 2000
0.72201151 -1.3911334 -0.095205918 755 67744512 1869 19 766 1869
0.70578158 -1.401669 -0.095374666 429 67939328 1065 19 817 1065
0.35556847 -0.72784007 -0.031082053 53 68134144 35 19 712 35
0.34703588 -0.73304945 -0.031166427 34 68329984 22 19 757 22
0.33925867 -0.73997086 -0.031419545 36 68523520 24 19 726 24
0.32813406 -0.73952341 -0.030997679 33 68718592 22 19 727 22
0.3209967 -0.74807382 -0.031419545 46 68913152 30 19 709 30
0.31255493 -0.75379783 -0.031588294 138 69107456 92 19 709 92
0.30254135 -0.75572616 -0.031419545 560 69304064 374 19 800 374
0.29324466 -0.75938189 -0.031419545 553 69500416 369 19 762 369
0.28286257 -0.76012117 -0.031166427 661 69695488 438 19 812 438
0.27284223 -0.76165867 -0.030997679 595 69890816 392 19 854 392
0.26250282 -0.76212269 -0.030744558 660 70085376 433 19 752 433
0.25344309 -0.76623279 -0.030828932 782 70280960 513 19 785 513
0.24402116 -0.7692852 -0.030828932 763 70475520 501 19 868 501
0.23369505 -0.76936114 -0.030575812 675 70671104 440 19 752 440
0.22312652 -0.76834285 -0.030238317 549 70866176 354 19 834 354
0.21394663 -0.7719835 -0.030322691 579 71060480 374 19 770 374
0.20369554 -0.77166015 -0.030069571 670 71254784 430 19 799 430
0.19396873 -0.77313507 -0.029985197 768 71450624 493 19 860 493
0.18446657 -0.77545714 -0.029985197 781 71643904 500 19 830 500
0.17515483 -0.77863473 -0.030069571 730 71840512 469 19 805 469
0.16599913 -0.78267521 -0.030238317 652 72036096 420 19 800 420
0.15657629 -0.78563064 -0.030322691 606 72229632 392 19 829 392
0.14710589 -0.78847253 -0.030407066 740 72424448 480 19 774 480
0.13707855 -0.7882548 -0.030238317 823 72619264 531 19 829 531
0.12755331 -0.79086143 -0.030322691 794 72814336 514 19 827 514
0.11813083 -0.79433846 -0.030491438 716 73008128 466 19 817 466
0.10730223 -0.78782922 -0.029816451 589 73203712 375 19 805 375
0.0982356 -0.79403144 -0.030238317 661 73398784 426 19 764 426
0.089142546 -0.80111945 -0.030744558 708 73595136 464 19 883 464
0.079304866 -0.80215299 -0.030744558 800 73790976 523 19 825 523
0.069455244 -0.80306578 -0.030744558 741 73987072 486 19 810 486
0.059741549 -0.80584514 -0.030913306 689 74183168 454 19 862 454
0.050092064 -0.81049585 -0.031250801 739 74380800 491 19 856 491
0.040337399 -0.81503046 -0.031588294 732 74576128 491 19 852 491
0.03036925 -0.81645989 -0.031672668 621 74774016 417 19 838 417
0.02022602 -0.81179041 -0.031250801 483 74970624 320 19 799 320
0.010226223 -0.80898839 -0.030997679 400 75164928 263 19 806 263
0.00029748626 -0.81303871 -0.031335175 109 75361280 72 19 697 72
-0.009852482 -0.82693017 -0.032516401 52 75556864 36 19 687 36
-0.02026963 -0.83770442 -0.033444513 37 75750400 26 19 737 26
-0.030474458 -0.83540106 -0.033275764 39 75945984 27 19 716 27
-0.040870823 -0.83794987 -0.033528883 41 76141056 29 19 719 29
-0.051517945 -0.84335256 -0.034035124 43 76337152 31 19 697 31
-0.12558374 -1.7052113 -0.10727133 36 76532992 106 19 723 106
-0.14230546 -1.654897 -0.10313702 128 76727808 356 19 777 356
-0.16103847 -1.6371601 -0.10178705 141 76921344 385 19 717 385
-0.17594977 -1.5885141 -0.097821496 186 77115136 478 19 806 478
-0.1929884 -1.5664568 -0.096134029 207 77308416 520 19 770 520
-0.21004936 -1.548173 -0.094784051 178 77504512 438 19 789 438
-0.22947095 -1.5484356 -0.09503717 114 77697536 282 19 734 282
-0.23974341 -1.4913961 -0.090396628 281 77892864 646 19 746 646
-0.25529972 -1.4726338 -0.08904665 413 78087936 930 19 790 930
-0.27481195 -1.4772266 -0.089721642 650 78282752 1480 19 803 1480
-0.29330811 -1.4756975 -0.089890383 619 78477056 1412 19 830 1412
-0.3103627 -1.4671131 -0.089468516 356 78671616 808 19 705 808
-0.33817223 -1.506943 -0.093265325 113 78867712 272 19 738 272
-0.35571793 -1.4988018 -0.092927836 99 79063808 237 19 695 237
-0.36269942 -1.4488961 -0.088962279 42 79258368 95 19 750 95
-0.37918198 -1.4395186 -0.088540412 53 79453184 119 19 706 119
-0.39203295 -1.4174715 -0.087021686 36 79648256 79 19 699 79
-0.39662698 -1.368533 -0.083140507 13 79844096 27 19 717 27
-0.41512722 -1.3692837 -0.083646744 18 80041216 37 19 721 37
-0.42798576 -1.351738 -0.082549892 21 80238080 43 19 754 43
-0.3704395 -1.1221565 -0.062553369 444 80434176 624 19 830 624
-0.38256094 -1.1128151 -0.062131502 477 80629504 666 19 822 666
-0.3951807 -1.1052223 -0.061878383 427 80825856 592 19 835 592
-0.40663004 -1.0946859 -0.061372142 473 81022464 649 19 808 649
-0.41680449 -1.0812469 -0.060612779 512 81216512 692 19 806 692
-0.42634073 -1.066799 -0.059769046 535 81410560 711 19 777 711
-0.43482286 -1.0504403 -0.058756564 569 81606144 741 19 832 741
-0.44218302 -1.0322042 -0.057575334 593 81802240 754 19 820 754
-0.45037362 -1.0166802 -0.056647226 590 81997312 735 19 813 735
-0.45742035 -0.99930042 -0.05555037 673 82191104 820 19 815 820
-0.46751824 -0.98910832 -0.055128504 673 82385664 812 19 742 812
-0.47787231 -0.97971499 -0.054791007 646 82582784 773 19 798 773
-0.49209946 -0.97822696 -0.055212874 548 82778624 662 19 780 662
-0.51691854 -0.99687839 -0.057575334 428 82973184 543 19 802 543
-0.54320723 -1.0168216 -0.060106538 400 83169536 536 19 817 536
-0.56621659 -1.0292828 -0.061962757 337 83364096 468 19 834 468
-0.58764708 -1.0378617 -0.06348148 365 83558656 523 19 827 523
-0.60786653 -1.0434848 -0.06474708 327 83753472 480 19 812 480
-0.62677425 -1.0462021 -0.065759562 387 83949056 580 19 799 580
-0.13296112 -0.21646556 0.015998363 149 84142592 9 19 870 9
-0.13560748 -0.21481763 0.015998363 1663 84337152 108 19 1239 108
-0.13171175 -0.20311522 0.017010845 786 84532224 46 19 931 46
-0 -0 -0 12 84727296 0 19 1198 0
-0 -0 -0 12 84922624 0 19 1504 0
-0 -0 -0 10 85116672 0 19 5161 0
-0 -0 -0 0 85312512 0 19 8448 0
-0 -0 -0 0 85507840 0 19 10860 0
-0 -0 -0 0 85705472 0 19 11507 0
-0 -0 -0 0 85900800 0 19 10658 0
-0 -0 -0 0 86097920 0 19 9047 0
-0 -0 -0 0 86293760 0 19 7059 0
-0 -0 -0 0 86491392 0 19 4024 0
-0 -0 -0 0 86685952 0 19 5766 0
-0 -0 -0 0 86882048 0 19 6691 0
-0 -0 -0 0 87076352 0 19 6731 0
-0 -0 -0 0 87270400 0 19 7359 0
-0 -0 -0 0 87463168 0 19 7964 0
-0 -0 -0 0 87657472 0 19 7125 0
-0 -0 -0 0 87851264 0 19 7362 0
-0 -0 -0 0 88046080 0 19 6196 0
-0 -0 -0 0 88240640 0 19 3938 0
-0 -0 -0 0 88435712 0 19 5223 0
-0 -0 -0 0 88631552 0 19 5531 0
-0 -0 -0 0 88827136 0 19 4240 0
-0 -0 -0 0 89022208 0 19 4202 0
-0 -0 -0 3 89217280 0 19 2056 0
-0 -0 -0 5 89414656 0 19 3692 0
-0 -0 -0 0 89609472 0 19 3451 0
-0 -0 -0 1 89804800 0 19 2679 0
-0 -0 -0 4 90000128 0 19 2966 0
-0 -0 -0 7 90195712 0 19 2025 0
-0 -0 -0 18 90393344 0 19 2523 0
-0 -0 -0 16 90589184 0 19 2584 0
-0 -0 -0 21 90785792 0 19 1893 0
-0 -0 -0 18 90981632 0 19 2375 0
-0 -0 -0 13 91176448 0 19 2041 0
-0 -0 -0 16 91371008 0 19 1620 0
-0 -0 -0 11 91566336 0 19 2192 0
-0 -0 -0 0 91760640 0 19 4231 0
-0 -0 -0 0 91954944 0 19 6777 0
-0 -0 -0 0 92148992 0 19 8557 0
-0 -0 -0 0 92345856 0 19 8761 0
-0 -0 -0 0 92537344 0 19 8047 0
-0 -0 -0 0 92735744 0 19 6078 0
-0 -0 -0 1 92931072 0 19 2297 0
-0 -0 -0 47 93127168 0 19 922 0
-0 -0 -0 5 93322496 0 19 853 0
-0 -0 -0 5 93517824 0 19 830 0
-0 -0 -0 6 93712384 0 19 842 0
-0 -0 -0 5 93908736 0 19 759 0
-0 -0 -0 6 94104576 0 19 866 0
-0 -0 -0 22 94301184 0 19 767 0
-0 -0 -0 22 94497536 0 19 777 0
-0 -0 -0 10 94694144 0 19 751 0
-0.86111033 -0.30841437 -0.03994127 57 94890496 48 19 750 48
-0.86200339 -0.29685187 -0.039688151 118 95086336 99 19 668 99
-0.87409687 -0.28906354 -0.040447511 135 95282944 115 19 774 115
-0.88327795 -0.28012022 -0.040953752 137 95479552 118 19 715 118
-0.8933239 -0.27128395 -0.041544367 152 95674880 133 19 785 133
-0.90041381 -0.26141077 -0.041881863 185 95870976 164 19 819 164
-0.90643507 -0.2511386 -0.042134982 163 96066048 145 19 809 145
-0.91137576 -0.24050404 -0.04230373 179 96260096 160 19 750 160
-0.91425848 -0.22930194 -0.04230373 138 96455168 123 19 726 123
-0.92088151 -0.21898583 -0.042641222 125 96650496 113 19 740 113
-0.92933297 -0.208978 -0.043147463 130 96844288 119 19 743 119
-0.93767655 -0.19879551 -0.043653704 104 97038080 96 19 746 96
-0.94590932 -0.18843953 -0.044159945 99 97231872 93 19 749 93
-0.95108944 -0.17736442 -0.044413067 89 97425408 84 19 770 84
-0.95810324 -0.16653097 -0.044834934 95 97618944 90 19 774 90
-0.96400988 -0.15539376 -0.045172427 97 97811968 93 19 751 93
-0.97175825 -0.14442877 -0.045678668 146 98005760 142 19 760 142
-0.97543216 -0.13276093 -0.045847416 130 98197760 127 19 780 127
-0.98687744 -0.12199953 -0.046691153 107 98391808 106 19 774 106
-0 -0 -0 56 98587136 0 19 1246 0
-0 -0 -0 22 98781440 0 19 2384 0
-0 -0 -0 0 98976512 0 19 4245 0
-0 -0 -0 0 99170560 0 19 6787 0
-0 -0 -0 0 99365376 0 19 8002 0
-0 -0 -0 0 99559680 0 19 7579 0
-0 -0 -0 0 99755520 0 19 6515 0
-0 -0 -0 17 0 0 20 4361 0
-0 -0 -0 6 197376 0 20 4234 0
-0 -0 -0 27 394752 0 20 4023 0
-0 0 -0 70 589824 0 20 2770 0
-0 0 -0 113 785664 0 20 2044 0
-0 0 -0 129 982016 0 20 1679 0
-0 0 -0 111 1178112 0 20 1652 0
-0 0 -0 122 1372160 0 20 1697 0
-0 0 -0 71 1568256 0 20 1268 0
-0 0 -0 98 1764864 0 20 1050 0
-1.0921313 0.10710256 -0.082099482 325 1960192 397 20 962 397
-1.0798664 0.11929207 -0.080903858 388 2156032 464 20 974 464
-1.0615489 0.13046716 -0.079056069 411 2352896 477 20 927 477
-1.0411522 0.14094351 -0.076990895 479 2547712 536 20 943 536
-1.026561 0.15181409 -0.075577877 470 2741504 513 20 925 513
-1.0108802 0.1621902 -0.074056171 478 2936320 508 20 917 508
-0.99314255 0.17186488 -0.072317079 542 3129344 558 20 902 558
-0.98411769 0.18276608 -0.071556225 487 3323392 494 20 959 494
-0.96620095 0.19172703 -0.069817133 522 3517440 513 20 963 513
-0.95113248 0.2008937 -0.068404116 558 3712512 535 20 947 535
-0.93695635 0.20993756 -0.067099795 530 3906560 495 20 1022 495
-0.92560482 0.21935301 -0.066121556 495 4101888 453 20 1026 453
-0.91512895 0.22876327 -0.065252006 487 4297472 439 20 1047 439
-0.90840769 0.2389629 -0.064817235 544 4490240 486 20 1000 486
-0.89582598 0.24744178 -0.063730299 449 4685824 393 20 950 393
-0.87744594 0.2539874 -0.061991207 357 4880128 302 20 905 302
-0.86760402 0.26271635 -0.061230354 282 5074432 235 20 908 235
-0.8662101 0.27394372 -0.06144774 156 5268992 130 20 856 130
-0.84673649 0.27925289 -0.059599951 76 5463808 62 20 874 62
-0.83478564 0.28671274 -0.058621712 68 5658112 53 20 840 53
-0.82278049 0.29392174 -0.057643473 33 5853440 26 20 865 26
-0.82097524 0.30468899 -0.057860859 23 6049280 18 20 898 18
-0.82088441 0.31617147 -0.05829563 26 6243584 21 20 902 21
-0.8058663 0.32179251 -0.056991313 45 6439168 34 20 796 34
-0.78073287 0.3229093 -0.054491363 77 6634240 56 20 857 56
-0.74564588 0.31915146 -0.05079579 214 6829824 142 20 852 142
-0.74167323 0.32827765 -0.05079579 324 7025920 216 20 885 216
-0.7366851 0.3369405 -0.050687097 384 7220480 255 20 855 255
-0.71811628 0.33915597 -0.048948001 536 7416576 343 20 908 343
-0.70585984 0.3440192 -0.047969762 603 7609856 377 20 920 377
-0.6953693 0.34952706 -0.047208909 720 7803904 442 20 927 442
-0.68926293 0.35711849 -0.04699152 723 7999744 442 20 883 442
-0.68132168 0.36367571 -0.046556748 780 8193536 472 20 939 472
-0.67680752 0.37200919 -0.046556748 717 8388352 433 20 958 433
-0.67046154 0.37930682 -0.046339359 705 8582400 424 20 918 424
-0.66146195 0.38500336 -0.045795891 804 8776448 477 20 1006 477
-0.65412951 0.3915585 -0.045469813 691 8972800 407 20 987 407
-0.64504349 0.39694908 -0.044926345 738 9168640 428 20 1026 428
-0.63172489 0.39951712 -0.043839414 815 9364992 461 20 1030 461
-0.62260818 0.40452909 -0.043295946 759 9560576 424 20 1011 424
-0 0 -0 781 9757952 0 20 1011 0
-0 0 -0 762 9954816 0 20 1049 0
-0 0 -0 1046 10151680 0 20 1409 0
-0.35063252 0.25292212 -0.0093836114 7840 10348288 1489 20 4613 1489
-0.36986002 0.27378517 -0.012427026 10824 10544640 2325 20 6746 2325
-0.36805472 0.27950704 -0.012644413 10917 10739712 2361 20 6839 2361
-0.35284129 0.27482957 -0.011014013 9554 10935808 1941 20 5902 1941
-0 0 -0 6118 11132672 0 20 2458 0
-0 0 -0 4913 11326464 0 20 1465 0
-0 0 -0 3422 11519488 0 20 1420 0
-0 0 -0 2725 11712512 0 20 1480 0
-0.3561773 0.31438524 -0.014057427 1833 11906816 419 20 1457 419
-0.37807366 0.34209603 -0.017861696 1060 12100352 279 20 1180 279
-0.44595456 0.41368541 -0.02862234 612 12293120 229 20 1087 229
-0.4833245 0.45956588 -0.035035249 476 12486400 214 20 1054 214
-0.48262927 0.47032174 -0.035796102 616 12679680 283 20 1158 283
-0.48806876 0.48745489 -0.037535198 1025 12873728 494 20 1179 494
-0.48274449 0.49411899 -0.037643891 1044 13068544 504 20 1141 504
-0.47938654 0.50288546 -0.038078662 2353 13264128 1152 20 1416 1152
-0.47114941 0.50654554 -0.037752584 1478 13459456 717 20 1267 717
-0.43886033 0.48356497 -0.033513542 5905 13653248 2555 20 1880 2555
-0.44869816 0.50678575 -0.036122184 1765 13847296 820 20 1212 820
-0.44699082 0.51752257 -0.036883038 2514 14043392 1192 20 1437 1192
-0.44572687 0.52905363 -0.037752584 1433 14240256 694 20 1273 694
-0.43352485 0.52756804 -0.036774345 1275 14436608 601 20 1188 601
-0.42763934 0.53362441 -0.036883038 1118 14635008 530 20 1176 530
-0.42411694 0.54275018 -0.037426502 961 14832640 461 20 1170 461
-0.41561869 0.54554063 -0.037100423 1080 15029760 515 20 1169 515
-0.40889278 0.55059981 -0.037100423 1088 15225856 519 20 1193 519
-0.40094054 0.55396491 -0.036883038 1125 15421952 533 20 1109 533
-0.39353988 0.55803061 -0.036774345 1095 15617792 516 20 1228 516
-0.38497505 0.56035894 -0.036448263 1134 15812864 531 20 1188 531
-0.37696493 0.56338799 -0.036230877 1157 16009472 539 20 1163 539
-0.37002292 0.56797153 -0.036230877 1175 16204288 547 20 1189 547
-0.36249328 0.57162964 -0.036122184 1189 16399104 552 20 1166 552
-0.35545123 0.57603496 -0.036122184 1178 16593408 546 20 1192 546
-0.34682229 0.57779568 -0.035796102 1181 16789760 544 20 1198 544
-0.34070694 0.58372587 -0.036013488 1147 16983808 530 20 1155 530
-0.3340081 0.58872783 -0.036122184 1110 17178624 514 20 1196 514
-0.32675835 0.59278226 -0.036122184 1059 17373440 491 20 1141 491
-0.31945941 0.59674746 -0.036122184 1039 17568256 483 20 1075 483
-0.31257021 0.60150516 -0.036230877 1048 17763328 488 20 1172 488
-0.30516529 0.6052956 -0.036230877 979 17958656 456 20 1137 456
-0.29858655 0.61078149 -0.036448263 965 18153984 451 20 1149 451
-0.29234409 0.61709541 -0.036774345 891 18350336 420 20 1092 420
-0.28599143 0.62334776 -0.037100423 920 18545920 439 20 1168 439
-0.27952915 0.62953663 -0.037426502 914 18740480 439 20 1169 439
-0.27178273 0.63291949 -0.037426502 865 18936064 416 20 1102 416
-0.26475632 0.63804382 -0.037643891 888 19134464 429 20 1158 429
-0.25727576 0.64216769 -0.037752584 809 19329280 392 20 1112 392
-0.24973384 0.64620394 -0.037861276 800 19523328 389 20 1042 389
-0.24178512 0.64921993 -0.037861276 774 19718656 376 20 1126 376
-0.23413494 0.65307409 -0.037969969 830 19912448 404 20 1145 404
-0.22642653 0.65683806 -0.038078662 796 20109056 390 20 1065 390
-0.21897283 0.66145498 -0.038296051 801 20303872 394 20 1067 394
-0.21174012 0.66693521 -0.03862213 733 20498944 363 20 1191 363
-0.20469436 0.6732884 -0.039056905 735 20695808 368 20 1095 368
-0.1975244 0.67956847 -0.039491676 753 20890368 382 20 1105 382
-0.18996575 0.68481541 -0.039817758 763 21084928 390 20 1150 390
-0.18205455 0.68901747 -0.040035143 718 21280768 370 20 1138 370
-0.17382714 0.69216394 -0.040143836 792 21475072 409 20 1080 409
-0.1660094 0.69714642 -0.040469918 787 21668608 409 20 1143 409
