# .PCD v0.7 - Point Cloud Data file format
VERSION 0.7
FIELDS x y z intensity t reflectivity ring noise range
SIZE 4 4 4 4 4 2 2 2 4
TYPE F F F F U U U U U
COUNT 1 1 1 1 1 1 1 1 1
WIDTH 830
HEIGHT 1
VIEWPOINT 0 0 0 1 0 0 0
POINTS 830
DATA ascii
0.85887909 -0.97095031 -0.072256327 236 63827456 400 19 1024 400
0.83193183 -0.96406162 -0.070315734 108 64025088 178 19 904 178
0.80207801 -0.9528479 -0.067953274 88 64222464 138 19 990 138
0.70942265 -0.86401755 -0.057153467 94 64418048 119 19 961 119
0.68693805 -0.85787576 -0.05555037 71 64614400 87 19 931 87
0.67084229 -0.85917056 -0.054791007 76 64811264 91 19 1008 91
0.65421581 -0.85940748 -0.053947274 70 65007872 83 19 948 83
0.64362025 -0.86737096 -0.053947274 65 65203456 77 19 919 77
0.6317606 -0.87358862 -0.053778525 64 65400320 75 19 996 75
0.91929913 -1.3049362 -0.097652748 76 65596160 196 19 1033 196
0.90039819 -1.3120106 -0.097230881 435 65792000 1111 19 1016 1111
0.8881045 -1.328761 -0.097821496 509 65987328 1311 19 1119 1311
0.86684209 -1.3320417 -0.097062133 375 66183936 956 19 956 956
0.89093846 -1.4065633 -0.10347452 111 66380032 311 19 1009 311
0.87256545 -1.4156938 -0.10330577 137 66574336 383 19 999 383
0.80647022 -1.3450959 -0.095290288 726 66768896 1801 19 1054 1801
0.78739488 -1.3505865 -0.094868422 835 66964736 2058 19 1080 2058
0.77076179 -1.3601474 -0.094868422 858 67161088 2115 19 1008 2115
0.75497341 -1.3712494 -0.09503717 879 67355904 2172 19 1078 2172
0.73949808 -1.3830473 -0.095290288 883 67549696 2191 19 1058 2191
0.72476429 -1.3964406 -0.095712155 748 67744256 1867 19 1067 1867
0.70040667 -1.390988 -0.094362184 448 67939072 1096 19 1053 1096
0.34508154 -0.70634764 -0.029057089 32 68133888 20 19 955 20
0.33681351 -0.71142995 -0.029141461 41 68329728 26 19 959 26
0.32805783 -0.71550959 -0.029141461 43 68523008 27 19 892 27
0.31925273 -0.71948153 -0.029141461 28 68717056 18 19 873 18
0.30961457 -0.72151333 -0.028972715 38 68912128 24 19 978 24
0.30798033 -0.74275035 -0.030575812 137 69107456 89 19 984 89
0.30106178 -0.75202519 -0.031082053 537 69303808 355 19 967 355
0.29252765 -0.75752246 -0.031250801 619 69500416 411 19 1029 411
0.28320965 -0.76105523 -0.031250801 648 69695488 430 19 1065 430
0.27351341 -0.76353508 -0.031166427 620 69891072 411 19 1050 411
0.26250282 -0.76212269 -0.030744558 706 70085632 463 19 1062 463
0.25375557 -0.76717895 -0.030913306 828 70281216 545 19 1025 545
0.24281786 -0.76548547 -0.030491438 735 70475520 478 19 1088 478
0.2328276 -0.76650047 -0.030322691 703 70670592 455 19 1074 455
0.2217394 -0.76355767 -0.029816451 571 70865152 364 19 1025 364
0.21235268 -0.76622128 -0.029816451 602 71060480 384 19 1021 384
0.20268013 -0.76780593 -0.029732076 659 71255296 418 19 1123 418
0.19300069 -0.76926869 -0.029647702 728 71451136 462 19 1063 462
0.18377618 -0.77254868 -0.029732076 810 71644416 515 19 1014 515
0.17471841 -0.77669024 -0.029900825 752 71841024 480 19 1065 480
0.16476154 -0.77682608 -0.029732076 633 72036608 402 19 1117 402
0.15560485 -0.78074408 -0.029900825 659 72230400 421 19 1061 421
0.14564764 -0.7806356 -0.029732076 710 72425216 451 19 1016 451
0.13554634 -0.77941877 -0.029478956 795 72619520 502 19 1053 502
0.12597147 -0.78102344 -0.029478956 819 72813824 516 19 996 516
0.11637763 -0.78251052 -0.029478956 747 73008128 472 19 1058 472
0.10716823 -0.78684187 -0.029732076 612 73204480 389 19 1069 389
0.097504407 -0.78809774 -0.029732076 658 73399552 418 19 1020 418
0.088155054 -0.79220605 -0.029985197 753 73596160 483 19 1028 483
0.078524388 -0.79421985 -0.030069571 830 73792000 533 19 1098 533
0.069455244 -0.80306578 -0.030744558 725 73988096 474 19 1084 474
0.059961129 -0.80882639 -0.031166427 663 74184192 439 19 1155 439
0.050092064 -0.81049585 -0.031250801 755 74381824 501 19 1056 501
0.040288616 -0.81403524 -0.03150392 761 74577408 509 19 1066 509
0.03051552 -0.82044291 -0.03201016 598 74774528 407 19 1064 407
0.020566851 -0.82573628 -0.032432027 577 74970624 397 19 1081 397
0.010371652 -0.82094473 -0.03201016 440 75165952 299 19 974 299
0.00029911665 -0.79809219 -0.030069571 87 75362304 56 19 956 56
-0.0094947247 -0.79803574 -0.030069571 43 75558144 28 19 903 28
-0.019360824 -0.80084753 -0.030322691 45 75751936 29 19 963 29
-0.029407704 -0.80652422 -0.030828932 45 75947520 30 19 956 30
-0.039596789 -0.81207395 -0.031335175 28 76142848 19 19 987 19
-0.049620416 -0.81252146 -0.031419545 39 76338944 26 19 933 26
-0.12338142 -1.6753995 -0.10474012 33 76534784 95 19 1038 95
-0.13990867 -1.6271 -0.10077457 157 76729344 423 19 1044 423
-0.15878962 -1.6143527 -0.09984646 167 76921856 444 19 1019 444
-0.17496033 -1.5796009 -0.097062133 190 77116160 486 19 927 486
-0.19201173 -1.5585454 -0.095459037 235 77310464 585 19 966 585
-0.2076336 -1.5304005 -0.093265325 183 77506304 441 19 956 441
-0.22288679 -1.5040821 -0.091240361 101 77699584 236 19 979 236
-0.23990181 -1.4923798 -0.090480998 280 77894912 645 19 1016 645
-0.25427696 -1.4667434 -0.088540412 446 78089984 997 19 983 997
-0.27170953 -1.4605738 -0.088287286 581 78284544 1293 19 1085 1293
-0.28961256 -1.4571295 -0.088287286 625 78479104 1391 19 1088 1391
-0.30994973 -1.4651635 -0.089299776 338 78673664 765 19 970 765
-0.32987204 -1.4699994 -0.090059131 114 78868736 262 19 965 262
-0.35088077 -1.4784435 -0.091155991 80 79064576 187 19 990 187
-0.36633271 -1.4633943 -0.09022788 59 79260160 137 19 943 137
-0.38045231 -1.4443361 -0.088962279 50 79455488 114 19 923 114
-0.39017189 -1.4107493 -0.086431071 44 79650560 96 19 995 96
-0.38996384 -1.3455656 -0.081115544 18 79846400 37 19 984 37
-0.39602989 -1.306353 -0.078078099 13 80043264 25 19 925 25
-0.42076099 -1.328941 -0.080524929 28 80240128 56 19 932 56
-0.37169015 -1.1259409 -0.062890865 441 80436224 625 19 1090 625
-0.38418218 -1.1175262 -0.062553369 432 80631552 608 19 1042 608
-0.39618808 -1.1080368 -0.062131502 457 80827648 638 19 1001 638
-0.40419909 -1.0881481 -0.060781527 547 81023488 743 19 1056 743
-0.4139348 -1.0738099 -0.059937794 560 81217792 748 19 1137 748
-0.42337999 -1.0593978 -0.059094056 595 81412608 780 19 1062 780
-0.43177152 -1.0430759 -0.058081575 629 81608192 809 19 1013 809
-0.44061229 -1.028541 -0.057237841 602 81804288 760 19 1039 760
-0.44875804 -1.0130366 -0.05630973 608 81999360 753 19 1037 753
-0.45742035 -0.99930042 -0.05555037 607 82193152 739 19 982 739
-0.4670921 -0.98820764 -0.055044129 626 82387712 754 19 997 754
-0.47656086 -0.97702873 -0.054537889 663 82584832 790 19 987 790
-0.48806652 -0.97021705 -0.054453515 518 82780672 616 19 993 616
-0.51232862 -0.98803413 -0.0567316 448 82974720 560 19 1010 560
-0.54132795 -1.0133067 -0.059769046 392 83170560 522 19 997 522
-0.56189156 -1.0214267 -0.061203394 375 83366144 514 19 1052 514
-0.58322597 -1.0300593 -0.062722117 364 83560960 514 19 1087 514
-0.60134268 -1.0322939 -0.063650228 316 83756032 455 19 1028 455
-0.62011355 -1.0350921 -0.06466271 415 83951616 609 19 1022 609
-0.14759985 -0.24021691 0.013635905 164 84145408 13 19 1007 13
-0 -0 -0 36 84339968 0 19 3065 0
-0.13171175 -0.20311522 0.017010845 811 84534784 48 19 1194 48
-0.13419436 -0.20148362 0.017010845 293 84730112 17 19 984 17
-0 -0 -0 22 84924928 0 19 1650 0
-0 -0 -0 10 85117952 0 19 5417 0
-0 -0 -0 0 85314304 0 19 8758 0
-0 -0 -0 0 85510400 0 19 11121 0
-0 -0 -0 0 85708032 0 19 11767 0
-0 -0 -0 0 85903104 0 19 10914 0
-0 -0 -0 0 86100480 0 19 9149 0
-0 -0 -0 0 86296320 0 19 7398 0
-0 -0 -0 3 86493952 0 19 3838 0
-0 -0 -0 0 86688256 0 19 5832 0
-0 -0 -0 0 86884352 0 19 6923 0
-0 -0 -0 0 87077888 0 19 6755 0
-0 -0 -0 0 87271424 0 19 7351 0
-0 -0 -0 0 87464960 0 19 7947 0
-0 -0 -0 0 87660032 0 19 7093 0
-0 -0 -0 0 87853824 0 19 6985 0
-0 -0 -0 0 88048128 0 19 5803 0
-0 -0 -0 4 88242432 0 19 2097 0
-0 -0 -0 0 88437504 0 19 4092 0
-0 -0 -0 0 88633344 0 19 4485 0
-0 -0 -0 1 88828928 0 19 3442 0
-0 -0 -0 0 89023744 0 19 4937 0
-0 -0 -0 0 89217792 0 19 4058 0
-0 -0 -0 0 89415680 0 19 5424 0
-0 -0 -0 0 89611008 0 19 5248 0
-0 -0 -0 0 89806592 0 19 4712 0
-0 -0 -0 0 90001920 0 19 4416 0
-0 -0 -0 0 90197760 0 19 3243 0
-0 -0 -0 5 90395392 0 19 2540 0
-0 -0 -0 4 90591232 0 19 2643 0
-0 -0 -0 11 90787840 0 19 2032 0
-0 -0 -0 19 90983936 0 19 2619 0
-0 -0 -0 15 91177728 0 19 2345 0
-0 -0 -0 17 91372032 0 19 1932 0
-0 -0 -0 27 91568128 0 19 2425 0
-0 -0 -0 2 91762944 0 19 4493 0
-0 -0 -0 0 91957504 0 19 7065 0
-0 -0 -0 0 92151808 0 19 8769 0
-0 -0 -0 0 92346368 0 19 8974 0
-0 -0 -0 0 92540160 0 19 8327 0
-0 -0 -0 0 92733952 0 19 6386 0
-0 -0 -0 3 92928256 0 19 2532 0
-0 -0 -0 8 93123072 0 19 1220 0
-0 -0 -0 27 93316096 0 19 1198 0
-0 -0 -0 7 93511168 0 19 1082 0
-0 -0 -0 6 93705472 0 19 972 0
-0 -0 -0 5 93901056 0 19 1019 0
-0 -0 -0 5 94095872 0 19 1095 0
-0 -0 -0 21 94291968 0 19 1051 0
-0.7407878 -0.28607446 -0.029732076 35 94487552 22 19 996 22
-0.72556192 -0.27002081 -0.028044607 18 94683392 11 19 980 11
-0.85454273 -0.30606529 -0.039350655 61 94878976 51 19 1003 51
-0.8648302 -0.297824 -0.03994127 108 95074048 91 19 1023 91
-0.87220454 -0.28843862 -0.040278766 125 95269120 106 19 1018 106
-0.88042814 -0.27921775 -0.040700633 155 95464448 133 19 977 133
-0.88855606 -0.26983824 -0.0411225 163 95659776 142 19 983 142
-0.8965857 -0.26030108 -0.041544367 175 95855360 154 19 1037 154
-0.90355396 -0.25034162 -0.041881863 172 96049664 152 19 1017 152
-0.90655798 -0.23923478 -0.041881863 137 96244224 122 19 1036 122
-0.91039211 -0.22833391 -0.041966233 175 96440064 156 19 969 156
-0.91603404 -0.21783519 -0.042219356 145 96636416 130 19 1007 130
-0.92349946 -0.20766871 -0.042641222 147 96831232 133 19 1035 133
-0.93182749 -0.19755791 -0.043147463 105 97026304 96 19 1038 96
-0.94200009 -0.18766238 -0.043822452 89 97220864 83 19 1034 83
-0.95206904 -0.17754671 -0.044497442 102 97414656 97 19 1007 97
-0.96301216 -0.1673822 -0.045256801 105 97609728 101 19 958 101
-0.96991271 -0.15634286 -0.045678668 96 97805056 93 19 1012 93
-0.9786579 -0.14545147 -0.046269283 117 98000128 116 19 1003 116
-0.97938174 -0.13329689 -0.046184909 139 98193408 137 19 1054 137
-0.98094374 -0.12126833 -0.046184909 99 98388480 98 19 1064 98
-0 -0 -0 70 98584832 0 19 1522 0
-0 -0 -0 7 98780160 0 19 2700 0
-0 -0 -0 0 98976256 0 19 4333 0
-0 -0 -0 0 99171840 0 19 6885 0
-0 -0 -0 0 99366656 0 19 8276 0
-0 -0 -0 0 99561728 0 19 7787 0
-0 -0 -0 0 99758848 0 19 6729 0
-0 -0 -0 18 0 0 20 3293 0
-0 -0 -0 21 197376 0 20 3417 0
-0 -0 -0 38 395008 0 20 3156 0
-0 0 -0 72 590080 0 20 2324 0
-0 0 -0 97 785408 0 20 1893 0
-0 0 -0 95 981248 0 20 1634 0
-0 0 -0 126 1177088 0 20 1636 0
-0 0 -0 128 1371904 0 20 1719 0
-0 0 -0 49 1568256 0 20 1386 0
-1.1082196 0.094970725 -0.083729886 105 1764864 132 20 1156 132
-1.0861955 0.10651833 -0.081447318 353 1960192 427 20 1305 427
-1.0610939 0.11721149 -0.078838684 446 2155776 514 20 1196 514
-1.0497097 0.12900771 -0.077751748 446 2352640 505 20 1206 505
-1.036227 0.14027493 -0.076447427 453 2547456 501 20 1195 501
-1.0226277 0.1512309 -0.075143106 482 2741504 521 20 1198 521
-1.0069543 0.16155879 -0.0736214 500 2935808 526 20 1174 526
-0.99118364 0.17152511 -0.072099693 503 3127808 515 20 1235 515
-0.97727662 0.18149285 -0.070795372 505 3322368 505 20 1195 505
-0.96230102 0.19095156 -0.069382355 498 3517184 485 20 1284 485
-0.94724232 0.20007041 -0.067969345 527 3712256 500 20 1247 500
-0.93695635 0.20993756 -0.067099795 497 3906304 463 20 1233 463
-0.92270327 0.21866412 -0.065795474 504 4101376 459 20 1208 459
-0.90934312 0.2273144 -0.064599849 537 4297216 478 20 1243 478
-0.90071756 0.23693657 -0.063947685 510 4489984 448 20 1232 448
-0.88624519 0.24479108 -0.062643364 447 4685568 383 20 1287 383
-0.86503404 0.25038889 -0.060578194 361 4879872 297 20 1151 297
-0.86094499 0.26069686 -0.060469501 289 5073408 236 20 1211 236
-0.85294265 0.26974156 -0.059926033 180 5267200 146 20 1176 146
-0.85711962 0.28268227 -0.060795579 90 5463040 74 20 1091 74
-0.86110634 0.29576573 -0.061665125 53 5657600 44 20 1120 44
-0.89017159 0.3180297 -0.065469392 21 5852672 19 20 1144 19
-0.88527006 0.32858324 -0.065360703 15 6048768 13 20 1127 13
-0.8691138 0.33477199 -0.063947685 26 6243072 23 20 1094 23
-0.84740263 0.33840007 -0.061882515 43 6438400 36 20 1125 36
-0.78165126 0.32328966 -0.054600056 87 6633728 63 20 1120 63
-0.74564588 0.31915146 -0.05079579 266 6829312 177 20 1163 177
-0.7362203 0.32586095 -0.050143629 358 7024896 235 20 1163 235
-0.72764701 0.33280146 -0.049600162 434 7218944 281 20 1115 281
-0.7199136 0.3400059 -0.049165387 561 7415552 359 20 1276 359
-0.70675319 0.34445515 -0.048078455 633 7609344 396 20 1174 396
-0.69270545 0.34818637 -0.046882827 683 7803648 415 20 1256 415
-0.68485087 0.3548297 -0.046448052 730 7999232 440 20 1299 440
-0.67781478 0.36180153 -0.046121974 763 8193024 456 20 1240 456
-0.67332387 0.37009212 -0.046121974 689 8387840 412 20 1247 412
-0.66440678 0.37587735 -0.045578506 754 8581888 445 20 1267 445
-0.65630859 0.38200036 -0.045143735 796 8775680 465 20 1237 465
-0.64730805 0.38747051 -0.044600267 778 8972288 449 20 1256 449
-0.63996542 0.39382052 -0.044274185 749 9167104 428 20 1332 428
-0.63172489 0.39951712 -0.043839414 769 9363200 435 20 1252 435
-0.62260818 0.40452909 -0.043295946 730 9559296 408 20 1296 408
-0 0 -0 770 9757184 0 20 1302 0
-0 0 -0 727 9953792 0 20 1371 0
-0 0 -0 941 10150912 0 20 1751 0
-0.36030084 0.25990942 -0.010687932 8533 10347264 1711 20 4879 1711
-0.37624791 0.2785221 -0.013296573 10321 10543104 2297 20 6671 2297
-0.37280169 0.28311828 -0.013296573 10381 10738176 2310 20 6731 2310
-0.35049015 0.27299497 -0.010687932 9130 10934272 1830 20 5906 1830
-0 0 -0 6121 11130624 0 20 2461 0
-0 0 -0 5397 11323648 0 20 1803 0
-0 0 -0 3510 11516928 0 20 1619 0
-0 0 -0 2753 11710720 0 20 1688 0
-0.34872988 0.30780083 -0.012970493 1777 11905280 389 20 1569 389
-0.38764951 0.35077396 -0.01927471 1033 12098560 286 20 1478 286
-0.44449785 0.41233236 -0.028404953 557 12291328 207 20 1295 207
-0.45812446 0.43557659 -0.031230981 532 12484608 215 20 1298 215
-0.47195622 0.45990887 -0.034165703 680 12677888 299 20 1396 299
-0.49158359 0.49096924 -0.038078662 959 12871680 469 20 1476 469
-0.48413303 0.49554187 -0.037861276 1032 13066496 502 20 1478 502
-0.47938654 0.50288546 -0.038078662 2388 13261056 1169 20 1584 1169
-0.46573648 0.50071943 -0.036883038 1437 13456128 681 20 1514 681
-0.4188315 0.46146944 -0.03025274 5354 13650688 2110 20 2121 2110
-0.44869816 0.50678575 -0.036122184 1815 13845248 843 20 1574 843
-0.44699082 0.51752257 -0.036883038 2551 14041088 1209 20 1593 1209
-0.44316661 0.52601123 -0.037317809 1418 14238208 679 20 1530 679
-0 0 -0 1289 14434816 0 20 1556 0
-0.43198779 0.5390569 -0.037643891 1061 14633216 513 20 1475 513
-0.42411694 0.54275018 -0.037426502 1016 14830848 488 20 1440 488
-0.41561869 0.54554063 -0.037100423 1089 15027968 518 20 1489 518
-0.40711612 0.5482046 -0.036774345 1081 15223552 510 20 1464 510
-0.39861101 0.55074245 -0.036448263 1146 15419136 537 20 1459 537
-0.39010519 0.55315441 -0.036122184 1089 15615232 506 20 1370 506
-0.38328776 0.55789995 -0.036122184 1143 15810816 530 20 1363 530
-0.37586027 0.56173497 -0.036013488 1202 16007424 556 20 1455 556
-0.36785433 0.56463861 -0.035796102 1108 16202496 509 20 1426 509
-0.35930198 0.56659079 -0.035470024 1171 16397056 535 20 1377 535
-0.35127893 0.56926477 -0.035252634 1198 16591616 543 20 1463 543
-0.34324449 0.57182741 -0.035035249 1216 16787712 548 20 1363 548
-0.33720267 0.57771415 -0.035252634 1087 16982016 493 20 1347 493
-0.32861772 0.57921392 -0.034926556 1203 17176832 541 20 1400 541
-0.32627898 0.59191144 -0.036013488 1048 17370880 485 20 1443 485
-0.31945941 0.59674746 -0.036122184 1056 17565440 490 20 1362 490
-0.31348595 0.60326988 -0.036448263 1002 17761280 470 20 1457 470
-0.3060593 0.6070714 -0.036448263 1029 17956864 481 20 1390 481
-0.29945871 0.61256814 -0.036665648 981 18152192 462 20 1442 462
-0.29234409 0.61709541 -0.036774345 936 18348288 442 20 1422 442
-0.28599143 0.62334776 -0.037100423 876 18543872 417 20 1353 417
-0.27912626 0.6286279 -0.037317809 893 18738176 428 20 1439 428
-0.27178273 0.63291949 -0.037426502 871 18933760 419 20 1368 419
-0.26475632 0.63804382 -0.037643891 824 19132160 398 20 1428 398
-0.25727576 0.64216769 -0.037752584 849 19326720 411 20 1500 411
-0.24937601 0.64527655 -0.037752584 843 19519744 409 20 1387 409
-0.2414387 0.64828819 -0.037752584 801 19715328 389 20 1367 389
-0.23346503 0.65120214 -0.037752584 821 19910144 398 20 1417 398
-0.22577964 0.65495807 -0.037861276 794 20106752 386 20 1395 386
-0.21834907 0.65956718 -0.038078662 778 20301568 380 20 1430 380
-0.210539 0.66314465 -0.038187359 742 20496640 364 20 1394 364
-0.20296259 0.66758084 -0.038404744 748 20693760 369 20 1402 369
-0.19558586 0.67288542 -0.038730823 752 20888320 374 20 1399 374
-0.18810938 0.67810905 -0.039056905 755 21082880 379 20 1387 379
-0.18104087 0.68517256 -0.039600372 769 21278464 391 20 1431 391
-0.17334393 0.69023538 -0.039926451 776 21472256 398 20 1426 398
-0.16509038 0.69327778 -0.040035143 775 21665280 399 20 1416 399
-0.15722397 0.69816118 -0.040361226 746 21860096 387 20 1402 387
-0.14926246 0.70295554 -0.040687304 782 22053632 410 20 1394 410
-0.14140087 0.70863414 -0.041122079 755 22247936 400 20 1341 400
-0.13360429 0.71520233 -0.041665547 755 22442240 405 20 1384 405
-0.12532763 0.71972632 -0.041991625 788 22636800 426 20 1388 426
-0.11695999 0.72415441 -0.042317703 771 22833152 421 20 1376 421
-0.10850247 0.72848505 -0.042643785 778 23028736 428 20 1386 428
-0.10035776 0.73567182 -0.043295946 741 23224576 413 20 1363 413
-0.091931127 0.74178094 -0.043839414 760 23418880 430 20 1309 430
-0.083259948 0.74680525 -0.044274185 785 23613952 449 20 1348 449
-0.074381731 0.75073862 -0.044600267 797 23810048 459 20 1365 459
-0.06559018 0.75654685 -0.045143735 841 24005888 491 20 1333 491
-0.056447633 0.75927758 -0.04536112 823 24200960 484 20 1303 484
-0.047430992 0.7648741 -0.045904588 813 24397056 484 20 1325 484
-0.038383134 0.77234864 -0.046665441 809 24594176 490 20 1333 490
-0.029122261 0.77872193 -0.047317602 781 24788992 481 20 1306 481
-0.019735178 0.78597707 -0.048078455 780 24985856 488 20 1340 488
-0.010174392 0.79311806 -0.048839308 756 25182976 482 20 1352 482
-0.00044143212 0.80212992 -0.049817547 796 25378560 519 20 1346 519
0.0095354402 0.8130089 -0.051013175 761 25573888 510 20 1367 510
0.0197549 0.82276845 -0.052100111 753 25771264 516 20 1292 516
0.030178765 0.83140475 -0.05307835 742 25966848 520 20 1344 520
0.04096365 0.84288639 -0.054382671 799 26163456 576 20 1316 576
0.051791221 0.85025787 -0.055252217 780 26358784 573 20 1341 573
0.06295193 0.85947216 -0.056339152 804 26553856 605 20 1335 605
0.074005581 0.86457741 -0.056991313 812 26749952 620 20 1340 620
0.085486047 0.87250781 -0.057969552 774 26945024 602 20 1296 602
0.096843652 0.87732124 -0.058621712 806 27139328 636 20 1379 636
0.1073592 0.87409353 -0.058404326 908 27333888 714 20 1339 714
0.11914734 0.88059056 -0.059273873 1036 27526400 830 20 1390 830
0.13052775 0.88299543 -0.059708647 1189 27720448 960 20 1441 960
0.14372143 0.89604914 -0.061339047 1411 27913984 1178 20 1489 1178
0.15504628 0.89617687 -0.061556432 1401 28109824 1173 20 1408 1173
0.16603208 0.8942067 -0.061556432 1694 28304384 1421 20 1502 1421
0.17563577 0.88527703 -0.060795579 1188 28498944 980 20 1395 980
0.18669207 0.8840276 -0.060904272 2471 28694016 2045 20 1611 2045
0.19491352 0.87003076 -0.059599951 1362 28889344 1096 20 1520 1096
0.20810135 0.87821245 -0.060795579 1659 29084160 1369 20 1525 1369
0.21499905 0.86016381 -0.059056487 1153 29279488 919 20 1447 919
0.22477852 0.85457689 -0.058730405 919 29474048 727 20 1468 727
0.23339307 0.84504759 -0.057969552 954 29667840 742 20 1522 742
0.23710217 0.81920564 -0.05536091 1246 29862656 919 20 1368 919
0.23934765 0.79054958 -0.052426189 1703 30058240 1178 20 1360 1178
0.24933104 0.78850055 -0.052534882 1302 30253568 902 20 1450 902
0.25930014 0.7863254 -0.052643575 1085 30448128 754 20 1342 754
0.26602015 0.77462393 -0.051665336 1096 30641920 745 20 1419 745
0.2728273 0.76381326 -0.05079579 1072 30837760 714 20 1493 714
0.27871698 0.75108963 -0.049708854 1064 31033344 692 20 1432 692
0.284336 0.73833793 -0.048621923 1030 31228928 653 20 1421 653
0.28931549 0.72463977 -0.047426295 1028 31424512 634 20 1386 634
0.29400223 0.71093214 -0.046230666 1108 31620864 665 20 1448 665
0.29996315 0.70087487 -0.045469813 1020 31815680 600 20 1426 600
0.30531913 0.68987054 -0.044600267 1001 32011520 577 20 1447 577
0.3108646 0.6797452 -0.043839414 1007 32207104 570 20 1488 570
0.31620795 0.66958857 -0.04307856 987 32403456 549 20 1386 549
0.32178527 0.66029751 -0.0424264 917 32598272 501 20 1399 501
0.3258419 0.64830738 -0.041448157 864 32793600 461 20 1343 461
0.32553357 0.62837654 -0.039491676 593 32988672 301 20 1333 301
0.3383742 0.63397843 -0.040687304 132 33184768 69 20 1156 69
0.35427621 0.64458382 -0.042535093 58 33379328 32 20 1092 32
0.44642603 0.78896159 -0.061230354 19 33574400 16 20 1062 16
0 0 -0 11 33769984 0 20 1085 0
0.74568224 1.245037 -0.12079433 11 33964288 24 20 1091 24
0.7629903 1.2391779 -0.1212291 13 34159360 28 20 1126 28
0.7536779 1.1910869 -0.1162292 7 34355456 14 20 1137 14
0.81918937 1.2600781 -0.12644638 20 34550784 46 20 1128 46
0.84508306 1.2656355 -0.12851155 53 34748416 125 20 1089 125
0.8538028 1.2453328 -0.12720723 150 34943232 347 20 1061 347
0.86673129 1.2315105 -0.12677246 226 35138560 520 20 1147 520
0.8852722 1.2256157 -0.12742461 171 35335168 396 20 1076 396
0.90202206 1.2170553 -0.12775069 134 35531776 312 20 1097 312
0.91568553 1.2043121 -0.12753332 162 35729152 375 20 1202 375
0.92917228 1.1914172 -0.12731592 173 35923456 400 20 1108 400
0.9294374 1.1620736 -0.12481598 274 36121088 614 20 1164 614
0.93984431 1.1459696 -0.12416382 297 36318720 661 20 1139 661
0.96535575 1.1480422 -0.1261203 166 36514304 378 20 1174 378
0.98521459 1.1428841 -0.12709855 100 36709888 231 20 1061 231
1.0465733 1.1843294 -0.13492446 37 36905216 94 20 1093 94
1.0590254 1.1691873 -0.13459839 46 37101056 116 20 1140 116
1.0773525 1.1604736 -0.13525054 52 37294848 133 20 1088 133
1.1052203 1.1615654 -0.13742441 35 37490176 92 20 1052 92
1.2922451 1.3250877 -0.16448906 26 37684224 91 20 1112 91
0 0 -0 6 37876224 0 20 1059 0
1.4687985 1.4339151 -0.18655382 11 38070528 48 20 1104 48
1.5028422 1.4315493 -0.18905376 18 38264576 79 20 1143 79
1.5377748 1.4292381 -0.1916624 14 38457344 64 20 1072 64
2.0214136 1.8328685 -0.26046532 230 38652160 1737 20 1110 1737
1.3445226 1.1895555 -0.15840223 387 38846208 1264 20 1119 1264
1.361277 1.1749147 -0.15872832 527 39041024 1727 20 1125 1727
1.3847196 1.1658021 -0.16003263 111 39235584 369 20 1117 369
2.8081477 2.305398 -0.35937628 35 39431680 472 20 1118 472
2.1625974 1.7315553 -0.26503044 47 39627776 366 20 1197 366
1.4737093 1.1507427 -0.16655424 38 39822848 136 20 1082 136
0 0 -0 30 40017152 0 20 1127 0
0.23203424 0.17259611 0.0062682345 112 40211968 9 20 1170 9
0.2438022 0.17672426 0.0049639139 850 40407296 78 20 1236 78
0.23620008 0.16684972 0.0062682345 2605 40603904 221 20 1236 221
0.22839379 0.15718941 0.007572555 2866 40798976 224 20 1350 224
0.24022363 0.16100283 0.0062682345 2309 40994304 196 20 1332 196
0.23801519 0.15533204 0.0068117017 2101 41190400 172 20 1205 172
0.24158305 0.1534633 0.0065943147 2045 41386496 169 20 1213 169
0.24429438 0.1510087 0.0064856214 2161 41581568 181 20 1180 181
0.25806567 0.15515503 0.0049639139 1029 41776896 94 20 1181 94
0 0 -0 13 41972480 0 20 1125 0
1.8627254 1.0558289 -0.19622752 47 42168064 219 20 1134 219
1.730981 0.95331323 -0.17818442 41 42364160 163 20 1118 163
1.6864427 0.90200531 -0.17122805 15 42560512 56 20 1161 56
1.7626786 0.91512442 -0.17927136 81 42756352 324 20 1114 324
3.1935327 1.6081867 -0.35307208 254 42952448 3289 20 1221 3289
3.2130272 1.568876 -0.35307208 188 43149056 2438 20 1113 2438
3.2536044 1.5395311 -0.3556807 175 43343104 2296 20 1206 2296
3.2858081 1.5056988 -0.3573111 174 43537920 2303 20 1198 2303
3.0341341 1.3456022 -0.32502919 150 43733248 1677 20 1084 1677
3.0696049 1.3164935 -0.32731175 157 43926784 1776 20 1138 1776
3.0873659 1.2794865 -0.32752913 173 44119296 1960 20 1116 1960
3.1139104 1.2459335 -0.32883346 182 44314368 2075 20 1152 2075
3.1642082 1.2212245 -0.33296379 211 44508672 2460 20 1176 2460
3.1920009 1.1871527 -0.3344855 215 44701696 2526 20 1189 2526
3.3439126 1.197131 -0.35046342 145 44896256 1855 20 1123 1855
3.4692695 1.1941724 -0.36328924 225 45091584 3071 20 1112 3071
3.4893258 1.1533805 -0.3639414 243 45284864 3324 20 1216 3324
6.7232919 2.1308212 -0.73328149 796 45481472 40123 20 1330 40123
6.7574954 2.0507534 -0.73425972 613 45675264 30984 20 1360 30984
3.4091191 0.98927307 -0.35024604 81 45869568 1033 20 1267 1033
3.3663936 0.93224734 -0.34405053 72 46063360 901 20 1305 901
3.1920626 0.8419565 -0.3230727 109 46257664 1203 20 1273 1203
3.5705049 0.89501423 -0.36459357 172 46453760 2360 20 1231 2360
3.6237743 0.86124033 -0.36937609 182 46648576 2557 20 1208 2557
3.6524985 0.82084566 -0.37144125 199 46843648 2824 20 1254 2824
3.661324 0.77575618 -0.37133256 165 47038720 2341 20 1248 2341
3.7154162 0.73969156 -0.37633246 155 47235072 2254 20 1205 2254
3.7418044 0.69731838 -0.37828892 46 47430400 678 20 1184 678
2.0742767 0.36045575 -0.19231457 279 47626496 1256 20 1302 1256
2.0824697 0.33560598 -0.19274934 320 47821824 1442 20 1168 1442
2.0913477 0.31075522 -0.19329281 341 48017408 1543 20 1182 1543
2.1009138 0.28587085 -0.19394496 309 48212480 1411 20 1289 1411
2.1111698 0.26092014 -0.19470581 314 48408832 1442 20 1333 1442
2.1191528 0.23554134 -0.19524929 282 48604672 1301 20 1392 1301
2.1327658 0.21059087 -0.19644491 327 48800512 1521 20 1155 1521
2.1302376 0.18397592 -0.19590145 239 48996096 1107 20 1173 1107
2.1442313 0.1586991 -0.19720577 81 49192448 380 20 1183 380
4.0560036 0.2498422 -0.40644053 145 49388032 2429 20 1121 2429
4.0796142 0.20107566 -0.40872309 161 49583104 2724 20 1132 2724
4.1205173 0.15242688 -0.41296211 159 49777920 2740 20 1166 2740
4.1518908 0.10258415 -0.41622293 459 49973504 8018 20 1155 8018
4.1548252 0.051650871 -0.41644031 56 50167808 982 20 1192 982
4.0835724 0.00065620203 -0.4086144 54 50363136 917 20 1130 917
3.9967949 -0.048399925 -0.39915806 137 50558720 2220 20 1168 2220
3.8776405 -0.094547741 -0.38622355 146 50754304 2231 20 1063 2231
3.8414192 -0.14084689 -0.38241929 159 50948352 2383 20 1131 2383
4.2216606 -0.20673051 -0.42426625 312 51143680 5649 20 1121 5649
4.2247591 -0.25888658 -0.42491838 395 51339008 7170 20 1124 7170
4.2232471 -0.3108575 -0.42513579 424 51533824 7697 20 1230 7697
4.213172 -0.36214849 -0.42448363 401 51729152 7262 20 1141 7262
4.1955495 -0.41255748 -0.42307061 437 51923968 7865 20 1170 7865
4.1763387 -0.4624792 -0.4215489 435 52119552 7779 20 1188 7779
4.182188 -0.51515394 -0.42285323 431 52314368 7760 20 1335 7760
4.1548657 -0.56362891 -0.42057067 436 52508672 7774 20 1299 7774
4.1535358 -0.61544788 -0.42122281 415 52704256 7404 20 1278 7404
4.1427264 -0.66589826 -0.42089674 399 52897536 7128 20 1318 7128
4.128366 -0.71566641 -0.42024457 202 53092352 3590 20 1278 3590
2.7324946 -0.50816995 -0.26600868 56 53287680 444 20 1337 444
2.7416525 -0.54476553 -0.26774776 39 53482240 309 20 1249 309
2.7503216 -0.58166194 -0.26948687 27 53677056 216 20 1234 216
1.4840001 -0.33274272 -0.12840286 19 53872128 45 20 1192 45
0 -0 -0 17 54066432 0 20 1216 0
5.291122 -1.3245881 -0.55850255 24 54258432 725 20 1252 725
5.1677685 -1.3613031 -0.54643756 56 54452992 1623 20 1218 1623
5.4965425 -1.5203073 -0.5856759 20 54648320 663 20 1222 663
5.5891786 -1.6200303 -0.59839302 21 54842624 724 20 1220 724
1.4659652 -0.44418448 -0.12959848 27 55038464 64 20 1217 64
1.4509273 -0.45913914 -0.12851155 23 55234304 54 20 1182 54
1.4432957 -0.47628614 -0.12829417 18 55429888 43 20 1100 43
1.4354622 -0.4933151 -0.12807678 20 55625216 47 20 1069 47
4.428205 -1.5836971 -0.47633037 22 55820800 500 20 1131 500
1.4126735 -0.52458531 -0.12688115 28 56016896 65 20 1101 65
5.5510759 -2.1404521 -0.61263186 27 56212224 981 20 1121 981
5.4957776 -2.1969705 -0.60926235 41 56408320 1463 20 1168 1463
5.4362583 -2.2509341 -0.60545808 33 56603392 1172 20 1083 1172
5.3716788 -2.3018119 -0.60111034 51 56799488 1775 20 1123 1775
5.3112187 -2.3534601 -0.59730607 35 56996352 1206 20 1149 1206
1.5175757 -0.69455284 -0.14459817 23 57191168 65 20 1144 65
1.5215194 -0.719073 -0.14611988 32 57387520 92 20 1114 92
1.517941 -0.74030602 -0.14677204 28 57583872 81 20 1123 81
0.29045889 -0.14574547 0.0023552731 464 57779968 49 20 1209 49
0.27364752 -0.14151709 0.0042030606 706 57975040 68 20 1156 68
0.28591791 -0.15236124 0.0024639664 2144 58170880 228 20 1176 228
0.2326429 -0.12758151 0.008876876 4184 58367232 300 20 1572 300
0.23192474 -0.1309167 0.0087681822 4094 58562304 295 20 1405 295
0.26036176 -0.15127037 0.0049639139 4719 58757120 435 20 1480 435
0.268718 -0.16058604 0.0036595936 5157 58953728 514 20 1762 514
0.23541236 -0.14457875 0.0076812487 4092 59148032 316 20 1343 316
0.2445389 -0.15436979 0.0062682345 2382 59343104 202 20 1140 202
0.24262613 -0.15735903 0.0062682345 130 59537152 11 20 1165 11
0 -0 -0 22 59731968 0 20 1150 0
0 -0 -0 9 59926528 0 20 1160 0
4.3005614 -3.0279005 -0.53719866 28 60120832 791 20 1176 791
1.3488868 -0.97436017 -0.14405471 21 60313344 60 20 1109 60
0 -0 -0 23 60508928 0 20 1142 0
0 -0 -0 33 60704256 0 20 1097 0
0 -0 -0 106 60897536 0 20 1068 0
0 -0 -0 34 61092096 0 20 1140 0
0 -0 -0 31 61286656 0 20 1182 0
0.97156537 -0.81688339 -0.10090344 99 61482240 162 20 1082 162
0.9501763 -0.81900567 -0.099273033 59 61675520 94 20 1138 94
0.93335164 -0.82467812 -0.098294795 33 61870080 52 20 1130 52
0.91432202 -0.82805932 -0.096990474 55 62064640 85 20 1114 85
0.88952446 -0.82568669 -0.09481661 50 62260224 75 20 1110 75
0.88796508 -0.84476525 -0.096120924 55 62454016 84 20 1136 84
0.87112778 -0.84935057 -0.095142685 34 62650112 51 20 1166 51
0.86837196 -0.86770833 -0.096338317 47 62844160 72 20 1127 72
0.84030133 -0.86051309 -0.093620978 16 63040768 23 20 1129 23
0.83242023 -0.87363976 -0.094055749 21 63237376 31 20 1092 31
0.85140777 -0.91583288 -0.098838262 28 63433472 45 20 1003 45
0 -0 -0 84 63629824 0 20 1150 0
0.82999277 -0.93794096 -0.099055648 164 63827456 261 20 1145 261
0.82686186 -0.95784044 -0.10046867 121 64025088 196 20 1140 196
0.77152091 -0.91619498 -0.093077511 38 64222464 56 20 1044 56
0.70787281 -0.86181742 -0.08405596 60 64418048 76 20 1110 76
0.68668318 -0.85724598 -0.082208171 56 64614400 69 20 1068 69
0.66571391 -0.85228628 -0.08036039 98 64811264 116 20 1099 116
0.65400094 -0.85880929 -0.080142997 75 65007872 88 20 1131 88
0.65170389 -0.87794793 -0.081664711 65 65203456 79 20 1107 79
0.66767055 -0.92293763 -0.086664602 39 65400320 51 20 1130 51
0.84577531 -1.2000663 -0.12264211 70 65596160 153 20 1149 153
0.89510238 -1.303797 -0.13503316 621 65792000 1573 20 1176 1573
0.88014007 -1.3163362 -0.13525054 713 65987328 1810 20 1188 1810
0.86392033 -1.3270377 -0.13525054 634 66183936 1611 20 1173 1611
0.84757048 -1.3375393 -0.13525054 418 66380032 1062 20 1146 1062
0.78102547 -1.266597 -0.12481598 158 66574336 355 20 1138 355
0.76235688 -1.2709703 -0.12416382 185 66768896 412 20 1167 412
0.75120819 -1.2879593 -0.12514205 194 66964736 437 20 1089 437
0.73534638 -1.2970809 -0.12514205 223 67161088 502 20 1149 502
0.71362126 -1.2955569 -0.12383774 192 67355904 426 20 1131 426
0.69485706 -1.2989565 -0.12318558 196 67549696 431 20 1132 431
0.67382801 -1.2976798 -0.12198995 174 67744256 377 20 1181 377
0.65338266 -1.296972 -0.12090302 159 67939072 339 20 1169 339
0.36748657 -0.7519263 -0.053621817 43 68133888 30 20 1069 30
0.35695636 -0.75368351 -0.053295735 31 68329728 22 20 1097 22
0.34809464 -0.75891089 -0.053404428 31 68523008 22 20 1084 22
0.33674094 -0.75858158 -0.052860964 31 68717056 21 20 1065 21
0.32975692 -0.76813865 -0.053513125 35 68912128 25 20 1030 25
0.30394536 -0.73263705 -0.048839308 74 69107456 47 20 1111 47
0.30046955 -0.75015646 -0.050469708 491 69303808 324 20 1132 324
0.29374611 -0.7602793 -0.051230561 609 69500416 410 20 1135 410
0.28404781 -0.76289499 -0.051121868 699 69695488 468 20 1243 468
0.27432957 -0.7653873 -0.051013175 689 69891072 461 20 1169 461
0.26426953 -0.76681614 -0.05079579 599 70085632 399 20 1143 399
0.25452775 -0.76905751 -0.050687097 608 70281216 404 20 1186 404
0.24447049 -0.77022779 -0.050469708 674 70475520 446 20 1210 446
0.23413433 -0.77031606 -0.050143629 686 70670592 451 20 1187 451
0.22383294 -0.77026707 -0.049817547 694 70865152 453 20 1179 453
0.21409853 -0.77199781 -0.049708854 632 71060480 411 20 1165 411
0.20359513 -0.77072209 -0.04927408 637 71255296 410 20 1219 410
0.19363864 -0.77123392 -0.049056694 646 71451136 413 20 1203 413
0.18415983 -0.77355212 -0.049056694 782 71644416 500 20 1237 500
0.17465329 -0.7757538 -0.049056694 800 71841024 512 20 1206 512
0.16512045 -0.77783865 -0.049056694 688 72036608 440 20 1239 440
0.15556274 -0.77980638 -0.049056694 653 72230400 418 20 1163 418
0.14579959 -0.78067935 -0.048948001 657 72425216 420 20 1177 420
0.13603845 -0.7814303 -0.048839308 699 72619520 446 20 1183 446
0.12643886 -0.78304088 -0.048839308 736 72813824 468 20 1233 468
0.11682022 -0.7845335 -0.048839308 695 73008128 442 20 1199 442
0.10718399 -0.78590804 -0.048839308 652 73204480 415 20 1236 415
0.097896874 -0.79012394 -0.049165387 715 73399552 458 20 1226 458
0.088412732 -0.7932418 -0.049382776 725 73596160 468 20 1169 468
0.078964286 -0.79723489 -0.049708854 724 73792000 470 20 1209 470
0.069601811 -0.80309588 -0.050252322 565 73988096 372 20 1198 372
0.059887733 -0.80587226 -0.050469708 568 74184192 376 20 1234 376
0.050177 -0.80952311 -0.05079579 598 74381824 398 20 1178 398
0.040287968 -0.8110708 -0.050904483 653 74577408 436 20 1181 436
0.030441811 -0.8144843 -0.051230561 533 74774528 358 20 1225 358
0.020664692 -0.82374054 -0.052208804 436 74970624 300 20 1280 300
0.0105791 -0.8259201 -0.052426189 238 75165952 164 20 1186 164
0.00044104175 -0.79616547 -0.049165387 50 75362304 32 20 1033 32
-0.0093413005 -0.7971049 -0.04927408 46 75558144 29 20 1148 29
-0.019268285 -0.80289292 -0.04992624 33 75751936 21 20 1089 21
-0.029156089 -0.8035894 -0.050034937 34 75947520 22 20 1039 22
-0.039015174 -0.8031711 -0.050034937 41 76142848 27 20 1073 27
-0.048381239 -0.79469419 -0.049165387 49 76338944 31 20 1085 31
-0.12432555 -1.6922369 -0.14764158 62 76534784 182 20 1069 182
-0.1417588 -1.6519576 -0.14340255 152 76729344 423 20 1167 423
-0.16143595 -1.6441579 -0.14275038 152 76921856 420 20 1192 420
-0.17798649 -1.6094482 -0.13916351 185 77116160 491 20 1256 491
-0.19480459 -1.5834643 -0.13655487 215 77310464 555 20 1125 555
-0.21194825 -1.5642087 -0.13470708 255 77506304 644 20 1089 644
-0.22529566 -1.5221571 -0.13035934 302 77699584 725 20 1138 725
-0.24269509 -1.511426 -0.12948979 258 77894912 612 20 1181 612
-0.25748688 -1.486786 -0.12709855 261 78089984 602 20 1111 602
-0.27262047 -1.4669003 -0.12525076 262 78284544 591 20 1147 591
-0.28749913 -1.4478446 -0.12351166 245 78479104 541 20 1113 541
-0.30215746 -1.4296196 -0.12188125 263 78673664 569 20 1190 569
-0.31532356 -1.4064052 -0.11970739 236 78868736 496 20 1200 496
-0.32865492 -1.3859875 -0.1178596 215 79064576 442 20 1159 442
-0.34153324 -1.3654569 -0.11601181 179 79260160 359 20 1157 359
-0.35167819 -1.3361702 -0.11318579 209 79455488 404 20 1136 404
-0.36062661 -1.3049276 -0.11014237 278 79650560 516 20 1143 516
-0.37329125 -1.2889467 -0.10883805 235 79846400 428 20 1182 428
-0.38561845 -1.2728534 -0.10753373 254 80043264 455 20 1163 455
-0.39760745 -1.2566533 -0.10622941 246 80240128 433 20 1146 433
-0.37122253 -1.1251937 -0.091664501 403 80436224 573 20 1194 573
-0.38338584 -1.1158534 -0.091121033 399 80631552 562 20 1221 562
-0.39470637 -1.1045127 -0.09036018 386 80827648 538 20 1222 538
-0.4033826 -1.0865406 -0.088838473 455 81023488 619 20 1164 619
-0.41203564 -1.0694513 -0.087425455 481 81217792 640 20 1177 640
-0.42069975 -1.0532382 -0.086121134 530 81412608 691 20 1170 691
-0.43055007 -1.0406487 -0.085251592 503 81608192 646 20 1134 646
-0.43898043 -1.0252362 -0.08405596 528 81804288 665 20 1101 665
-0.4475008 -1.0106839 -0.082969025 562 81999360 695 20 1186 695
-0.45738631 -0.99969339 -0.082316868 576 82193152 705 20 1172 705
-0.46749485 -0.98951197 -0.0817734 578 82387712 701 20 1174 701
-0.47785863 -0.9801271 -0.081338629 597 82584832 719 20 1178 719
-0.49342543 -0.9812929 -0.082208171 539 82780672 659 20 1185 659
-0.51092327 -0.98575288 -0.083512492 494 82974720 617 20 1190 617
-0.53656936 -1.0048339 -0.086664602 419 83170560 550 20 1183 550
-0.56755137 -1.0321392 -0.090903647 289 83366144 406 20 1231 406
-0.58458382 -1.0328815 -0.091881886 362 83560960 516 20 1229 516
-0.60472238 -1.0385133 -0.093512289 308 83756032 450 20 1129 450
-0.62099797 -1.0369829 -0.094273143 387 83951616 573 20 1172 573
-0.64097655 -1.041133 -0.095794849 64 84145408 97 20 1097 97
-0 -0 -0 52 84339968 0 20 1692 0
-0.13784561 -0.21262754 0.010181196 891 84534784 58 20 1161 58
-0.1470712 -0.22083892 0.008876876 300 84730112 21 20 1097 21
-0 -0 -0 11 84924928 0 20 1164 0
-0 -0 -0 17 85117952 0 20 1168 0
-0 -0 -0 13 85314304 0 20 2009 0
-0 -0 -0 1 85510400 0 20 3182 0
-0 -0 -0 3 85708032 0 20 3318 0
-0 -0 -0 7 85903104 0 20 3252 0
-0 -0 -0 9 86100480 0 20 3157 0
-0 -0 -0 8 86296320 0 20 3058 0
-0 -0 -0 6 86493952 0 20 3570 0
-0 -0 -0 2 86688256 0 20 3455 0
-0 -0 -0 1 86884352 0 20 3044 0
-0 -0 -0 5 87077888 0 20 2516 0
-0 -0 -0 0 87271424 0 20 3432 0
-0 -0 -0 2 87464960 0 20 3062 0
-0 -0 -0 5 87660032 0 20 2664 0
-0 -0 -0 3 87853824 0 20 3131 0
-0 -0 -0 5 88048128 0 20 2963 0
-0 -0 -0 4 88242432 0 20 2857 0
-0 -0 -0 3 88437504 0 20 3050 0
-0 -0 -0 2 88633344 0 20 2717 0
-0 -0 -0 2 88828928 0 20 3028 0
-0 -0 -0 4 89023744 0 20 2798 0
-0 -0 -0 2 89217792 0 20 2695 0
-0 -0 -0 2 89415680 0 20 3041 0
-0 -0 -0 3 89611008 0 20 2739 0
-0 -0 -0 6 89806592 0 20 2692 0
-0 -0 -0 3 90001920 0 20 2752 0
-0 -0 -0 6 90197760 0 20 2170 0
-0 -0 -0 5 90395392 0 20 2276 0
-0 -0 -0 2 90591232 0 20 2782 0
-0 -0 -0 12 90787840 0 20 2181 0
-0 -0 -0 4 90983936 0 20 2230 0
-0 -0 -0 1 91177728 0 20 3418 0
-0 -0 -0 0 91372032 0 20 3379 0
-0 -0 -0 2 91568128 0 20 3767 0
-0 -0 -0 1 91762944 0 20 3274 0
-0 -0 -0 2 91957504 0 20 3867 0
-0 -0 -0 1 92151808 0 20 3864 0
-0 -0 -0 0 92346368 0 20 3922 0
-0 -0 -0 6 92540160 0 20 1977 0
-0 -0 -0 6 92733952 0 20 1409 0
-0 -0 -0 6 92928256 0 20 1287 0
-0 -0 -0 6 93123072 0 20 1290 0
-0 -0 -0 5 93316096 0 20 1223 0
-0 -0 -0 42 93511168 0 20 1220 0
-0 -0 -0 42 93705472 0 20 1201 0
-0 -0 -0 6 93901056 0 20 1217 0
-0 -0 -0 7 94095872 0 20 1186 0
-0.77138501 -0.30896065 -0.052969657 28 94291968 19 20 1140 19
-0 -0 -0 17 94487552 0 20 1144 0
-0 -0 -0 14 94683392 0 20 1099 0
-0.85617387 -0.30682021 -0.061556432 82 94878976 68 20 1136 68
-0.8626945 -0.29726088 -0.061882515 93 95074048 78 20 1125 78
-0.86910903 -0.28758755 -0.062208593 102 95269120 86 20 1167 86
-0.87731093 -0.27840197 -0.062752061 120 95464448 103 20 1187 103
-0.88161254 -0.26790369 -0.062860757 130 95659776 111 20 1197 111
-0.88769794 -0.25789559 -0.063186832 144 95855360 124 20 1143 124
-0.89462805 -0.24804352 -0.06362161 128 96049664 112 20 1131 112
-0.90817809 -0.23983398 -0.064817235 122 96244224 109 20 1178 109
-0.91973126 -0.23084562 -0.065795474 113 96440064 103 20 1155 103
-0.92926496 -0.22114998 -0.066556327 97 96636416 89 20 1152 89
-0.93481857 -0.21038342 -0.066882409 86 96831232 80 20 1071 80
-0.94219244 -0.19992566 -0.067425877 93 97026304 87 20 1173 87
-0.95334953 -0.19009444 -0.068404116 77 97220864 73 20 1200 73
-0.95267868 -0.177835 -0.068078034 120 97414656 114 20 1095 114
-0.95772755 -0.16664082 -0.068404116 93 97609728 89 20 1167 89
-0.9626447 -0.15534942 -0.068730198 121 97805056 117 20 1115 117
-0.96742851 -0.14396237 -0.069056273 119 98000128 115 20 1140 115
-0.96321219 -0.13127661 -0.068404116 155 98193408 148 20 1160 148
-0.97165674 -0.12029888 -0.069164969 125 98388480 121 20 1156 121
-0 -0 -0 57 98584832 0 20 1489 0
-0 -0 -0 38 98780160 0 20 2135 0
-0 -0 -0 17 98976256 0 20 3017 0
-0 -0 -0 12 99171840 0 20 3681 0
-0 -0 -0 41 99366656 0 20 3464 0
-0 -0 -0 39 99561728 0 20 3349 0
-0 -0 -0 45 99758848 0 20 3550 0
-0 -0 -0 20 0 0 21 3708 0
-0 -0 -0 38 197376 0 21 3729 0
-0 0 -0 55 395008 0 21 3623 0
-0 0 -0 46 590080 0 21 2725 0
-0 0 -0 142 785408 0 21 1994 0
-0 0 -0 164 981248 0 21 2504 0
-0 0 -0 111 1177088 0 21 2767 0
-0 0 -0 104 1371904 0 21 2891 0
-0 0 -0 58 1568256 0 21 2651 0
-0 0 -0 64 1764864 0 21 1556 0
-0 0 -0 159 1960192 0 21 1384 0
-0 0 -0 247 2155776 0 21 1466 0
-1.0445802 0.12856326 -0.1027288 274 2352640 310 21 1408 310
-0 0 -0 225 2547456 0 21 1447 0
-1.0205221 0.15110351 -0.099940516 289 2741504 314 21 1385 314
-0.99804157 0.16030678 -0.097152233 250 2935808 261 21 1362 261
-0.9881869 0.17118579 -0.096090026 298 3127808 306 21 1423 306
-0.97139609 0.18057658 -0.094098397 279 3322368 278 21 1345 278
-0.95549786 0.18977495 -0.092239544 282 3517184 273 21 1379 273
-0.93855256 0.19840533 -0.090247914 252 3712256 236 21 1483 236
-0.92540973 0.20751794 -0.088787384 251 3906304 230 21 1342 230
-0.91700768 0.21748382 -0.087990731 296 4101376 268 21 1395 268
-0.90080994 0.22534746 -0.086131878 235 4297216 206 21 1436 206
-0.88551772 0.23309954 -0.084405795 197 4489984 169 21 1324 169
-0.8787697 0.24289082 -0.083874695 199 4685568 169 21 1297 169
-0.87667477 0.25393254 -0.084007472 164 4879872 140 21 1299 140
-0.86116296 0.26092994 -0.082281388 138 5073408 114 21 1204 114
-0.84750295 0.2681843 -0.080820858 106 5267200 85 21 1159 85
-0.86579311 0.28571743 -0.083874695 66 5463040 56 21 1141 56
-0.86409611 0.2969656 -0.084140241 30 5657600 25 21 1157 25
-0.85572094 0.30587697 -0.083476365 13 5852672 11 21 1179 11
-0 0 -0 9 6048768 0 21 1144 0
-0 0 -0 19 6243072 0 21 1167 0
-0.85032433 0.33974335 -0.084405795 33 6438400 28 21 1165 28
-0.75818795 0.31373063 -0.071659356 53 6633728 36 21 1213 36
-0.73606223 0.31519908 -0.06900385 160 6829312 104 21 1178 104
-0.73213881 0.32420793 -0.06900385 188 7024896 123 21 1117 123
-0.7199955 0.32945243 -0.067808874 246 7218944 157 21 1187 157
-0.72575372 0.34292561 -0.069269404 424 7415552 279 21 1297 279
-0.71169347 0.34702277 -0.067808874 521 7609344 332 21 1241 332
-0.69941401 0.35171869 -0.066613898 608 7803648 380 21 1281 380
-0.69064653 0.35799229 -0.065950021 643 7999232 396 21 1272 396
-0.67746079 0.36176744 -0.064622268 764 8193024 459 21 1244 459
-0.67036557 0.36861968 -0.064223938 757 8387840 452 21 1268 452
-0.66406691 0.37584108 -0.063958392 692 8581888 411 21 1310 411
-0.65683591 0.38246438 -0.063560061 704 8775680 414 21 1265 414
-0.64869273 0.38845739 -0.063028961 664 8972288 387 21 1343 387
-0.64303315 0.39586857 -0.062896185 733 9167104 425 21 1282 425
-0.63561487 0.40213871 -0.062497858 733 9363200 423 21 1329 423
-0.62647843 0.40720546 -0.061833981 732 9559296 417 21 1281 417
-0.61896211 0.41321042 -0.061435655 744 9757184 420 21 1382 420
-0.60894138 0.41741005 -0.060639005 717 9953792 398 21 1267 398
-0 0 -0 1010 10150912 0 21 1809 0
-0.35754877 0.25801885 -0.020806393 8590 10347264 1707 21 4936 1707
-0.36948016 0.27360681 -0.023329124 10856 10543104 2342 21 6778 2342
-0.37003839 0.28112146 -0.023993002 10337 10738176 2281 21 6687 2281
-0.35718513 0.27832282 -0.022399697 10063 10934272 2109 21 5983 2109
-0 0 -0 6533 11130624 0 21 2445 0
-0 0 -0 5576 11323648 0 21 1719 0
-0 0 -0 3354 11516928 0 21 1676 0
-0 0 -0 2647 11710720 0 21 1723 0
-0.35503706 0.31349117 -0.02518798 1652 11905280 377 21 1748 377
-0.38494194 0.34844631 -0.031295646 970 12098560 267 21 1502 267
-0.450342 0.4179107 -0.044042084 549 12291328 211 21 1383 211
-0.47963217 0.45621428 -0.0504153 504 12484608 225 21 1407 225
-0.47541624 0.46345028 -0.05068085 632 12677888 284 21 1477 284
-0.48651168 0.48607162 -0.053867459 938 12871680 452 21 1464 452
-0.4812023 0.49271473 -0.054000236 1042 13066496 504 21 1507 504
-0.46828613 0.49140364 -0.052672483 2316 13261056 1089 21 1741 1089
-0.46896556 0.50437564 -0.054000236 1415 13456128 684 21 1569 684
-0.42413986 0.46749371 -0.046299264 5144 13650688 2092 21 1961 2092
-0.45447689 0.51350498 -0.053601909 1569 13845248 752 21 1657 752
-0.44361001 0.51378942 -0.052672483 2183 14041088 1026 21 1601 1026
-0.44046187 0.52298683 -0.05333636 1339 14238208 638 21 1577 638
-0 0 -0 1183 14434816 0 21 1523 0
-0.43368691 0.54137772 -0.054664113 948 14633216 464 21 1512 464
-0.42518163 0.54431468 -0.054265786 966 14830848 470 21 1425 470
-0.41726989 0.54791361 -0.054000236 920 15027968 445 21 1526 445
-0.40992439 0.55219674 -0.053867459 1011 15223552 488 21 1469 488
-0.40137565 0.55477554 -0.053469133 907 15419136 433 21 1460 433
-0.39453748 0.55965924 -0.053469133 1009 15615232 482 21 1402 482
-0.38595799 0.56200665 -0.05307081 958 15810816 453 21 1495 453
-0.37793112 0.56505227 -0.052805256 950 16007424 448 21 1467 448
-0.3704282 0.56881666 -0.052672483 984 16202496 463 21 1475 463
-0.36395022 0.574157 -0.052805256 1006 16397056 474 21 1494 474
-0.35791674 0.58026773 -0.05307081 958 16591616 453 21 1465 453
-0.35025954 0.58376604 -0.052938033 943 16787712 445 21 1492 445
-0.34257048 0.58716393 -0.052805256 917 16982016 432 21 1491 432
-0.33485085 0.59046113 -0.052672483 978 17176832 459 21 1476 459
-0.32757977 0.59452581 -0.052672483 953 17370880 448 21 1436 448
-0.32119361 0.60024929 -0.052938033 888 17565440 419 21 1419 419
-0.3142598 0.60502547 -0.05307081 900 17761280 427 21 1399 427
-0.30725709 0.60972172 -0.053203583 853 17956864 405 21 1423 405
-0.29931709 0.61255556 -0.05307081 875 18152192 415 21 1502 415
-0.29177755 0.61618251 -0.05307081 829 18348288 393 21 1400 393
-0.28543201 0.62242019 -0.053469133 854 18543872 409 21 1396 409
-0.27897713 0.62859446 -0.053867459 844 18738176 407 21 1519 407
-0.27241349 0.63470364 -0.054265786 827 18933760 402 21 1425 402
-0.26498339 0.63891453 -0.054398563 792 19132160 386 21 1381 386
-0.25785884 0.64395887 -0.054664113 719 19326720 353 21 1475 353
-0.24993706 0.6470747 -0.054664113 796 19519744 391 21 1419 391
-0.24301334 0.65288031 -0.055062439 742 19715328 367 21 1491 367
-0.23531699 0.65674651 -0.055195212 773 19910144 383 21 1465 383
-0.22788464 0.66145933 -0.055460766 817 20106752 407 21 1382 407
-0.22037196 0.66608834 -0.055726316 752 20301568 377 21 1411 377
-0.21248066 0.66968739 -0.055859093 772 20496640 388 21 1401 388
-0.20453419 0.67319292 -0.055991866 728 20693760 367 21 1453 367
-0.19680957 0.6775561 -0.056257416 683 20888320 346 21 1428 346
-0.18927284 0.68278605 -0.056655742 712 21082880 364 21 1454 364
-0.18163726 0.68793261 -0.057054069 780 21278464 403 21 1516 403
-0.17414449 0.69395566 -0.057585172 795 21472256 415 21 1517 415
-0.1663022 0.69893348 -0.057983495 761 21665280 400 21 1466 400
-0.1581468 0.70285583 -0.058249049 766 21860096 406 21 1398 406
-0.15012528 0.70765263 -0.058647372 834 22053632 444 21 1395 444
-0.14220302 0.71333009 -0.059178475 765 22247936 413 21 1386 413
-0.13434522 0.71989352 -0.059842352 762 22442240 416 21 1416 416
-0.12567024 0.7224645 -0.059975129 862 22636800 473 21 1429 473
-0.11758175 0.72884518 -0.060639005 842 22833152 468 21 1384 468
-0.1089195 0.73219407 -0.060904555 756 23028736 422 21 1371 422
-0.10045928 0.73740411 -0.061435655 768 23224576 433 21 1379 433
-0.091645069 0.74054879 -0.061701208 792 23418880 449 21 1328 449
-0.082877912 0.744573 -0.062099535 848 23613952 485 21 1453 485
-0.074316867 0.75145233 -0.062896185 977 23810048 568 21 1357 568
-0.065174721 0.75329518 -0.063028961 1028 24005888 598 21 1423 598
-0.056144141 0.75700366 -0.063427284 1010 24200960 593 21 1404 593
-0.046728976 0.75565708 -0.063161738 1087 24397056 635 21 1394 635
-0.038422886 0.77597278 -0.065817244 900 24594176 554 21 1365 554
-0.029224973 0.78530014 -0.067012221 733 24788992 461 21 1275 461
-0.019755444 0.7925356 -0.067941651 773 24985856 495 21 1372 495
-0.010124763 0.80064696 -0.06900385 801 25182976 523 21 1398 523
-0.00029785794 0.80963123 -0.070198834 783 25378560 523 21 1374 523
0.0097480239 0.81849355 -0.07139381 820 25573888 559 21 1433 559
0.020109082 0.83119327 -0.073119886 776 25771264 547 21 1472 547
