# .PCD v0.7 - Point Cloud Data file format
VERSION 0.7
FIELDS x y z intensity t reflectivity ring noise range
SIZE 4 4 4 4 4 2 2 2 4
TYPE F F F F U U U U U
COUNT 1 1 1 1 1 1 1 1 1
WIDTH 806
HEIGHT 1
VIEWPOINT 0 0 0 1 0 0 0
POINTS 806
DATA ascii
-0.84265518 0.27807093 0.069357388 45 5470976 35 14 1169 35
-0.85146296 0.29261798 0.06985189 35 5665024 28 14 1149 28
-0.8863818 0.31685138 0.07141149 15 5859840 13 14 1079 13
-0.82529283 0.30646041 0.069091111 36 6055680 28 14 1117 28
-0.8279959 0.31908309 0.069357388 31 6249984 24 14 1128 24
-0.81010103 0.3236526 0.0687868 79 6445824 60 14 1096 60
-0.76267934 0.31559157 0.066998966 272 6640128 186 14 1150 186
-0.74405462 0.31862617 0.066390343 382 6834944 250 14 1185 250
-0.74556959 0.33016315 0.066618577 521 7030016 347 14 1162 347
-0.72510946 0.33179548 0.065933876 660 7223552 421 14 1256 421
-0.7182734 0.33938667 0.065819763 719 7418880 454 14 1212 454
-0.71136057 0.34686026 0.065705642 747 7611904 468 14 1274 468
-0.70169532 0.35286731 0.065477408 808 7805440 500 14 1272 500
-0.69376445 0.35961041 0.065325253 849 8001024 519 14 1245 519
-0.68489307 0.36574113 0.065135054 856 8194816 517 14 1233 517
-0.67772716 0.3726725 0.065020941 811 8389632 487 14 1346 487
-0.67049468 0.37948328 0.064906821 814 8583680 484 14 1252 484
-0.66406077 0.38667619 0.064830743 882 8777984 522 14 1264 522
-0.65583742 0.39274082 0.064678587 912 8974336 534 14 1295 534
-0.64501375 0.39708924 0.064412318 826 9170176 475 14 1246 475
-0.63587135 0.40230116 0.06422212 848 9366528 482 14 1303 482
-0.62837392 0.40843892 0.064108007 858 9562880 482 14 1255 482
-0.61999124 0.41389823 0.063955851 783 9759744 436 14 1368 436
-0.61156964 0.41921368 0.063803695 819 9956352 452 14 1333 452
-0 0 0 1067 10153216 0 14 1770 0
-0.35005733 0.25260279 0.052011602 7973 10350080 1493 14 4747 1493
-0.37582335 0.27831233 0.053381007 10770 10546944 2367 14 6692 2367
-0.34931907 0.26535368 0.052277874 9619 10743040 1858 14 6825 1858
-0.3570644 0.27822858 0.052810423 10059 10939648 2064 14 5979 2064
-0 0 0 6729 11137280 0 14 2642 0
-0 0 0 5228 11332352 0 14 1749 0
-0 0 0 3210 11526912 0 14 1602 0
-0 0 0 2544 11720960 0 14 1720 0
-0.37002069 0.32674319 0.05437002 1676 11914240 409 14 1686 409
-0.4163264 0.37689775 0.056956671 923 12107776 292 14 1453 292
-0.45778909 0.4248302 0.059353128 592 12300800 232 14 1301 232
-0.48003989 0.45660254 0.060798611 507 12494080 223 14 1369 223
-0.47654596 0.46455285 0.060912728 745 12687360 331 14 1346 331
-0.48352662 0.48308593 0.061597429 1157 12881408 541 14 1482 541
-0.47895759 0.49041373 0.061673507 1168 13076224 550 14 1447 550
-0.47152546 0.49480677 0.061597429 2747 13271808 1288 14 1691 1288
-0.47153819 0.50714564 0.06193978 1589 13467136 765 14 1569 765
-0.43508455 0.47957197 0.060228027 6915 13661952 2910 14 3257 2910
-0.46027389 0.52006233 0.062015858 2085 13855488 1008 14 1620 1008
-0.42318425 0.49010506 0.060228027 5135 14051328 2161 14 1820 2161
-0.44222602 0.5250839 0.061711546 1805 14248192 854 14 1562 854
-0.44145378 0.53742385 0.062053896 1461 14444288 708 14 1533 708
-0.42920664 0.53577858 0.061711546 1243 14642176 588 14 1561 588
-0.42137009 0.53942955 0.061635468 1251 14839296 588 14 1500 588
-0.41532373 0.54535514 0.061673507 1268 15035904 597 14 1415 597
-0.40979046 0.55201608 0.061749585 1391 15231232 659 14 1478 659
-0.40240023 0.55619335 0.061711546 1389 15426560 657 14 1466 657
-0.39496928 0.56027251 0.061673507 1464 15621888 689 14 1479 689
-0.38523796 0.5609569 0.061483312 1504 15816192 697 14 1459 697
-0.37610486 0.56231844 0.061331157 1572 16012032 721 14 1520 721
-0.36808634 0.56521612 0.061255079 1599 16207104 728 14 1407 728
-0.36112255 0.56969053 0.061255079 1631 16401664 745 14 1590 745
-0.3546285 0.57492995 0.061293118 1637 16596224 749 14 1533 749
-0.34754652 0.57923853 0.061293118 1633 16792576 747 14 1442 747
-0.3404122 0.58345985 0.061293118 1582 16986624 724 14 1474 724
-0.33568886 0.59194082 0.061483312 1516 17181440 703 14 1514 703
-0.32599086 0.59163821 0.061293118 1431 17376256 655 14 1503 655
-0.31588024 0.5903061 0.061064884 1436 17571328 645 14 1413 645
-0.30815238 0.59325093 0.061026845 1306 17767168 586 14 1453 586
-0.30084908 0.59698778 0.061026845 1237 17961984 555 14 1372 555
-0.29656789 0.6069212 0.061293118 1182 18157056 541 14 1413 541
-0.29251486 0.61774188 0.061597429 1017 18353408 477 14 1392 477
-0.2849122 0.62128496 0.061597429 988 18549504 463 14 1388 463
-0.27726662 0.62473452 0.061597429 1008 18745088 473 14 1432 473
-0.26957929 0.62808996 0.061597429 940 18941440 441 14 1352 441
-0.26261598 0.63319731 0.061673507 910 19140096 428 14 1395 428
-0.25519684 0.63730019 0.061711546 902 19335936 426 14 1329 426
-0.24879511 0.6441133 0.061863702 845 19531008 404 14 1366 404
-0.24156824 0.64899129 0.06193978 857 19727616 412 14 1396 412
-0.23493209 0.65567046 0.062091939 846 19922432 412 14 1375 412
-0.22751826 0.66039395 0.062168017 779 20118272 381 14 1323 381
-0.22002378 0.665034 0.062244095 836 20313088 411 14 1384 411
-0.2124496 0.66958928 0.062320173 780 20508160 386 14 1366 386
-0.20479666 0.6740585 0.062396251 757 20705024 376 14 1418 376
-0.19678771 0.67748064 0.06243429 756 20899584 377 14 1377 377
-0.18899199 0.68177074 0.062510364 757 21094400 379 14 1384 379
-0.18086596 0.68500495 0.062548406 776 21289984 390 14 1449 390
-0.17293167 0.68911159 0.062624484 781 21484544 396 14 1402 396
-0.16515455 0.69409859 0.062738597 734 21678080 374 14 1408 374
-0.15706213 0.69802308 0.062814675 782 21873152 401 14 1424 401
-0.1493119 0.70380843 0.062966831 740 22065664 384 14 1396 384
-0.14124838 0.70852804 0.063080952 732 22259456 383 14 1391 383
-0.13309141 0.71315527 0.063195065 769 22453760 406 14 1412 406
-0.12518354 0.71965772 0.063385263 763 22647552 408 14 1409 408
-0.11697734 0.72508615 0.063537419 745 22843392 403 14 1345 403
-0.10865667 0.73042095 0.063689575 746 23037952 408 14 1317 408
-0.10022261 0.73566014 0.06384173 783 23233024 433 14 1291 433
-0.091676235 0.74080169 0.063993886 738 23426304 412 14 1318 412
-0.08301869 0.74584371 0.064146042 782 23621376 442 14 1312 442
-0.074251138 0.75078422 0.064298198 749 23816448 427 14 1229 427
-0.065374777 0.75562125 0.064450353 737 24011776 425 14 1296 425
-0.056390833 0.76035297 0.064602509 728 24206336 424 14 1328 424
-0.04742289 0.76697212 0.064830743 760 24402432 450 14 1406 450
-0.038349856 0.77448285 0.065097019 752 24599552 453 14 1374 453
-0.029062901 0.78088677 0.065325253 787 24794112 482 14 1289 482
-0.019624518 0.78717846 0.065553486 785 24991232 488 14 1288 488
-0.010023918 0.79235601 0.065743685 712 25188352 448 14 1292 448
-0.00029908144 0.79841506 0.065971918 752 25383936 481 14 1299 481
0.0095976954 0.8063522 0.06627623 836 25580032 545 14 1288 545
0.019689213 0.81416547 0.066580541 753 25777664 501 14 1311 501
0.030047689 0.82384849 0.066960931 786 25973504 535 14 1321 535
0.040646724 0.8333984 0.06734132 796 26169088 556 14 1353 556
0.051423211 0.84181339 0.067683667 816 26364160 582 14 1337 582
0.062485885 0.85108453 0.068064056 825 26559232 602 14 1326 602
0.073783733 0.86020947 0.068444453 794 26755584 593 14 1347 593
0.085314818 0.86918378 0.068824843 902 26951424 690 14 1352 690
0.097077124 0.87800318 0.069205232 842 27146496 659 14 1371 659
0.109191 0.88765502 0.069623657 844 27342336 677 14 1416 677
0.1195373 0.88228756 0.069471501 984 27536384 781 14 1346 781
0.13343669 0.90151155 0.070270322 1186 27732224 988 14 1416 988
0.14305992 0.89092708 0.069927968 1436 27927040 1173 14 1442 1173
0.15466599 0.89304256 0.070080124 1427 28122624 1175 14 1506 1175
0.16652842 0.89598924 0.070270322 1652 28316416 1374 14 1477 1374
0.17926656 0.9026987 0.070612676 1387 28511232 1177 14 1475 1177
0.18846694 0.89163256 0.070270322 2225 28706048 1854 14 1578 1854
0.20114684 0.89705241 0.070574634 1409 28901632 1193 14 1448 1193
0.21029194 0.88673878 0.070270322 1611 29096448 1340 14 1502 1340
0.21970029 0.87827563 0.070042089 1169 29291776 960 14 1436 960
0.22587538 0.85812092 0.069357388 943 29486336 744 14 1455 744
0.23398921 0.84661704 0.069015034 973 29680896 752 14 1463 752
0.24157666 0.83408481 0.068634644 959 29876224 725 14 1391 725
0.24802165 0.8186267 0.068140142 981 30071808 720 14 1429 720
0.25412419 0.80313784 0.067645632 952 30266112 676 14 1487 676
0.25988454 0.78762442 0.067151122 935 30460160 645 14 1390 645
0.26595336 0.77398217 0.066732697 931 30654208 625 14 1370 625
0.27139032 0.75937033 0.06627623 862 30849536 562 14 1493 562
0.27964371 0.75317287 0.066162109 903 31044352 584 14 1411 584
0.28418869 0.73756492 0.065667607 847 31238912 530 14 1379 530
0.29136258 0.72938293 0.065477408 880 31433728 544 14 1402 544
0.29531872 0.71375138 0.064982899 823 31629568 492 14 1442 492
0.30090484 0.70272636 0.064678587 922 31824128 541 14 1451 541
0.30464515 0.68801886 0.06422212 810 32019200 459 14 1404 459
0.31015167 0.67786932 0.063955851 848 32214016 472 14 1414 472
0.31502807 0.66678596 0.063651539 855 32409600 467 14 1437 467
0.32055643 0.65748197 0.063423306 829 32604672 445 14 1428 445
0.32455617 0.64546603 0.063080952 778 32800000 407 14 1371 407
0.32969078 0.63611293 0.062852718 531 32995072 273 14 1263 273
0.35302004 0.66109985 0.064108007 105 33191168 59 14 1098 59
0.37026286 0.67335027 0.064830743 74 33385728 44 14 1131 44
0.37061584 0.65484542 0.06422212 25 33581056 14 14 1099 14
0.34691799 0.5958606 0.061825663 14 33777152 6 14 1103 6
0.37424314 0.62498355 0.063309185 10 33971968 5 14 1130 5
0.82963908 1.3468262 0.095794491 12 34167040 31 14 1118 31
0.82952845 1.3103741 0.094615281 6 34362624 15 14 1059 15
0.8711623 1.3394612 0.096403114 11 34557696 29 14 1086 29
0.89253128 1.3361471 0.096745461 41 34755584 107 14 1063 107
0.91055691 1.3275656 0.096859582 14 34951424 37 14 1097 37
0.94059116 1.3358979 0.097772516 260 35147776 696 14 1158 696
0.94988829 1.3145372 0.097316049 48 35344896 127 14 1125 127
0.54860383 0.74018615 0.070650712 72 35542272 61 14 1153 61
0.56611794 0.74453098 0.071183257 123 35740416 108 14 1214 108
0.57705647 0.73989087 0.071297377 113 35936768 100 14 1134 100
0.61981523 0.7748794 0.07335148 284 36134912 280 14 1125 280
0.64068985 0.78111786 0.074036181 341 36332544 349 14 1102 349
0.65794849 0.78237128 0.074492648 321 36528384 336 14 1134 336
0.68708336 0.79693604 0.075633824 380 36724224 421 14 1104 421
0.71071362 0.80416346 0.076432638 405 36919552 468 14 1144 468
0.74066305 0.81759161 0.077573806 348 37115648 425 14 1106 425
0.78192902 0.84211522 0.079323605 326 37309184 431 14 1163 431
0.8046084 0.84548199 0.080008306 331 37504768 452 14 1114 452
0.8330698 0.85413814 0.080997318 324 37698816 462 14 1144 462
0.85196877 0.85232896 0.081453785 364 37891840 530 14 1271 530
0.87452388 0.85367233 0.082100451 314 38086656 470 14 1119 470
0.90375268 0.8607893 0.083089463 235 38280704 367 14 1133 367
0.933285 0.86731482 0.084078476 140 38472704 228 14 1056 228
0.92830777 0.8417058 0.083279662 21 38667008 33 14 1095 33
0 0 0 5 38861312 0 14 1064 0
0 0 0 10 39055872 0 14 1021 0
0 0 0 8 39249664 0 14 1087 0
2.8186758 2.3132124 0.17438306 340 39444736 4532 14 1142 4532
2.8367071 2.2703326 0.17388855 392 39639808 5188 14 1107 5188
2.8604147 2.2322774 0.17369835 394 39834368 5198 14 1202 5198
2.880435 2.1915629 0.17335601 380 40028672 4990 14 1159 4990
2.9071119 2.1560504 0.17335601 422 40222208 5540 14 1213 5540
2.9268715 2.115531 0.1730517 451 40416512 5894 14 1182 5894
2.954246 2.080605 0.17312777 485 40612352 6343 14 1272 6343
2.9886205 2.0504129 0.1735462 586 40807424 7712 14 1267 7712
3.0094025 2.010808 0.17335601 699 41002752 9177 14 1141 9177
3.0346894 1.9742715 0.17339404 723 41199104 9492 14 1262 9492
3.0645983 1.9406242 0.17366032 677 41394944 8923 14 1207 8923
3.0864804 1.9018224 0.17358424 663 41590272 8730 14 1260 8730
3.1061575 1.8617489 0.17343208 591 41785856 7767 14 1213 7767
3.1313605 1.8250006 0.1735462 542 41981952 7136 14 1180 7136
3.1543896 1.786929 0.17358424 490 42178048 6452 14 1261 6452
3.1620727 1.7403774 0.17297561 929 42374144 12126 14 1241 12126
3.197293 1.7089783 0.17358424 474 42569728 6245 14 1148 6245
3.2144759 1.6677734 0.17343208 405 42765312 5324 14 1122 5324
3.2097065 1.615624 0.17236699 232 42961408 3004 14 1159 3004
3.2319853 1.5774289 0.1724811 178 43158272 2308 14 1186 2308
3.2610366 1.5423473 0.17289954 201 43353600 2623 14 1184 2623
3.2951634 1.5092857 0.1735462 221 43549440 2912 14 1158 2912
3.3161774 1.46995 0.17366032 208 43745536 2745 14 1127 2745
3.3174334 1.4220597 0.17297561 233 43940608 3044 14 1143 3044
3.3364809 1.3820072 0.1730517 162 44135424 2121 14 1121 2121
3.3652513 1.3457817 0.1735462 164 44331264 2163 14 1111 2163
3.402957 1.3126528 0.1744211 183 44526080 2441 14 1170 2441
3.4300494 1.2749712 0.17487757 268 44718336 3599 14 1132 3599
3.4426143 1.2317736 0.17476346 273 44912896 3660 14 1118 3660
3.4621956 1.1910596 0.17495364 236 45108224 3173 14 1157 3173
3.4793978 1.1494235 0.17506777 152 45301760 2051 14 1071 2051
6.7103367 2.1254244 0.30352545 420 45498112 20859 14 1153 20859
6.7531266 2.0481377 0.30421016 300 45692160 14983 14 1124 14983
6.8123035 1.9751279 0.30557957 230 45886464 11633 14 1326 11633
3.6606627 1.0130125 0.18016499 172 46081024 2490 14 1108 2490
3.3945224 0.89469647 0.16920976 77 46275840 957 14 1058 957
3.4217253 0.857099 0.16985641 60 46472192 750 14 1185 750
3.4689314 0.82381445 0.1713019 46 46666240 591 14 1092 591
3.5012052 0.7862165 0.17217679 51 46860800 662 14 1126 662
3.528187 0.74691552 0.1728615 43 47055104 564 14 1137 564
3.5537488 0.70687532 0.17350817 51 47250688 676 14 1089 676
3.5709972 0.66485733 0.17385052 53 47444992 704 14 1153 704
3.5838101 0.62183928 0.1740407 48 47640320 639 14 1170 639
3.6118898 0.58114493 0.17483953 37 47834624 502 14 1073 502
3.6563115 0.5423454 0.17628501 55 48029952 759 14 1077 759
3.6775448 0.49945161 0.17685559 74 48224512 1027 14 1092 1027
3.7032323 0.45672914 0.17761637 55 48420352 772 14 1117 772
3.7274292 0.41334105 0.17833911 39 48615424 555 14 1106 555
3.7531047 0.36962321 0.17913793 44 48810496 631 14 1131 631
3.782248 0.32567969 0.18008891 42 49006336 611 14 1141 611
3.8158572 0.28144324 0.18123008 57 49202688 842 14 1082 842
3.8419638 0.23600246 0.18210497 54 49398272 806 14 1136 806
3.8775072 0.19045235 0.18336026 62 49593344 943 14 1071 943
3.9065146 0.14384517 0.18438731 68 49788160 1047 14 1104 1047
3.9229703 0.096261621 0.18495791 87 49984000 1348 14 1103 1348
3.9588282 0.048538867 0.18628927 88 50179072 1388 14 1107 1388
4.1070185 -6.1831233e-05 0.19191904 69 50374912 1172 14 1111 1172
4.3115444 -0.052997451 0.19971703 202 50570496 3770 14 1091 3770
4.3545246 -0.10698657 0.20139074 251 50765312 4774 14 1165 4774
4.3748527 -0.16122679 0.20222761 239 50959872 4597 14 1074 4597
4.4134655 -0.21691562 0.20378721 259 51155968 5073 14 1117 5073
3.8409622 -0.23600838 0.18206693 295 51352320 4378 14 1206 4378
3.8377769 -0.2831251 0.18206693 153 51548160 2277 14 1051 2277
3.8320222 -0.33002752 0.18199086 138 51744256 2051 14 1117 2051
3.8247004 -0.37673333 0.18187675 287 51940096 4250 14 1170 4250
3.8197894 -0.42363992 0.18187675 313 52136960 4632 14 1218 4632
3.8053772 -0.46938083 0.18153439 156 52333568 2302 14 1130 2302
3.8122029 -0.517793 0.1820289 238 52528896 3533 14 1136 3533
3.8075387 -0.56482911 0.18210497 234 52724224 3475 14 1214 3475
3.8062401 -0.61246401 0.18233322 156 52916736 2328 14 1094 2328
3.7856386 -0.65690404 0.18183871 274 53111552 4057 14 1118 4057
3.7812216 -0.70404226 0.18199086 372 53306880 5513 14 1212 5513
3.7673969 -0.74941534 0.18180066 233 53501696 3448 14 1150 3448
3.7794237 -0.80014616 0.18263753 330 53696512 4936 14 1192 4936
3.7683451 -0.84624618 0.18259948 365 53891840 5460 14 1106 5460
3.7469823 -0.88988489 0.18218106 136 54086144 2026 14 1095 2026
3.7483809 -0.93895698 0.18267556 197 54278912 2951 14 1126 2951
3.7443063 -0.98692298 0.18297987 556 54474240 8353 14 1178 8353
3.7319133 -1.0327971 0.18297987 474 54669568 7121 14 1208 7121
3.7227969 -1.0796293 0.18313202 487 54863104 7332 14 1165 7332
3.7159615 -1.1272637 0.18339831 469 55057920 7089 14 1151 7089
3.6951804 -1.1706661 0.18313202 89 55252736 1346 14 1081 1346
3.6900244 -1.2190591 0.18351242 68 55447808 1033 14 1157 1033
3.7021885 -1.2736797 0.18461555 473 55641856 7266 14 1128 7266
3.6891022 -1.3200257 0.18472967 456 55836672 7018 14 1136 7018
3.6876116 -1.3707695 0.18533829 466 56032000 7230 14 1146 7230
5.1574965 -1.9896983 0.2460105 616 56226816 18877 14 1426 18877
5.138258 -2.0550659 0.24623872 1417 56422912 43476 14 1474 43476
5.1200376 -2.1210253 0.24654303 1414 56617216 43514 14 1461 43514
5.3342462 -2.2868738 0.25650924 1681 56813312 56746 14 1385 56746
5.0143733 -2.2229509 0.24437481 162 57009408 4892 14 1123 4892
4.9458361 -2.2655873 0.24266306 147 57204480 4368 14 1122 4368
4.8842397 -2.310298 0.24125563 135 57401088 3954 14 1176 3954
4.8079281 -2.3468263 0.23923956 163 57597440 4687 14 1071 4687
4.7261076 -2.3791366 0.23699525 142 57793536 3995 14 1090 3995
4.6859131 -2.4314303 0.23653878 120 57988608 3357 14 1171 3357
4.6425042 -2.4816835 0.2359682 81 58184448 2264 14 1046 2264
4.1792612 -2.3003936 0.21717693 13 58381824 307 14 1066 307
4.1376758 -2.3441169 0.21660635 13 58577152 304 14 1103 304
4.0999656 -2.3896832 0.21622595 18 58772224 415 14 1098 415
4.0789022 -2.4449544 0.21660635 16 58968064 374 14 1057 374
0 -0 0 8 59163136 0 14 1054 0
4.4642448 -2.827177 0.23672898 58 59359232 1635 14 1085 1635
4.4124637 -2.8708467 0.2359682 1486 59554560 41265 14 1502 41265
4.3320379 -2.8947945 0.23391409 1180 59750400 32104 14 1469 32104
3.9666159 -2.7215724 0.21869849 537 59945984 12451 14 1182 12451
3.9329195 -2.7700438 0.21869849 522 60141312 12103 14 1188 12103
3.9075384 -2.8245385 0.21911693 508 60335872 11833 14 1205 11833
3.8870289 -2.8829937 0.21980162 484 60532992 11359 14 1193 11359
3.1301157 -2.3815966 0.18530025 22 60729088 346 14 1125 346
3.0841122 -2.4069164 0.18450144 19 60922112 301 14 1002 301
1.3303136 -1.0644537 0.10043525 548 61115904 1595 14 1121 1595
1.3163785 -1.0800647 0.10039721 894 61310720 2600 14 1322 2600
1.2984381 -1.0922766 0.10016897 1096 61506304 3162 14 1301 3162
1.2841798 -1.1074754 0.10013094 1375 61699584 3963 14 1399 3963
1.2712412 -1.1238129 0.10016897 1673 61894400 4825 14 1478 4825
1.2714211 -1.1520803 0.10089172 2144 62089216 6325 14 1540 6325
1.2462068 -1.157393 0.10032113 2813 62284800 8156 14 1790 8156
1.2167133 -1.1581272 0.099522315 4202 62479616 11882 14 2382 11882
1.2159973 -1.186232 0.10024505 2689 62676224 7775 14 1855 7775
1.1533056 -1.1530111 0.097658403 1551 62870272 4135 14 1615 4135
0.87949061 -0.90098959 0.083507895 1391 63065600 2212 14 1317 2212
0.86010033 -0.90302885 0.083051428 388 63261184 605 14 1202 605
0.91015661 -0.97941345 0.086474933 73 63456512 131 14 1085 131
0.84774476 -0.93497211 0.083622009 162 63652352 259 14 1096 259
1.1201431 -1.2664827 0.09994074 1053 63849472 3020 14 1313 3020
1.0797175 -1.2513775 0.09849526 97 64046592 266 14 1122 266
0.80310732 -0.95407146 0.083051428 25 64243712 39 14 1057 39
0.98339546 -1.1979285 0.094577245 17 64439040 42 14 1084 42
1.0735071 -1.3409865 0.10096779 375 64635648 1108 14 1179 1108
1.0588144 -1.3564227 0.10108191 353 64831744 1047 14 1167 1047
1.0439042 -1.3716998 0.10119603 352 65027328 1049 14 1108 1049
1.0287783 -1.3868148 0.10131014 297 65221120 888 14 1160 888
1.0140237 -1.4025749 0.1014623 258 65417728 775 14 1108 775
1.0001873 -1.4198153 0.10169053 248 65613568 751 14 1083 751
0.98664534 -1.4377506 0.10195681 221 65809408 674 14 1137 674
0.97281319 -1.4555664 0.10222308 197 66004992 606 14 1131 606
0.95814693 -1.4724208 0.10245132 185 66201600 573 14 1097 573
0.94321299 -1.4891337 0.10267955 182 66397696 567 14 1087 567
0.92486805 -1.5005963 0.10267955 100 66592768 312 14 1133 312
0.90484285 -1.5092613 0.10256543 119 66788096 370 14 1111 370
0.88927221 -1.5254319 0.10279366 218 66983936 681 14 1137 681
0.86753118 -1.5310127 0.10256543 249 67179520 774 14 1127 774
0.84000671 -1.5257846 0.10188073 342 67374336 1039 14 1163 1039
0.82121974 -1.5359778 0.10188073 367 67568896 1116 14 1101 1116
0.79724789 -1.5361823 0.1014623 231 67764480 694 14 1180 694
0.3511582 -0.69696194 0.06528721 29 67960320 18 14 1034 18
0.34214076 -0.70032066 0.065249175 39 68156160 24 14 1125 24
0.32326946 -0.68278539 0.06433624 16 68353024 9 14 1049 9
0.32485098 -0.70850629 0.065249175 35 68547840 21 14 1163 21
0.31532237 -0.71061218 0.065173097 32 68743936 19 14 1088 19
0.30106783 -0.70156926 0.064640552 77 68939776 45 14 1137 45
0.30772805 -0.74214113 0.066162109 404 69135616 261 14 1126 261
0.29451725 -0.73565495 0.065743685 584 69332224 368 14 1309 368
0.28546745 -0.73921371 0.065743685 636 69528832 400 14 1523 400
0.27637467 -0.74266118 0.065743685 661 69724160 416 14 1831 416
0.26724026 -0.74599677 0.065743685 690 69919744 435 14 1798 435
0.25774065 -0.7482751 0.065705642 770 70114304 484 14 1572 484
0.24791205 -0.74948388 0.065629564 803 70310144 502 14 1440 502
0.23839438 -0.75151706 0.065591522 753 70504448 469 14 1485 469
0.22828424 -0.75151712 0.065477408 763 70700032 471 14 1362 471
0.21821015 -0.75138265 0.065363288 845 70895616 519 14 1351 519
0.20844026 -0.75207758 0.06528721 805 71090688 491 14 1255 491
0.19868627 -0.75264627 0.065211132 798 71284992 484 14 1248 484
0.18894978 -0.75308907 0.065135054 745 71480320 449 14 1239 449
0.17923242 -0.75340652 0.065058976 767 71673856 461 14 1343 461
0.1701923 -0.75652426 0.065097019 902 71869696 544 14 1294 544
0.16089578 -0.75855583 0.065097019 893 72064512 538 14 1224 538
0.15157501 -0.76047313 0.065097019 985 72256768 593 14 1207 593
0.14223142 -0.76227593 0.065097019 771 72450560 464 14 1237 464
0.13303715 -0.76494855 0.065135054 722 72644352 436 14 1330 436
0.12332276 -0.76455027 0.065058976 661 72838400 398 14 1326 398
0.1142243 -0.76798302 0.065135054 744 73031424 449 14 1179 449
0.10519449 -0.7722975 0.065249175 841 73226496 511 14 1215 511
0.095953718 -0.77551383 0.065325253 886 73419776 542 14 1232 542
0.08675985 -0.77961254 0.065439366 817 73616384 503 14 1197 503
0.077577621 -0.78459638 0.065591522 765 73812480 476 14 1279 476
0.068200454 -0.78847611 0.065705642 746 74008576 469 14 1323 469
0.058739714 -0.79224342 0.065819763 762 74204672 481 14 1131 481
0.04895208 -0.79190719 0.06578172 722 74402304 455 14 1211 455
0.038985856 -0.78745788 0.065591522 579 74597888 360 14 1177 360
0.029319603 -0.78787696 0.065591522 631 74796032 393 14 1250 393
0.019697761 -0.79017544 0.065667607 628 74992384 393 14 1215 393
0.010011764 -0.79135686 0.065705642 622 75187712 390 14 1230 390
0.00029919043 -0.79741579 0.065933876 169 75383552 108 14 1079 108
-0.009375005 -0.78836662 0.065591522 58 75579136 36 14 1088 36
-0.019122668 -0.79118913 0.065705642 36 75773440 23 14 982 23
-0.028830335 -0.79089487 0.065705642 44 75970048 27 14 1200 27
-0.038386237 -0.78748733 0.065591522 32 76166144 20 14 1100 20
-0.048047028 -0.78695697 0.065591522 32 76363008 20 14 1109 20
-0.057406101 -0.78232187 0.065439366 34 76559616 21 14 1058 21
-0 -0 0 6 76755712 0 14 1109 0
-1.6663485 -16.903757 0.68216562 30 76950528 8796 14 1093 8796
-1.8893137 -17.023066 0.68756717 56 77145856 16572 14 1110 16572
-2.114109 -17.128519 0.6925503 61 77340928 18281 14 1163 18281
-2.3447356 -17.252781 0.69837028 58 77536768 17710 14 1142 17710
-2.5862105 -17.424351 0.70613021 44 77731584 13786 14 1128 13786
-2.8260498 -17.554087 0.71240664 40 77926912 12772 14 1137 12772
-3.0776641 -17.727793 0.72050893 31 78122240 10212 14 1072 10212
-3.3416483 -17.939196 0.73020887 44 78317056 14800 14 1120 14800
-3.5927472 -18.053646 0.73629516 56 78511616 19091 14 1174 19091
-3.8622696 -18.235977 0.74515826 42 78706176 14747 14 1122 14747
-4.1133623 -18.310053 0.74995112 35 78902272 12516 14 1075 12516
-0.32463542 -1.3679831 0.089099623 120 79098368 238 14 1108 238
-0.34236988 -1.3677734 0.089251779 248 79294208 494 14 1126 494
-0.36804631 -1.3972878 0.090583146 50 79488768 105 14 1120 105
-5.3283887 -19.247602 0.7958262 25 79683328 10139 14 1120 10139
-5.6126308 -19.347755 0.80244493 48 79879168 19691 14 1093 19691
-5.9123135 -19.483965 0.81066138 30 80076032 12610 14 1125 12610
-6.2179866 -19.621418 0.81910604 37 80272128 15818 14 1163 15818
-0.37590107 -1.138683 0.081225552 441 80467456 635 14 1261 635
-0.38269225 -1.1131967 0.080388695 563 80662016 781 14 1277 781
-0.39430359 -1.1027718 0.080160461 564 80857600 776 14 1322 776
-0.40432391 -1.0884838 0.079780072 603 81053440 815 14 1264 815
-0.41405347 -1.0741174 0.079399683 621 81246720 825 14 1242 825
-0.42163613 -1.0550386 0.078829095 658 81440256 851 14 1244 851
-0.43110874 -1.0414764 0.078486748 648 81633792 824 14 1207 824
-0.44070634 -1.0287604 0.078182437 646 81829376 811 14 1264 811
-0.44843706 -1.0123128 0.077725969 730 82023424 897 14 1176 897
-0.45749611 -0.99946576 0.07742165 749 82216960 907 14 1199 907
-0.46716258 -0.98835659 0.077193417 743 82411776 889 14 1251 889
-0.47706407 -0.97805953 0.077003226 760 82608896 901 14 1187 901
-0.48363787 -0.96142119 0.076546758 617 82804992 716 14 1167 716
-0.51933527 -1.0015351 0.078524783 434 82999808 553 14 1267 553
-0.53959614 -1.0100676 0.079171449 371 83196160 488 14 1136 488
-0.56255305 -1.0226283 0.080008306 334 83391744 456 14 1218 456
-0.57900101 -1.022603 0.080312617 354 83585792 490 14 1176 490
-0 -0 0 297 83780608 0 14 2708 0
-0 -0 0 105 83977216 0 14 6869 0
-0 -0 0 0 84172032 0 14 8852 0
-0 -0 0 0 84367872 0 14 10443 0
-0 -0 0 0 84563712 0 14 9760 0
-0 -0 0 0 84759808 0 14 7275 0
-0 -0 0 0 84956160 0 14 4798 0
-0 -0 0 0 85151232 0 14 5283 0
-0 -0 0 7 85348352 0 14 6577 0
-0 -0 0 7 85544960 0 14 6077 0
-0 -0 0 0 85742336 0 14 4729 0
-0 -0 0 0 85938688 0 14 5819 0
-0 -0 0 0 86136576 0 14 4524 0
-0 -0 0 0 86333184 0 14 5816 0
-0 -0 0 0 86531328 0 14 7035 0
-0 -0 0 0 86725888 0 14 6967 0
-0 -0 0 0 86922240 0 14 7065 0
-0 -0 0 0 87116544 0 14 8413 0
-0 -0 0 0 87310848 0 14 8280 0
-0 -0 0 0 87504640 0 14 9265 0
-0 -0 0 0 87698688 0 14 7999 0
-0 -0 0 0 87892224 0 14 8024 0
-0 -0 0 0 88087040 0 14 7628 0
-0 -0 0 0 88280576 0 14 8033 0
-0 -0 0 0 88474624 0 14 7151 0
-0 -0 0 0 88669952 0 14 6911 0
-0 -0 0 0 88864512 0 14 6908 0
-0 -0 0 0 89058560 0 14 7267 0
-0 -0 0 0 89252608 0 14 6825 0
-0 -0 0 0 89449984 0 14 6836 0
-0 -0 0 0 89644032 0 14 6704 0
-0 -0 0 0 89837824 0 14 8727 0
-0 -0 0 0 90032128 0 14 6777 0
-0 -0 0 0 90226944 0 14 6030 0
-0 -0 0 0 90424320 0 14 5393 0
-0 -0 0 0 90619904 0 14 5097 0
-0 -0 0 0 90816768 0 14 4868 0
-0 -0 0 0 91012608 0 14 4178 0
-0 -0 0 0 91207680 0 14 3932 0
-0 -0 0 0 91402240 0 14 4577 0
-0 -0 0 1 91598336 0 14 3552 0
-0 -0 0 2 91792640 0 14 3417 0
-0 -0 0 1 91986944 0 14 3520 0
-0 -0 0 0 92182272 0 14 3555 0
-0 -0 0 3 92377856 0 14 3029 0
-0 -0 0 0 92572928 0 14 3450 0
-0 -0 0 5 92768000 0 14 2132 0
-0 -0 0 6 92963328 0 14 1353 0
-0 -0 0 5 93159680 0 14 1419 0
-0 -0 0 7 93355008 0 14 1506 0
-0 -0 0 4 93550848 0 14 1745 0
-0 -0 0 6 93745920 0 14 1627 0
-0 -0 0 5 93941504 0 14 1638 0
-0 -0 0 5 94137344 0 14 1498 0
-0 -0 0 6 94334208 0 14 1198 0
-0 -0 0 10 94530304 0 14 1126 0
-0.96091193 -0.35747367 0.074606769 16 94726144 17 14 1073 17
-0 -0 0 7 94921984 0 14 1120 0
-0 -0 0 13 95117056 0 14 1217 0
-0.84247369 -0.27862045 0.069357388 65 95313152 51 14 1191 51
-0.87726676 -0.2782166 0.070612676 251 95508992 213 14 1184 213
-0.88348365 -0.26830015 0.07072679 311 95704320 266 14 1144 266
-0.89246821 -0.2591075 0.070955023 352 95899136 304 14 1238 304
-0.89943308 -0.2492017 0.071107179 386 96093184 337 14 1261 337
-0.90435606 -0.23865466 0.071183257 374 96287232 328 14 1267 328
-0.91012466 -0.22826695 0.071297377 403 96482304 355 14 1262 355
-0.91480184 -0.21754271 0.071373455 382 96678144 338 14 1178 338
-0.9203276 -0.2069568 0.071487568 390 96871936 347 14 1257 347
-0.92670852 -0.19647481 0.071639724 365 97065984 328 14 1218 328
-0.93787068 -0.18684146 0.071982078 317 97260032 290 14 1215 290
-0.94402254 -0.17604947 0.072134234 333 97453312 308 14 1193 308
-0.95398849 -0.16581745 0.072438546 285 97647360 267 14 1234 267
-0.9589113 -0.15457396 0.072552659 253 97841152 239 14 1220 239
-0.97852856 -0.14543231 0.073237367 170 98034432 167 14 1102 167
-0.98023957 -0.1334133 0.073237367 131 98226688 128 14 1157 128
-0 -0 0 50 98421248 0 14 1205 0
-0 -0 0 16 98617600 0 14 1233 0
-0 -0 0 6 98812928 0 14 1383 0
-0 -0 0 5 99009024 0 14 1838 0
-0 -0 0 3 99204608 0 14 2066 0
-0 -0 0 5 99400192 0 14 2537 0
-0 -0 0 2 99595776 0 14 2932 0
-0 -0 0 4 99792896 0 14 2370 0
-0 -0 0 5 0 0 15 2355 0
-0 -0 0 2 197376 0 15 2717 0
-0 0 0 3 395008 0 15 2416 0
-0 0 0 4 590080 0 15 2236 0
-0 0 0 18 785664 0 15 1954 0
-0 0 0 26 982272 0 15 1456 0
-0 0 0 28 1178624 0 15 1313 0
-0 0 0 7 1373184 0 15 1300 0
-0 0 0 23 1569024 0 15 1202 0
-0 0 0 22 1765376 0 15 1090 0
-0 0 0 30 1960704 0 15 988 0
-1.0534743 0.11655588 0.050576996 226 2156544 254 15 1043 254
-1.0648655 0.13106745 0.050756235 432 2353408 498 15 1039 498
-1.0334531 0.14008485 0.050342605 592 2548224 644 15 1014 644
-1.0227547 0.15143493 0.050218519 634 2743296 678 15 1069 678
-1.0109473 0.16238479 0.050080642 635 2938880 666 15 1012 666
-0.99705654 0.17272581 0.049915187 629 3133184 645 15 1080 645
-0.98306596 0.18275066 0.049749736 616 3328768 616 15 1048 616
-0.96996194 0.19265367 0.049598072 653 3524096 640 15 1011 640
-0.95872092 0.20267729 0.049473982 630 3718400 606 15 1095 606
-0.94738132 0.21245433 0.049349893 602 3912448 568 15 1047 568
-0.93594742 0.22198388 0.049225803 616 4107776 570 15 1064 570
-0.92442364 0.23126513 0.049101718 637 4303616 579 15 1094 579
-0.91281432 0.24029729 0.048977628 624 4496384 557 15 995 557
-0.88666904 0.2450778 0.048646722 449 4691968 381 15 1082 381
-0.88263452 0.25566155 0.048632935 387 4886272 327 15 1028 327
-0.8746466 0.26502177 0.048563998 222 5080832 186 15 916 186
-0.868469 0.27482882 0.048522633 128 5275136 106 15 995 106
-0.85743576 0.28295556 0.048412334 58 5470976 48 15 909 48
-0.85011697 0.29215476 0.048357181 40 5665024 33 15 887 33
-0.84552634 0.30222806 0.048343394 24 5859840 20 15 894 20
-0.84081668 0.3122327 0.048329607 30 6055680 24 15 911 24
-0.84438473 0.32540703 0.048439909 17 6249984 14 15 964 14
-0.76420093 0.305291 0.04730932 65 6445824 44 15 949 44
-0.76132077 0.31502867 0.047323108 258 6640128 175 15 891 175
-0.74912667 0.32080105 0.047199018 366 6834944 244 15 992 244
-0.74239135 0.32875392 0.047157656 493 7030016 325 15 910 325
-0.73466498 0.33617347 0.047102503 615 7223552 402 15 983 402
-0.7178303 0.33917707 0.046909478 778 7418880 490 15 1054 490
-0.70822275 0.34532836 0.04682675 775 7611904 482 15 1013 482
-0.70125246 0.35264435 0.046785388 802 7805440 494 15 1004 494
-0.69420964 0.35984147 0.046744026 884 8001024 542 15 1117 542
-0.68709624 0.36691904 0.046702664 894 8194816 544 15 1037 544
-0.67728621 0.37242973 0.046619937 943 8389632 565 15 1066 565
-0.67005509 0.37923419 0.046578575 871 8583680 517 15 1002 517
-0.66189551 0.38541391 0.046523422 889 8777984 522 15 1084 522
-0.6528281 0.39093664 0.046454486 887 8974336 515 15 1023 515
-0.64542788 0.3973445 0.04641312 800 9170176 460 15 1131 460
-0.63712436 0.40309483 0.046357971 927 9366528 527 15 1120 527
-0.6287775 0.40870151 0.046302821 873 9562880 491 15 1185 491
-0 0 0 943 9759744 0 15 1175 0
-0.61113805 0.41891748 0.046178732 944 9956352 519 15 1148 519
-0 0 0 1154 10153216 0 15 1484 0
-0.3616299 0.26096937 0.042111371 8507 10350080 1693 15 4424 1693
-0.36803699 0.27253622 0.042276822 10034 10546944 2105 15 6383 2105
-0.37819165 0.28732628 0.042511214 10652 10743040 2407 15 6574 2407
-0.35177931 0.27410313 0.042111371 9753 10939648 1941 15 5673 1941
-0 0 0 6338 11137280 0 15 2250 0
-0 0 0 5372 11332352 0 15 1428 0
-0 0 0 3202 11526912 0 15 1462 0
-0 0 0 2500 11720960 0 15 1473 0
-0.37625271 0.33225498 0.042883478 1655 11914240 417 15 1473 417
-0.38844484 0.35162184 0.04318681 1053 12107776 290 15 1208 290
-0.43610889 0.40468594 0.044165734 612 12300800 217 15 1114 217
-0.466591 0.44379532 0.044841327 538 12494080 223 15 1144 223
-0.49975148 0.48720065 0.045585863 752 12687360 366 15 1266 366
-0.48525161 0.48481128 0.045420408 1251 12881408 589 15 1327 589
-0.47926569 0.49072957 0.045420408 1264 13076224 595 15 1322 595
-0.46493483 0.48788291 0.045254957 3145 13271808 1429 15 1467 1429
-0.47320235 0.50893748 0.045544498 1698 13467136 822 15 1310 822
-0.44476458 0.49025458 0.045089506 7171 13661952 3143 15 3514 3143
-0.46123213 0.5211463 0.045558285 2346 13855488 1138 15 1355 1138
-0.42476285 0.49193549 0.044924054 5815 14051328 2457 15 1780 2457
-0.4457289 0.52924788 0.045503136 1912 14248192 918 15 1370 918
-0.44300616 0.53931582 0.045585863 1503 14444288 732 15 1286 732
-0.42823327 0.53456211 0.045406621 1331 14642176 625 15 1297 625
-0.42287129 0.54135358 0.045434199 1282 14839296 606 15 1295 606
-0.4161962 0.54650211 0.045434199 1396 15035904 660 15 1298 660
-0.40886289 0.55076516 0.045420408 1430 15231232 673 15 1309 673
-0.3991451 0.55168879 0.045351472 1537 15426560 714 15 1288 714
-0.38831532 0.55082244 0.045254957 1668 15621888 760 15 1289 760
-0.38209224 0.55637074 0.045268744 1660 15816192 757 15 1232 757
-0.37190339 0.55602902 0.04518602 1836 16012032 823 15 1324 823
-0.36614242 0.56222737 0.045213595 1810 16207104 817 15 1347 817
-0.35761088 0.56414366 0.045172233 1888 16401664 845 15 1297 845
-0.35066104 0.56848961 0.045172233 1944 16596224 870 15 1304 870
-0.34365839 0.57274997 0.045172233 1834 16792576 819 15 1321 819
-0.33559722 0.57519615 0.045144655 1811 16986624 804 15 1238 804
-0.32703513 0.57666099 0.045103293 1755 17181440 772 15 1219 772
-0.32330829 0.58676302 0.045199808 1652 17376256 742 15 1239 742
-0.31702596 0.59245014 0.045227382 1593 17571328 721 15 1321 721
-0.3129546 0.60250914 0.045323897 1443 17767168 666 15 1225 666
-0.30463839 0.60451788 0.045296323 1401 17961984 643 15 1228 643
-0.29675859 0.60731208 0.045282532 1285 18157056 587 15 1266 587
-0.28800136 0.6081962 0.04524117 1231 18353408 558 15 1206 558
-0.28134876 0.61350286 0.045268744 1183 18549504 540 15 1212 540
-0.27460915 0.61873758 0.045296323 1092 18745088 501 15 1198 501
-0.26857102 0.62573713 0.045351472 1065 18941440 494 15 1170 494
-0.26201969 0.63175732 0.045392834 1055 19140096 494 15 1191 494
-0.25610322 0.63956743 0.045461774 954 19335936 454 15 1262 454
-0.24931474 0.64546084 0.045503136 968 19531008 464 15 1229 464
-0.24242002 0.65128362 0.045544498 935 19727616 451 15 1174 451
-0.23474626 0.65515089 0.045558285 873 19922432 423 15 1221 423
-0.22701406 0.65892786 0.045572076 901 20118272 438 15 1237 438
-0.21922445 0.66261351 0.045585863 798 20313088 389 15 1193 389
-0.21198228 0.66811359 0.045627225 821 20508160 403 15 1181 403
-0.204638 0.67353529 0.045668587 812 20705024 402 15 1189 402
-0.19719245 0.67887688 0.045709949 761 20899584 380 15 1212 380
-0.18964648 0.68413675 0.045751315 757 21094400 381 15 1185 381
-0.18200099 0.68931323 0.045792677 852 21289984 433 15 1183 433
-0.17401406 0.69343472 0.045820251 807 21484544 413 15 1200 413
-0.16618423 0.6984365 0.045861617 785 21678080 405 15 1203 405
-0.15847673 0.7043258 0.045916766 817 21873152 426 15 1199 426
-0.15044259 0.70915228 0.045958128 830 22065664 437 15 1130 437
-0.14231376 0.71388716 0.045999493 755 22259456 400 15 1157 400
-0.13390839 0.71754587 0.046027068 802 22453760 427 15 1137 427
-0.12543459 0.72110552 0.046054643 710 22647552 381 15 1134 381
-0.11689354 0.72456497 0.046082217 738 22843392 398 15 1142 398
-0.10843304 0.72891212 0.046123579 741 23037952 402 15 1182 402
-0.10001784 0.73415118 0.046178732 775 23233024 426 15 1103 426
-0.091612592 0.74028528 0.046247669 777 23426304 433 15 1167 433
-0.083291985 0.74831051 0.046344183 784 23621376 445 15 1107 445
-0.074690185 0.75524694 0.046426911 794 23816448 458 15 1183 458
-0.065844923 0.76108772 0.046495847 754 24011776 440 15 1143 440
-0.056720592 0.76483005 0.046537209 730 24206336 429 15 1133 429
-0.047453091 0.76746458 0.046564788 807 24402432 477 15 1116 477
-0.038227364 0.77198392 0.046619937 797 24599552 477 15 1141 477
-0.028971223 0.77839029 0.046702664 751 24794112 456 15 1090 456
-0.019563574 0.78468484 0.046785388 760 24991232 468 15 1103 468
-0.010066587 0.79586399 0.046937052 811 25188352 514 15 1055 514
-0.00029869835 0.80192703 0.04701978 790 25383936 508 15 1163 508
0.0096288584 0.80886912 0.047116291 780 25580032 510 15 1120 510
0.019776033 0.81768644 0.04724038 750 25777664 502 15 1175 502
0.030067204 0.82437676 0.047336895 802 25973504 546 15 1172 546
0.040673029 0.83393264 0.047474772 856 26169088 597 15 1148 597
0.051394995 0.84135491 0.047585074 829 26364160 590 15 1089 590
0.062599838 0.8526271 0.047750525 817 26559232 598 15 1119 598
0.074003048 0.86275297 0.047902189 807 26755584 606 15 1124 606
0.085565947 0.87173069 0.048040066 853 26951424 655 15 1187 655
0.097139537 0.87856543 0.048150368 866 27146496 677 15 1119 677
0.10926116 0.88822329 0.048302032 914 27342336 732 15 1187 732
0.12190358 0.89969593 0.048481271 1011 27536384 833 15 1152 833
0.13161364 0.88923067 0.048357181 1172 27732224 947 15 1242 947
0.14458232 0.90038204 0.048536424 1359 27927040 1132 15 1329 1132
0.15630472 0.90248066 0.048591573 1460 28122624 1226 15 1292 1226
0.16553646 0.8906647 0.048453696 1802 28316416 1481 15 1349 1481
0.17938152 0.90327632 0.048660509 1463 28511232 1243 15 1309 1243
0.18775901 0.88829041 0.048481271 2621 28706048 2161 15 1427 2161
0.20039906 0.89372408 0.048591573 1598 28901632 1342 15 1290 1342
0.21042678 0.88730627 0.048536424 1761 29096448 1467 15 1301 1467
0.21838279 0.87301826 0.048370969 1207 29291776 979 15 1291 979
0.22500047 0.85480297 0.048150368 1037 29486336 812 15 1200 812
0.23253855 0.84137726 0.047998704 977 29680896 745 15 1165 745
0.24228884 0.83653969 0.047971129 1046 29876224 794 15 1252 794
0.24847117 0.820108 0.0477781 967 30071808 711 15 1251 711
0.25579771 0.80841845 0.04765401 912 30266112 656 15 1240 656
0.2628752 0.79667395 0.047529921 987 30460160 696 15 1194 696
0.26872721 0.78204226 0.04736447 1002 30654208 686 15 1197 686
0.27291247 0.763623 0.047143869 892 30849536 587 15 1147 587
0.27842939 0.74990714 0.046992205 927 31044352 593 15 1176 593
0.28437129 0.73803812 0.046868116 897 31238912 561 15 1213 561
0.29043567 0.72706586 0.046757814 929 31433728 570 15 1196 570
0.29665679 0.71698076 0.046661299 911 31629568 549 15 1226 549
0.30188641 0.70501548 0.046537209 853 31824128 502 15 1199 502
0.30727288 0.69394517 0.046426911 906 32019200 522 15 1192 522
0.31201711 0.68194085 0.046302821 861 32214016 485 15 1152 485
0.31651357 0.66992587 0.046178732 836 32409600 459 15 1164 459
0.32164004 0.65970153 0.046082217 887 32604672 479 15 1159 479
0.32791272 0.65213251 0.046027068 809 32800000 431 15 1283 431
0.32621828 0.62942177 0.045737527 599 32995072 301 15 1039 301
0.34994692 0.65535194 0.046206307 99 33191168 55 15 909 55
0.36374953 0.66151941 0.046371758 84 33385728 48 15 909 48
0.35655868 0.63003737 0.045944341 18 33581056 9 15 865 9
0.36426336 0.6256144 0.045944341 15 33777152 8 15 929 8
0 0 0 10 33971968 0 15 905 0
0.83331424 1.3527893 0.057870671 11 34167040 30 15 874 30
0 0 0 11 34362624 0 15 813 0
0.88753158 1.3646166 0.058408391 15 34557696 42 15 886 42
0.91921216 1.3760684 0.058780655 50 34755584 139 15 859 139
0.93093747 1.3572645 0.058656566 23 34951424 65 15 857 65
0.95097816 1.350643 0.058739293 343 35147776 938 15 1019 938
0.96220857 1.3315785 0.058615204 56 35344896 153 15 887 153
0.97728515 1.3180643 0.058587629 71 35542272 193 15 861 193
0.55679172 0.73227602 0.048646722 160 35740416 136 15 929 136
0.5645054 0.72381181 0.048619147 134 35936768 113 15 945 113
0.60458946 0.75585967 0.049308531 239 36134912 225 15 944 225
0.64617479 0.78779978 0.050011702 356 36332544 370 15 1016 370
0.66351986 0.78899115 0.050177153 358 36528384 381 15 942 381
0.68686908 0.79668772 0.050466694 353 36724224 392 15 900 392
0.70984268 0.80317867 0.050742447 396 36919552 456 15 928 456
0.73643488 0.81292754 0.051087141 393 37115648 473 15 982 473
0.76609313 0.82507193 0.051486984 369 37309184 469 15 894 469
0.79753655 0.83805585 0.051914401 316 37504768 424 15 983 424
0.82452202 0.84537983 0.052245304 316 37698816 441 15 966 441
0.8510977 0.85145813 0.052562419 360 37891840 523 15 941 523
0.87293416 0.85212147 0.052783024 384 38086656 573 15 956 573
0.89201635 0.84961778 0.052948475 351 38280704 534 15 902 534
0.93534493 0.86922795 0.053568918 182 38472704 298 15 954 298
0.95705557 0.86775559 0.053775735 74 38667008 125 15 887 125
0.96313739 0.8519721 0.053693008 13 38861312 22 15 905 22
0 0 0 7 39055872 0 15 862 0
2.8752429 2.4192729 0.087776117 11 39249664 155 15 845 155
2.811954 2.3076973 0.086121596 308 39444736 4089 15 913 4089
2.8447456 2.2767646 0.08620432 383 39639808 5097 15 916 5097
2.8669524 2.2373784 0.086107805 450 39834368 5964 15 931 5964
2.8941927 2.2020278 0.086107805 476 40028672 6307 15 956 6307
2.9089491 2.1574125 0.085900992 455 40222208 5979 15 981 5979
2.9392569 2.1244812 0.085969932 525 40416512 6915 15 1052 6915
2.9659238 2.0888276 0.085983716 652 40612352 8591 15 1029 8591
2.9839125 2.0471835 0.085859627 798 40807424 10458 15 1111 10458
3.0146301 2.0143001 0.085956141 996 41002752 13102 15 1066 13102
3.0391216 1.9771544 0.085956141 935 41199104 12299 15 1111 12299
3.0580866 1.9365017 0.085873418 877 41394944 11497 15 1140 11497
3.0816202 1.8988285 0.085873418 841 41590272 11028 15 1056 11028
3.106405 1.8618972 0.085900992 828 41785856 10870 15 1099 10870
3.1333392 1.8261536 0.085969932 638 41981952 8403 15 1035 8403
3.1476824 1.7831304 0.085845843 519 42178048 6805 15 969 6805
3.1737075 1.7467794 0.085914783 465 42374144 6113 15 972 6113
3.2151875 1.7185405 0.086231895 580 42569728 7720 15 1004 7720
3.2191701 1.6702082 0.085969932 480 42765312 6326 15 965 6326
3.2081621 1.6148468 0.085487366 243 42961408 3145 15 966 3145
3.2358251 1.5793024 0.085611448 181 43158272 2359 15 874 2359
3.2712328 1.5471685 0.085859627 212 43353600 2787 15 941 2787
3.2990639 1.5110718 0.085997507 207 43549440 2739 15 885 2739
3.3201013 1.4716887 0.086038865 232 43745536 3072 15 940 3072
3.3268824 1.426109 0.085873418 197 43940608 2592 15 974 2592
3.3441324 1.3851756 0.085873418 183 44135424 2408 15 947 2408
3.3924463 1.3566538 0.086342201 169 44331264 2268 15 922 2268
3.429364 1.3228358 0.086645529 230 44526080 3122 15 857 3122
3.4387779 1.2782146 0.086549014 240 44718336 3241 15 974 3241
3.4570291 1.2369295 0.086590372 250 44912896 3383 15 909 3383
3.4738388 1.1950637 0.086617954 239 45108224 3237 15 969 3237
3.4853942 1.1514037 0.086576588 175 45301760 2369 15 956 2369
6.7098017 2.1252551 0.13301344 1014 45498112 50275 15 1031 50275
6.7621694 2.0508797 0.1333995 904 45692160 45179 15 1024 45179
3.6493001 1.0582479 0.088355199 661 45886464 9549 15 1690 9549
3.6610479 1.0131191 0.088341407 253 46081024 3665 15 874 3665
3.3957009 0.89500695 0.084384352 75 46275840 936 15 896 936
3.4306774 0.85934037 0.084729038 57 46472192 724 15 897 724
3.4672322 0.82341111 0.085101306 55 46666240 708 15 949 708
3.4975638 0.78539926 0.085390851 48 46860800 627 15 951 627
3.5206339 0.7453174 0.085583873 61 47055104 801 15 907 801
3.5412836 0.70439726 0.085749328 62 47250688 818 15 944 818
3.5634234 0.66344804 0.085942358 45 47444992 602 15 911 602
3.5910008 0.62308615 0.086218111 60 47640320 808 15 913 808
3.6181211 0.58214688 0.086493865 64 47834624 871 15 914 871
3.6408181 0.54004884 0.086714461 49 48029952 677 15 857 677
3.6679785 0.49815342 0.087004006 60 48224512 835 15 865 835
3.7125189 0.45787349 0.087541722 59 48420352 838 15 894 838
3.7397223 0.41470298 0.08784505 67 48615424 960 15 919 960
3.7425396 0.3685838 0.087817475 66 48810496 946 15 913 946
3.7806525 0.32554248 0.088286258 80 49006336 1164 15 941 1164
3.795332 0.27993149 0.088437922 72 49202688 1056 15 878 1056
3.8234322 0.23486598 0.088782616 83 49398272 1231 15 908 1231
3.8739643 0.19027871 0.089444421 84 49593344 1277 15 921 1277
3.889997 0.1432386 0.089637451 92 49788160 1407 15 904 1407
3.9164519 0.096102312 0.089982137 94 49984000 1456 15 932 1456
3.942332 0.04833822 0.090326831 95 50179072 1491 15 904 1491
4.073616 -5.8187561e-05 0.092133015 67 50374912 1126 15 916 1126
4.3002696 -0.05285785 0.095262818 187 50570496 3474 15 952 3474
4.3572741 -0.10705438 0.096062504 212 50765312 4044 15 940 4044
4.3886065 -0.16173488 0.096517496 227 50959872 4397 15 888 4397
4.4312325 -0.2177904 0.097137935 248 51155968 4902 15 880 4902
4.4471889 -0.2733191 0.097399905 306 51352320 6092 15 937 6092
3.8581505 -0.28463021 0.089306548 221 51548160 3318 15 993 3318
3.8364356 -0.33040807 0.089058369 291 51744256 4325 15 993 4325
3.8400526 -0.37824708 0.089168668 283 51940096 4228 15 910 4228
3.8112705 -0.42269427 0.088837765 89 52136960 1321 15 938 1321
3.8266363 -0.47200525 0.089127302 144 52333568 2153 15 933 2153
3.8195651 -0.51879376 0.089113519 391 52528896 5823 15 972 5823
3.8119221 -0.56547982 0.089099728 199 52724224 2968 15 917 2968
3.8066702 -0.61253327 0.089127302 437 52916736 6509 15 989 6509
3.7988667 -0.65920085 0.089127302 424 53111552 6316 15 975 6316
3.7924573 -0.70613539 0.089154884 105 53306880 1577 15 890 1577
3.7805643 -0.75203598 0.089113519 83 53501696 1248 15 869 1248
3.7759421 -0.79940867 0.089182459 194 53696512 2902 15 931 2902
3.7902374 -0.85116476 0.089527145 94 53891840 1432 15 907 1432
3.7610233 -0.89322102 0.089265183 354 54086144 5301 15 980 5301
3.7672372 -0.94368243 0.089513361 538 54278912 8130 15 983 8130
3.749572 -0.98831147 0.089430638 362 54474240 5458 15 889 5458
3.7294524 -1.0321157 0.089320332 112 54669568 1690 15 913 1690
3.744355 -1.0858835 0.089720175 456 54863104 6946 15 967 6946
3.733618 -1.1326218 0.08976154 454 55057920 6928 15 922 6928
3.730876 -1.1819787 0.089926988 108 55252736 1665 15 989 1665
4.3996611 -1.4535773 0.099854112 53 55447808 1138 15 846 1138
4.392838 -1.511363 0.10001956 266 55641856 5760 15 924 5760
4.3965545 -1.5732431 0.10035046 851 55836672 18571 15 1058 18571
4.3909755 -1.6323045 0.10055728 719 56032000 15799 15 955 15799
4.3780766 -1.6889453 0.10066758 677 56226816 14928 15 975 14928
5.1043649 -2.0415072 0.11176665 490 56422912 14825 15 1525 14825
5.1121831 -2.1177709 0.11226301 1719 56617216 52661 15 1510 52661
5.3394494 -2.2891049 0.1160684 1483 56813312 50088 15 1111 50088
5.0202794 -2.2255697 0.11168393 157 57009408 4762 15 904 4762
4.9562287 -2.270349 0.11113242 165 57204480 4931 15 902 4931
4.8737636 -2.305342 0.11030516 170 57401088 4967 15 928 4967
4.7974839 -2.3417273 0.10957441 142 57597440 4073 15 895 4073
4.7442727 -2.3882823 0.10920215 97 57793536 2763 15 885 2763
4.6755571 -2.4260561 0.10859549 119 57988608 3326 15 918 3326
4.6242709 -2.4719348 0.10826458 83 58184448 2306 15 914 2306
4.1538692 -2.2864144 0.10134318 9 58381824 223 15 881 223
4.1159291 -2.3317943 0.10119151 16 58577152 377 15 911 377
4.0852766 -2.3811202 0.10116394 24 58772224 558 15 876 558
4.0677552 -2.4382718 0.10135696 10 58968064 246 15 872 246
4.057106 -2.5000722 0.10167408 9 59163136 225 15 880 225
4.4712853 -2.8316364 0.10894018 76 59359232 2152 15 940 2152
4.4177623 -2.8742948 0.10863685 1208 59554560 33571 15 1260 33571
4.3547235 -2.909956 0.10818186 1004 59750400 27555 15 1244 27555
3.9526308 -2.7119751 0.10206013 564 59945984 12977 15 1054 12977
3.932132 -2.7694893 0.10228074 578 60141312 13387 15 1048 13387
3.8921778 -2.8134332 0.10218422 529 60335872 12219 15 1035 12219
1.3855219 -1.0273265 0.059745792 235 60532992 701 15 969 701
3.2076838 -2.4406276 0.09154015 16 60729088 273 15 929 273
3.1538458 -2.4613492 0.091126516 16 60922112 269 15 938 269
1.3225715 -1.0582561 0.059318375 641 61115904 1843 15 992 1843
1.3187599 -1.0820194 0.059483826 923 61310720 2687 15 1089 2687
1.2962023 -1.090395 0.059318375 1350 61506304 3878 15 1210 3878
1.2918086 -1.1140575 0.059483826 1683 61699584 4899 15 1218 4899
1.2817851 -1.1331383 0.059552766 2543 61894400 7449 15 1505 7449
1.2596344 -1.1413951 0.059401102 5329 62089216 15417 15 2874 15417
1.2521255 -1.1628923 0.059525192 8026 62284800 23446 15 4371 23446
1.2355884 -1.1761017 0.059483826 9950 62479616 28963 15 5870 28963
1.1953017 -1.1660337 0.058987472 1675 62676224 4673 15 1430 4673
