# .PCD v0.7 - Point Cloud Data file format
VERSION 0.7
FIELDS x y z intensity t reflectivity ring noise range
SIZE 4 4 4 4 4 2 2 2 4
TYPE F F F F U U U U U
COUNT 1 1 1 1 1 1 1 1 1
WIDTH 822
HEIGHT 1
VIEWPOINT 0 0 0 1 0 0 0
POINTS 822
DATA ascii
-0 -0 0 2 197120 0 13 2271 0
-0 0 0 2 393984 0 13 2355 0
-0 0 0 3 588032 0 13 1777 0
-0 0 0 16 782848 0 13 1359 0
-0 0 0 29 978432 0 13 1285 0
-0 0 0 17 1173248 0 13 1199 0
-0 0 0 11 1366272 0 13 1124 0
-0 0 0 13 1562112 0 13 1057 0
-0 0 0 26 1758208 0 13 1012 0
-0 0 0 27 1952768 0 13 885 0
-1.1337743 0.12567294 0.1069571 78 2147328 102 13 842 102
-1.0707365 0.13198473 0.10306408 297 2343680 347 13 854 347
-1.0482692 0.14228787 0.10174549 449 2537472 506 13 871 506
-1.0217645 0.151473 0.10017572 597 2731520 640 13 855 640
-1.0119463 0.16272962 0.099673398 584 2926336 616 13 865 616
-0.99512392 0.17257196 0.09873154 599 3120128 615 13 927 615
-0.98017681 0.18239222 0.097915262 600 3315200 599 13 943 599
-0.96611923 0.19206697 0.097161777 560 3511040 547 13 948 547
-0.95685524 0.20245942 0.096722245 571 3706880 549 13 934 549
-0.94358784 0.21177787 0.096031547 595 3902464 560 13 1009 560
-0.93217933 0.2212633 0.095466435 607 4098560 560 13 928 560
-0.91874534 0.23001538 0.094775736 553 4295168 499 13 955 499
-0.91199356 0.24025394 0.094524577 509 4489216 456 13 864 456
-0.89935863 0.24876282 0.093896672 395 4685568 346 13 872 346
-0.89144593 0.25838938 0.09358272 273 4881152 237 13 858 237
-0.86528867 0.26234975 0.092075743 138 5076736 113 13 792 113
-0.86485809 0.27385348 0.092264116 97 5271296 80 13 825 80
-0.86711776 0.28632599 0.092640862 40 5467648 33 13 777 33
-0.89467925 0.30766818 0.094712943 24 5663488 21 13 832 21
-0 0 0 19 5859584 0 13 734 0
-0.87189299 0.32396409 0.093708299 27 6056448 23 13 762 23
-0.83898926 0.32349625 0.09176179 51 6251776 41 13 826 41
-0.81549835 0.3259798 0.090443194 64 6448128 49 13 742 49
-0.75796366 0.31379566 0.086801343 269 6643712 182 13 777 182
-0.75313866 0.32267994 0.086738549 393 6839552 265 13 786 265
-0.74182385 0.32866019 0.086236224 490 7035392 324 13 856 324
-0.72412598 0.3315008 0.085294366 646 7228672 411 13 849 411
-0.71729714 0.33908108 0.085105993 695 7423232 440 13 876 440
-0.71128857 0.34698185 0.084980413 745 7616256 469 13 845 469
-0.70608562 0.35523537 0.084917627 769 7809280 483 13 914 483
-0.69901592 0.36249372 0.084729254 829 8004096 516 13 886 516
-0.68923467 0.36822015 0.084352508 845 8196608 518 13 839 518
-0.67941892 0.3737615 0.08397577 796 8390656 482 13 951 482
-0.67130816 0.38010219 0.083724603 831 8583424 497 13 919 497
-0.66314471 0.38630038 0.083473444 902 8776192 534 13 900 534
-0.65493071 0.3923558 0.083222277 830 8972032 486 13 934 486
-0.6449694 0.39722049 0.082845539 836 9166848 483 13 929 483
-0.63498813 0.40190026 0.082468793 835 9361664 475 13 932 475
-0.62498987 0.40639535 0.082092054 866 9556480 484 13 970 484
-0.61663705 0.41181549 0.081840888 813 9753856 449 13 1015 449
-0 0 0 840 9950208 0 13 1053 0
-0 0 0 999 10146304 0 13 1378 0
-0.34874949 0.2517533 0.062250245 8281 10342400 1541 13 4197 1541
-0.37448618 0.27742508 0.064510703 10330 10538496 2257 13 6251 2257
-0.35755393 0.2717225 0.063443266 9491 10733824 1924 13 6268 1924
-0.35025945 0.27301857 0.063129313 9558 10929920 1899 13 5477 1899
-0 0 0 6296 11127040 0 13 2208 0
-0 0 0 5298 11321856 0 13 1427 0
-0 0 0 3326 11515648 0 13 1315 0
-0 0 0 2490 11710720 0 13 1360 0
-0.36724225 0.3244037 0.06601768 1665 11906304 402 13 1406 402
-0.39280564 0.35570365 0.0685293 1029 12101120 290 13 1091 290
-0.44104415 0.4094187 0.073050216 596 12295168 217 13 985 217
-0.46489167 0.44233555 0.075561836 546 12489984 226 13 991 226
-0.48656511 0.47450081 0.077947877 734 12684544 340 13 1054 340
-0.48493868 0.48467144 0.078324623 1124 12879616 532 13 1121 532
-0.4817417 0.49344397 0.078575782 1159 13075712 554 13 1129 554
-0.46189061 0.48485824 0.077319972 2880 13272064 1299 13 1356 1299
-0.46744972 0.50292367 0.078387409 1595 13467648 756 13 1235 756
-0.43377191 0.4782953 0.075813003 5907 13662976 2476 13 2676 2476
-0.45232299 0.51125264 0.07813625 1959 13858560 917 13 1215 917
-0.42972332 0.49786732 0.076566488 4637 14055424 2017 13 1427 2017
-0.44477874 0.52830994 0.078638576 1668 14253056 800 13 1191 800
-0.4357304 0.53064162 0.078387409 1361 14449920 645 13 1208 645
-0.43043259 0.53750747 0.078512989 1174 14648064 559 13 1238 559
-0.42196277 0.54038817 0.078324623 1220 14845952 577 13 1173 577
-0.41348732 0.54314232 0.07813625 1175 15043072 551 13 1127 551
-0.406791 0.54817551 0.07813625 1223 15239168 572 13 1062 572
-0.39944899 0.5523172 0.078073457 1246 15434752 582 13 1143 582
-0.39321557 0.55799359 0.07813625 1274 15629056 596 13 1140 596
-0.38633853 0.56277692 0.07813625 1385 15823872 648 13 1110 648
-0.37940329 0.5674755 0.07813625 1442 16019968 676 13 1109 676
-0.3713229 0.5704152 0.078010671 1318 16214016 614 13 1111 614
-0.36376137 0.57408559 0.077947877 1443 16407808 671 13 1119 671
-0.35564244 0.57680666 0.077822298 1415 16601088 653 13 1163 653
-0.34802452 0.5802713 0.077759504 1324 16796672 610 13 1085 610
-0.34188208 0.58622324 0.077885084 1385 16989440 641 13 1100 641
-0.33515418 0.59124303 0.077947877 1398 17183232 648 13 1193 648
-0.32643053 0.5926879 0.077759504 1341 17377024 617 13 1104 617
-0.32195404 0.60193098 0.07813625 1199 17570048 561 13 1172 561
-0.31316504 0.6031785 0.077947877 1150 17764608 533 13 1062 533
-0.30439413 0.60430133 0.077759504 1135 17959424 523 13 1093 523
-0.29826799 0.61068225 0.077947877 1061 18153728 492 13 1066 492
-0.29117796 0.61519879 0.078010671 991 18349312 462 13 1015 462
-0.2844373 0.62054068 0.07813625 966 18544640 452 13 1053 452
-0.2768009 0.62398446 0.07813625 941 18739456 441 13 1018 441
-0.26990873 0.62916905 0.07826183 940 18935040 443 13 990 443
-0.26254919 0.63335603 0.078324623 893 19133440 422 13 1081 422
-0.25475717 0.63653022 0.078324623 962 19328256 454 13 1021 454
-0.24872139 0.64426482 0.078638576 860 19522816 412 13 1104 412
-0.24183893 0.65007526 0.078826942 865 19718912 418 13 1082 418
-0.23518714 0.65675318 0.079078108 841 19914496 412 13 1015 412
-0.22711006 0.65958983 0.079078108 859 20111872 421 13 1103 421
-0.21993716 0.66517037 0.079266481 796 20307712 392 13 1075 392
-0.21266136 0.67067379 0.079454847 739 20503808 367 13 1049 367
-0.20470458 0.67418814 0.07951764 742 20701440 370 13 1013 370
-0.19697124 0.67856663 0.07964322 759 20897024 381 13 1062 381
-0.18916118 0.68285656 0.079768799 774 21092608 391 13 994 391
-0.18127541 0.68705672 0.079894386 787 21289216 400 13 1034 400
-0.17331497 0.69116592 0.080019966 790 21484800 404 13 1086 404
-0.16528091 0.69518286 0.080145545 752 21678848 386 13 1010 386
-0.15739268 0.70008028 0.080333918 758 21874432 392 13 1022 392
-0.14920262 0.7039119 0.080459498 763 22068992 397 13 1057 397
-0.14113657 0.70862657 0.080647871 769 22264576 404 13 1047 404
-0.13279481 0.71226764 0.08077345 809 22459904 427 13 1085 427
-0.12472558 0.71777713 0.08102461 775 22654976 414 13 992 414
-0.11654102 0.7231952 0.081275776 757 22851584 408 13 1050 408
-0.10824217 0.72851998 0.081526935 734 23047168 401 13 999 401
-0.099830098 0.73374933 0.081778102 734 23243264 405 13 976 405
-0.091305897 0.73888141 0.082029261 762 23437568 425 13 992 425
-0.082670704 0.74391413 0.08228042 756 23632128 425 13 977 425
-0.073828138 0.74785239 0.082468793 769 23826432 437 13 980 437
-0.065157354 0.75466824 0.082845539 794 24021504 458 13 966 458
-0.056330331 0.76138306 0.083222277 783 24215552 458 13 1051 458
-0.047287334 0.76699781 0.08353623 755 24411136 448 13 944 448
-0.038114969 0.77250457 0.083850183 745 24607488 448 13 1023 448
-0.028814539 0.77790093 0.084164135 725 24801024 442 13 918 442
-0.019435797 0.78518009 0.084603675 748 24997376 464 13 929 464
-0.0098827155 0.79234517 0.085043207 814 25193984 514 13 999 514
-0.00015641347 0.80039096 0.085545532 795 25388544 512 13 957 512
0.009740809 0.80632031 0.085922271 855 25583872 559 13 981 559
0.019808296 0.81312412 0.086361803 806 25780480 536 13 1025 536
0.030044211 0.81980115 0.086801343 804 25974528 545 13 986 545
0.040693212 0.8313325 0.087554827 839 26170368 584 13 941 584
0.051445216 0.83973569 0.088119939 792 26364928 563 13 1018 563
0.062630616 0.85098475 0.088873424 836 26558976 611 13 1013 611
0.074099712 0.86208397 0.089626916 914 26754304 687 13 1050 687
0.085359961 0.86806214 0.090066448 859 26949120 657 13 934 657
0.097439714 0.87984413 0.090882726 865 27143424 681 13 1048 681
0.10908657 0.88551557 0.091322258 906 27337984 724 13 1044 724
0.11994499 0.88411021 0.091322258 1028 27531008 823 13 1062 823
0.13342632 0.90034103 0.092452489 1294 27726080 1077 13 1107 1077
0.14446485 0.89863586 0.092452489 1406 27920128 1172 13 1184 1172
0.15548162 0.89679545 0.092452489 1471 28116992 1226 13 1098 1226
0.16684088 0.8967821 0.092578068 1714 28312576 1433 13 1130 1433
0.17841816 0.89760357 0.092766441 1379 28508160 1160 13 1211 1160
0.18817782 0.88948858 0.092389695 2222 28704256 1846 13 1279 1846
0.20039272 0.89295465 0.092766441 1561 28900608 1314 13 1208 1314
0.21133557 0.8904283 0.092766441 1613 29096448 1358 13 1157 1358
0.2181194 0.87131101 0.091699004 1127 29292544 915 13 1150 915
0.22497575 0.85409379 0.090757146 1013 29488384 795 13 1132 795
0.23250881 0.84068888 0.090066448 974 29683968 745 13 1129 745
0.2405819 0.83010471 0.089564122 997 29879552 748 13 1145 748
0.24843059 0.81945014 0.089061797 932 30075648 688 13 1098 688
0.25545099 0.80682641 0.088433892 951 30271488 684 13 1114 684
0.26157278 0.79226011 0.087680407 955 30467072 668 13 1063 668
0.26770103 0.77861041 0.086989708 944 30662400 644 13 1116 644
0.27353424 0.76493114 0.086299017 876 30858496 581 13 1030 581
0.28011653 0.75403374 0.085796691 956 31054080 622 13 1049 622
0.28611356 0.74216008 0.08523158 874 31249920 556 13 999 556
0.29223269 0.73118055 0.084729254 915 31445504 570 13 1025 570
0.29545054 0.71371013 0.083787397 813 31642112 488 13 1063 488
0.30064535 0.70177609 0.083222277 809 31837184 475 13 1027 475
0.30599698 0.69073552 0.082719959 837 32031488 480 13 1030 480
0.30987582 0.67694867 0.082029261 805 32226048 448 13 1025 448
0.31645182 0.6694867 0.081778102 899 32421632 496 13 1029 496
0.32070157 0.65748191 0.081212983 825 32615680 444 13 1071 444
0.32694983 0.64993161 0.080961823 789 32809984 420 13 1038 420
0.32800263 0.6325841 0.080019966 506 33004032 259 13 890 259
0.34845006 0.65227264 0.081715308 100 33199360 55 13 754 55
0.3617245 0.65756375 0.082406007 89 33392896 50 13 755 50
0.38010219 0.67130816 0.083724603 36 33586944 21 13 765 21
0.44864628 0.77004826 0.091259465 12 33782272 9 13 814 9
0 0 0 9 33975040 0 13 740 0
0 0 0 11 34168832 0 13 796 0
0.76247245 1.2040367 0.1248524 11 34364416 22 13 793 22
0.82347172 1.2656847 0.13018958 8 34558720 18 13 740 18
0.84282458 1.2612919 0.13062912 14 34756096 33 13 735 33
0.86840641 1.2656646 0.13175935 17 34951168 40 13 755 40
0.86662555 1.2304384 0.12987563 22 35147008 50 13 776 50
0.70912266 0.98114669 0.11135244 20 35343360 29 13 788 29
0.54863161 0.73994917 0.09314318 110 35540224 93 13 767 93
0.55827516 0.73395497 0.093205974 111 35737856 94 13 786 94
0.5795247 0.74278116 0.094461784 163 35932928 145 13 811 145
0.62602699 0.78235477 0.098229215 317 36129792 320 13 776 320
0.64254749 0.78309786 0.098919913 325 36327936 335 13 847 335
0.6578939 0.78202516 0.099485025 309 36524288 324 13 786 324
0.68961239 0.79958093 0.1016199 372 36720640 417 13 759 417
0.72119612 0.81572461 0.10369199 399 36916992 475 13 783 475
0.75461751 0.83268845 0.10588966 331 37113856 420 13 794 420
0.78991932 0.85041302 0.10821291 303 37308672 410 13 825 410
0.81062144 0.85149485 0.10915477 318 37505024 441 13 798 441
0.83286196 0.85362321 0.11022221 376 37700096 537 13 836 537
0.85456914 0.8546266 0.11122685 385 37894656 565 13 836 565
0.87642461 0.85522407 0.1122315 330 38089728 497 13 764 497
0.9273423 0.88293123 0.11574777 127 38284288 209 13 791 209
0.92128515 0.85586667 0.11430359 31 38478592 49 13 773 49
2.0893164 1.8930843 0.21257076 8 38674432 66 13 710 66
0 0 0 8 38869760 0 13 765 0
0 0 0 8 39065344 0 13 737 0
2.8244116 2.3756661 0.26738688 22 39260416 303 13 779 303
2.8170838 2.3110802 0.26443571 415 39456256 5535 13 772 5535
2.8405561 2.2725956 0.26405898 446 39652608 5929 13 757 5929
2.8611476 2.2320426 0.26349387 433 39848192 5726 13 826 5726
2.8859396 2.1949515 0.26330549 406 40043008 5362 13 826 5362
2.9182701 2.1635313 0.26374501 412 40236544 5461 13 844 5461
2.9259927 2.1141152 0.26230085 435 40430848 5694 13 783 5694
2.9500837 2.0769007 0.26217526 409 40626688 5348 13 835 5348
2.9778175 2.0422354 0.26236364 478 40820992 6270 13 865 6270
3.0101247 2.0105274 0.26292875 526 41015296 6920 13 853 6920
3.0245295 1.9669091 0.26217526 489 41210624 6406 13 882 6406
3.0501256 1.9307127 0.26230085 486 41405696 6372 13 861 6372
3.0718889 1.8920909 0.26217526 490 41600000 6407 13 847 6407
3.1000137 1.8573288 0.26255199 469 41794560 6163 13 863 6163
3.1294718 1.8231654 0.26305434 478 41989888 6298 13 810 6298
3.1481352 1.782658 0.26280317 485 42184192 6385 13 880 6385
3.1697741 1.7438912 0.26280317 494 42379008 6504 13 858 6504
3.2094221 1.7147365 0.26412177 434 42574848 5770 13 818 5770
3.2249069 1.6724665 0.26374501 408 42769664 5409 13 817 5409
3.1988251 1.6094456 0.26047993 266 42965248 3426 13 834 3426
3.226408 1.5740073 0.26104504 242 43161344 3132 13 815 3132
3.2761595 1.5487953 0.2631799 233 43355648 3076 13 761 3076
3.294919 1.5084752 0.2631799 277 43550464 3654 13 822 3654
3.302232 1.4630777 0.26242644 213 43745792 2791 13 839 2791
3.3034241 1.4153708 0.26129618 251 43939840 3257 13 823 3257
3.3260772 1.3770162 0.26167294 221 44133120 2877 13 825 2877
3.3686745 1.3464653 0.26343107 230 44327680 3043 13 744 3043
3.3914628 1.3075377 0.2638706 199 44523008 2642 13 781 2642
3.4222224 1.2713802 0.26487526 277 44717568 3709 13 796 3709
3.4648201 1.2390313 0.26669618 265 44913152 3616 13 867 3616
3.4552245 1.1879849 0.26506361 273 45109248 3663 13 761 3663
3.5055568 1.1573807 0.26744968 181 45303808 2479 13 785 2479
3.624162 1.1474004 0.27435663 31 45500928 452 13 781 452
6.7822709 2.0556798 0.48106301 33 45696256 1674 13 771 1674
3.6780703 1.065889 0.27611476 137 45891328 2020 13 763 2020
3.63989 1.0065798 0.27278686 180 46087168 2581 13 763 2581
3.4000666 0.89551967 0.25639853 78 46281984 971 13 767 971
3.4359727 0.86002606 0.2580311 59 46478848 747 13 721 747
3.4783137 0.82539743 0.26010317 58 46674688 748 13 729 748
3.5115528 0.7878924 0.26161015 46 46870528 600 13 788 600
3.5326746 0.74721807 0.26236364 44 47066112 580 13 715 580
3.5494092 0.70536584 0.26286596 64 47262464 844 13 756 844
3.5891969 0.66759282 0.26487526 56 47457792 752 13 758 752
3.6197367 0.62741554 0.26631942 48 47653888 654 13 729 654
3.6222365 0.58215725 0.26600549 37 47849472 504 13 735 504
3.6389804 0.53912461 0.26663339 41 48045568 559 13 773 559
3.6700468 0.49777898 0.26820314 53 48240896 735 13 695 735
3.6798413 0.45319194 0.26845431 56 48435712 775 13 769 775
3.714885 0.4112922 0.27033803 47 48630528 663 13 727 663
3.754416 0.36908785 0.27253571 53 48825600 759 13 801 759
3.7944601 0.32606006 0.27479616 44 49020160 642 13 798 642
3.8210685 0.2811538 0.27624035 52 49215744 771 13 726 771
3.8491349 0.23576517 0.2778101 52 49410560 780 13 755 780
3.8726721 0.18953507 0.2791287 60 49604352 910 13 714 910
3.9026325 0.1430178 0.28088683 62 49798144 952 13 754 952
3.9340255 0.095842019 0.28277054 63 49992960 983 13 755 983
3.9848032 0.048156474 0.28591007 75 50186752 1197 13 823 1197
4.1527624 -0.00079437281 0.29645887 64 50380800 1110 13 802 1110
4.3260832 -0.053935383 0.30738443 237 50575360 4456 13 802 4456
4.3530316 -0.10771274 0.30914256 292 50769920 5561 13 837 5561
4.3882837 -0.16249266 0.31146583 291 50963456 5637 13 798 5637
4.4118762 -0.21761201 0.31309837 313 51159040 6134 13 793 6134
4.448719 -0.27419543 0.31560999 322 51354368 6426 13 806 6426
4.4818454 -0.33149436 0.31793323 306 51549184 6209 13 824 6209
4.5201955 -0.39016268 0.32063323 255 51744512 5272 13 794 5272
4.5528088 -0.44933105 0.32301927 391 51939584 8218 13 834 8218
4.5896044 -0.50990951 0.32571927 444 52135680 9510 13 828 9510
4.645402 -0.57390696 0.32967508 442 52331008 9747 13 862 9747
4.6607542 -0.63396567 0.33111924 545 52525568 12110 13 782 12110
4.7276497 -0.70226336 0.33589134 334 52722176 7677 13 958 7677
7.5780401 -1.2211336 0.51810944 361 52916736 21357 13 850 21357
5.2094836 -0.90506399 0.3678517 152 53112320 4269 13 811 4269
5.2333045 -0.97551066 0.37011215 171 53308672 4871 13 785 4871
5.2972856 -1.0548666 0.37500983 174 53504512 5105 13 724 5105
5.3444743 -1.1326257 0.37890282 248 53700096 7438 13 776 7438
5.3954115 -1.2127947 0.38310981 396 53896192 12162 13 808 12162
5.4558568 -1.2969218 0.38800746 631 54091520 19926 13 829 19926
5.2265601 -1.3103653 0.37419355 961 54285824 28041 13 930 28041
5.1618366 -1.3616728 0.37105402 1228 54481152 35163 13 908 35163
5.6092873 -1.5536138 0.40138185 294 54676992 10005 13 821 10005
5.6578498 -1.6420865 0.40583998 228 54872576 7950 13 796 7950
5.3039885 -1.6101894 0.38392606 635 55068672 19617 13 948 19617
5.2705107 -1.6709328 0.38304701 1315 55264512 40382 13 1058 40382
3.7969909 -1.255147 0.28678915 566 55460096 9092 13 798 9092
3.7529929 -1.2918993 0.28490543 380 55655680 6014 13 792 6014
3.7293401 -1.3351651 0.28440312 521 55851264 8213 13 795 8213
3.7061269 -1.3783934 0.28396356 540 56047360 8481 13 776 8481
3.6880019 -1.4234101 0.28390077 481 56243200 7547 13 820 7547
3.6637707 -1.4659643 0.28346124 518 56439296 8100 13 826 8100
3.6196907 -1.5001128 0.28170311 412 56632320 6354 13 794 6354
3.6211874 -1.5530754 0.28308451 588 56828160 9167 13 812 9167
3.6018562 -1.597396 0.28308451 678 57024000 10570 13 810 10570
3.5602083 -1.6314952 0.28157753 414 57217792 6379 13 753 6379
3.5498421 -1.6797583 0.28226823 589 57413632 9125 13 778 9125
3.5110261 -1.7144338 0.28101242 515 57609472 7896 13 805 7896
3.4888318 -1.7569413 0.28094962 342 57804544 5242 13 797 5242
4.6875825 -2.4333386 0.36747497 112 57998592 3142 13 786 3142
4.6283274 -2.4751456 0.36540288 113 58193664 3133 13 741 3133
4.1718674 -2.2972751 0.33482391 24 58390272 551 13 758 551
4.1346798 -2.3433757 0.334196 25 58584064 570 13 784 570
4.1004386 -2.3909214 0.33381924 31 58777344 707 13 748 707
4.0904751 -2.4528666 0.33526343 8 58973184 188 13 746 188
4.1458688 -2.5557816 0.34160528 32 59167488 767 13 757 767
4.4396048 -2.8126593 0.3658424 127 59362816 3528 13 745 3528
4.3855176 -2.8544052 0.36439824 539 59557120 14843 13 903 14843
4.355967 -2.9118903 0.36483777 1158 59751936 31932 13 1102 31932
4.156168 -2.8527205 0.35234246 292 59946496 7471 13 935 7471
4.1600065 -2.9311035 0.3553564 621 60141056 16166 13 993 16166
4.1431327 -2.9959695 0.35686338 1192 60334080 31307 13 1002 31307
3.2036185 -2.3768966 0.28616124 691 60530432 11059 13 869 11059
3.1829443 -2.4226809 0.28685194 725 60726016 11653 13 826 11653
3.1576941 -2.4652436 0.28722867 557 60920832 8991 13 866 8991
1.3300056 -1.0645918 0.14237095 410 61116416 1197 13 875 1197
1.3137561 -1.0782993 0.1421198 684 61312000 1985 13 838 1985
1.3011882 -1.0949827 0.14218257 889 61508608 2584 13 927 2584
1.2868975 -1.1102158 0.1421198 995 61703168 2889 13 982 2889
1.2694393 -1.1226177 0.14180584 1156 61898752 3335 13 1028 3335
1.2651783 -1.146827 0.14262211 1492 62094592 4369 13 1043 4369
1.2436996 -1.1554717 0.14199421 1844 62291200 5342 13 1146 5342
1.2402658 -1.1809726 0.14293607 2203 62486784 6489 13 1249 6489
1.2128259 -1.1835539 0.14180584 1952 62683136 5630 13 1182 5630
1.196094 -1.1962303 0.14161746 1040 62878208 2993 13 987 2993
1.179234 -1.2086747 0.1414291 1098 63075072 3149 13 1001 3149
1.162937 -1.2216086 0.14130351 1222 63271680 3494 13 1027 3494
0 -0 0 85 63467776 0 13 805 0
0 -0 0 27 63664384 0 13 802 0
0.83299941 -0.94201171 0.11430359 16 63862016 25 13 781 25
1.1178864 -1.2960973 0.14287327 168 64059904 494 13 807 494
1.0980431 -1.3051348 0.14249653 551 64257536 1610 13 825 1610
1.0832102 -1.3200545 0.14262211 549 64453632 1608 13 827 1608
1.0731636 -1.3410416 0.14325002 451 64650496 1336 13 853 1336
1.0590813 -1.3572577 0.14350118 375 64846592 1117 13 822 1117
1.0459706 -1.3749187 0.14387792 326 65043200 978 13 797 978
1.0349623 -1.3956687 0.14450583 240 65238272 728 13 790 728
1.0212638 -1.4131185 0.14488257 209 65434368 639 13 752 639
1.006718 -1.4296252 0.14519653 213 65629440 654 13 765 654
0.9930492 -1.4476334 0.14563605 175 65824512 543 13 707 543
0.9768725 -1.4622005 0.14582443 207 66019072 643 13 754 643
0.96375155 -1.4816087 0.14638954 155 66214656 487 13 738 487
0.94496369 -1.4924805 0.14632675 173 66410240 542 13 759 542
0.91297138 -1.4818689 0.14469419 76 66604288 232 13 760 232
0.90087193 -1.503235 0.14544769 111 66797312 342 13 776 342
0.88537091 -1.5193514 0.14582443 179 66991616 556 13 790 556
0.86272603 -1.5231538 0.1453221 228 67187456 702 13 755 702
0.84156471 -1.5292537 0.14500815 249 67381248 762 13 773 762
0.81991374 -1.534184 0.14463142 290 67574528 881 13 775 881
0.79597205 -1.5343838 0.14394072 126 67769088 378 13 780 378
0.35282901 -0.70059294 0.084540881 28 67964160 17 13 717 17
0.34245512 -0.70128185 0.084289722 45 68158976 27 13 767 27
0.33339706 -0.70452917 0.084226929 45 68355072 27 13 758 27
0.32431096 -0.7076599 0.084164135 48 68548608 29 13 723 29
0.31600663 -0.7124989 0.084226929 36 68743424 22 13 739 22
0.30448872 -0.70990127 0.083787397 67 68937728 40 13 722 40
0.30720422 -0.74124932 0.085671112 279 69133056 180 13 737 180
0.29030806 -0.725501 0.084352508 502 69330176 308 13 808 308
0.28138319 -0.72900891 0.084352508 686 69527296 422 13 951 422
0.27241594 -0.73240703 0.084352508 736 69723392 451 13 1039 451
0.26273572 -0.73381525 0.084226929 757 69919744 463 13 982 463
0.2533865 -0.73604035 0.084164135 797 70115328 486 13 1081 486
0.24433509 -0.73909438 0.084164135 740 70311936 451 13 1039 451
0.23524687 -0.74203706 0.084164135 834 70507264 509 13 979 509
0.22612321 -0.74486804 0.084164135 782 70703872 476 13 955 476
0.21613242 -0.74471098 0.08397577 761 70899200 461 13 982 461
0.20671147 -0.74634528 0.083912976 723 71095040 436 13 930 436
0.19702893 -0.74689543 0.083787397 730 71290880 438 13 917 438
0.18784854 -0.74925703 0.083787397 782 71487488 469 13 920 469
0.17863986 -0.75150585 0.083787397 806 71682048 483 13 908 483
0.17005946 -0.75656295 0.08397577 955 71878656 577 13 939 577
0.16014318 -0.75566351 0.083787397 795 72074496 477 13 928 477
0.15085797 -0.75757182 0.083787397 769 72268288 462 13 954 462
0.14155003 -0.75936604 0.083787397 771 72463104 463 13 976 463
0.13222079 -0.76104587 0.083787397 697 72657920 419 13 995 419
0.12334642 -0.76556736 0.08397577 753 72852736 456 13 938 456
0.11481941 -0.77294695 0.084352508 892 73046272 547 13 891 547
0.10532552 -0.77429777 0.084352508 892 73242624 548 13 902 548
0.096059538 -0.77751309 0.084478088 868 73436672 536 13 956 536
0.08684019 -0.78160924 0.084666461 764 73632256 475 13 886 475
0.077144563 -0.78162283 0.084603675 771 73827584 478 13 962 478
0.067461692 -0.78151625 0.084540881 789 74022656 489 13 862 489
0.057866208 -0.78228527 0.084540881 709 74217984 439 13 887 439
0.048322923 -0.78393263 0.084603675 743 74415104 461 13 871 461
0.038796604 -0.78646028 0.084729254 702 74609664 438 13 938 438
0.029251959 -0.78986925 0.084917627 700 74807296 439 13 827 439
0.019556846 -0.79016876 0.084917627 544 75002112 342 13 906 342
0.0098587871 -0.79034925 0.084917627 585 75195904 367 13 883 367
0.00016292378 -0.77743638 0.084101349 149 75391744 90 13 725 90
-0.0095027322 -0.7873593 0.084729254 51 75586560 31 13 733 31
-0.01926323 -0.79117429 0.084980413 36 75779584 22 13 796 22
-0.028859653 -0.78788632 0.08479204 38 75975168 23 13 754 23
-0.038624562 -0.78946644 0.084917627 73 76170496 46 13 729 46
-0.048125174 -0.78594464 0.084729254 45 76366592 28 13 746 28
-0.057840005 -0.78629017 0.08479204 56 76562688 35 13 724 35
-0 -0 0 7 76757760 0 13 778 0
-1.6690757 -16.90118 1.1036938 9 76950784 2737 13 662 2737
-1.8902495 -17.004406 1.1116054 65 77144320 19136 13 807 19136
-2.1164103 -17.122559 1.1206472 37 77338624 11136 13 743 11136
-2.3488483 -17.260447 1.1311333 59 77534720 18045 13 756 18045
-2.5886543 -17.419861 1.1431891 53 77729024 16563 13 774 16563
-2.8352633 -17.591728 1.1562495 43 77925120 13745 13 806 13745
-3.0856206 -17.755217 1.168996 35 78121216 11493 13 750 11493
-3.3341918 -17.881823 1.1796075 35 78316800 11749 13 697 11749
-3.5954947 -18.05098 1.1931703 36 78512640 12273 13 820 12273
-3.8643425 -18.230055 1.2076122 43 78708224 15065 13 766 15065
-4.137682 -18.403267 1.2219284 46 78904832 16517 13 754 16517
-4.413538 -18.562773 1.2356167 40 79100928 14680 13 786 14680
-4.7094622 -18.780205 1.2533236 32 79297280 12122 13 767 12122
-5.0065389 -18.974792 1.2698375 35 79493376 13618 13 760 13618
-5.301363 -19.136986 1.2845305 30 79689472 11968 13 758 11968
-5.5934005 -19.26889 1.2975281 30 79886080 12171 13 808 12171
-0.54711282 -1.803069 0.15373604 53 80083456 189 13 811 189
-0.57070643 -1.800976 0.15404999 36 80280064 129 13 826 129
-0.37405881 -1.1324362 0.11022221 410 80476416 587 13 871 587
-0.3837032 -1.1154932 0.10940593 523 80672000 732 13 938 732
-0.39534417 -1.105063 0.10902918 528 80868352 732 13 911 732
-0.40574327 -1.0917099 0.10846407 579 81064704 791 13 917 791
-0.41551518 -1.077338 0.10783616 606 81258496 813 13 871 813
-0.42425433 -1.0610391 0.10708268 620 81453312 813 13 852 813
-0.43151012 -1.0419236 0.10614082 670 81648896 857 13 875 857
-0.44072235 -1.0282953 0.1055757 668 81845248 840 13 829 840
-0.44966564 -1.0145988 0.10501059 682 82039552 844 13 856 844
-0.4579238 -0.99993181 0.10438269 707 82232064 859 13 808 859
-0.46759823 -0.98882455 0.10400594 702 82425600 843 13 762 843
-0.47619337 -0.97583777 0.10350361 694 82621952 822 13 834 822
-0.48409176 -0.96189862 0.1029385 555 82817280 647 13 857 647
-0.51425451 -0.99131596 0.10545012 433 83010560 542 13 820 542
-0.53626579 -1.0034117 0.10676873 376 83205376 489 13 846 489
-0.56009436 -1.0177362 0.1082757 348 83399424 471 13 825 471
-0.57844746 -1.0212051 0.10902918 360 83593216 498 13 1178 498
-0 -0 0 197 83787264 0 13 4076 0
-0 -0 0 39 83983104 0 13 7806 0
-0 -0 0 0 84176896 0 13 9484 0
-0 -0 0 0 84371712 0 13 9363 0
-0 -0 0 0 84566528 0 13 7095 0
-0 -0 0 1 84761856 0 13 4057 0
-0 -0 0 2 84957440 0 13 4419 0
-0 -0 0 0 85150976 0 13 5745 0
-0 -0 0 0 85346560 0 13 5967 0
-0 -0 0 0 85542656 0 13 5180 0
-0 -0 0 0 85740544 0 13 4651 0
-0 -0 0 0 85935872 0 13 4333 0
-0 -0 0 0 86133504 0 13 5784 0
-0 -0 0 0 86330112 0 13 8201 0
-0 -0 0 0 86528256 0 13 7563 0
-0 -0 0 0 86723840 0 13 5813 0
-0 -0 0 0 86920704 0 13 7382 0
-0 -0 0 0 87116288 0 13 7046 0
-0 -0 0 0 87310848 0 13 7024 0
-0 -0 0 0 87505152 0 13 9417 0
-0 -0 0 0 87701248 0 13 10013 0
-0 -0 0 0 87896320 0 13 8688 0
-0 -0 0 0 88091904 0 13 8121 0
-0 -0 0 0 88286720 0 13 7932 0
-0 -0 0 0 88481792 0 13 8175 0
-0 -0 0 0 88677632 0 13 8584 0
-0 -0 0 0 88873472 0 13 9198 0
-0 -0 0 0 89068544 0 13 8506 0
-0 -0 0 0 89263360 0 13 8527 0
-0 -0 0 0 89460480 0 13 7737 0
-0 -0 0 0 89656064 0 13 9302 0
-0 -0 0 0 89851648 0 13 6079 0
-0 -0 0 0 90046976 0 13 7227 0
-0 -0 0 0 90242304 0 13 5998 0
-0 -0 0 0 90439424 0 13 5868 0
-0 -0 0 0 90634496 0 13 5521 0
-0 -0 0 0 90830592 0 13 5040 0
-0 -0 0 0 91025664 0 13 4237 0
-0 -0 0 0 91219456 0 13 3844 0
-0 -0 0 0 91411968 0 13 3817 0
-0 -0 0 2 91606784 0 13 3765 0
-0 -0 0 2 91800576 0 13 3230 0
-0 -0 0 0 91993856 0 13 2858 0
-0 -0 0 1 92188160 0 13 2712 0
-0 -0 0 2 92382976 0 13 2859 0
-0 -0 0 5 92576512 0 13 2013 0
-0 -0 0 2 92770560 0 13 2015 0
-0 -0 0 2 92964864 0 13 2393 0
-0 -0 0 3 93160192 0 13 1458 0
-0 -0 0 4 93353984 0 13 926 0
-0 -0 0 7 93548032 0 13 859 0
-0 -0 0 5 93742336 0 13 1665 0
-0 -0 0 5 93938176 0 13 1360 0
-0 -0 0 4 94133248 0 13 938 0
-0 -0 0 5 94330112 0 13 886 0
-0 -0 0 16 94526720 0 13 773 0
-0.88397229 -0.3287054 0.094524577 34 94723328 30 13 797 30
-0.87854159 -0.31447336 0.093896672 32 94919680 28 13 772 28
-0.86912084 -0.29912701 0.0930176 20 95115776 17 13 768 17
-0.83292097 -0.27530169 0.0903804 15 95312640 11 13 780 11
-0.90093929 -0.28553727 0.094650157 171 95508480 154 13 859 154
-0.88336253 -0.26809216 0.093268767 301 95704320 258 13 905 258
-0.89137894 -0.25862023 0.09358272 337 95900928 292 13 885 292
-0.89833331 -0.24872583 0.093833879 407 96096256 355 13 827 355
-0.90517849 -0.23869953 0.094085038 420 96291328 370 13 899 370
-0.91191226 -0.22854252 0.094336204 430 96487424 382 13 887 382
-0.91756141 -0.21802573 0.094524577 449 96683776 402 13 919 402
-0.92406321 -0.20762299 0.094775736 419 96878592 378 13 894 378
-0.93044728 -0.19709338 0.095026895 418 97073664 380 13 924 380
-0.93866926 -0.18682709 0.095403641 390 97268480 359 13 855 359
-0.94579732 -0.17620611 0.095717594 346 97462784 322 13 877 322
-0.95378876 -0.16560853 0.09609434 339 97657344 319 13 819 319
-0.95771998 -0.15420814 0.09621992 248 97852416 235 13 887 235
-0.96250206 -0.14288232 0.096408293 219 98047488 208 13 850 208
-0.97209483 -0.13213244 0.096910611 131 98240000 126 13 848 126
-0.98552978 -0.12165606 0.097664103 49 98434048 48 13 812 48
-0 -0 0 8 98629632 0 13 833 0
-0 -0 0 4 98824192 0 13 1073 0
-0 -0 0 4 99019264 0 13 1245 0
-0 -0 0 3 99213568 0 13 1535 0
-0 -0 0 3 99408384 0 13 1844 0
-0 -0 0 5 99601920 0 13 2069 0
-0 -0 0 3 99798016 0 13 1703 0
-0 -0 0 3 0 0 14 2253 0
-0 -0 0 4 197120 0 14 2621 0
-0 0 0 3 393984 0 14 2751 0
-0 0 0 4 588032 0 14 2072 0
-0 0 0 21 782848 0 14 1784 0
-0 0 0 41 978432 0 14 1570 0
-0 0 0 31 1173248 0 14 1477 0
-0 0 0 16 1366272 0 14 1471 0
-0 0 0 23 1562112 0 14 1307 0
-0 0 0 14 1758208 0 14 1353 0
-0 0 0 38 1952768 0 14 1245 0
-1.1104063 0.12287581 0.078106359 127 2147328 159 14 1196 159
-1.0790623 0.13282004 0.076965183 392 2343680 464 14 1180 464
-1.0426952 0.14134109 0.075633824 511 2537472 566 14 1191 566
-1.0230902 0.15148474 0.074949116 598 2731520 640 14 1202 640
-1.0122751 0.16259858 0.074606769 559 2926336 589 14 1241 589
-0.99641991 0.17261527 0.074074224 617 3120128 632 14 1241 632
-0.98243815 0.1826337 0.073617756 673 3315200 674 14 1144 674
-0.97032243 0.19272542 0.073237367 626 3511040 613 14 1239 613
-0.95322049 0.20151223 0.072666779 668 3706880 636 14 1219 636
-0.94092613 0.21100405 0.07228639 612 3902464 571 14 1352 571
-0.92854387 0.2202248 0.071906 630 4098560 576 14 1295 576
-0.91898632 0.22990251 0.071639724 613 4295168 551 14 1221 551
-0.91029835 0.23963386 0.07141149 610 4489216 541 14 1259 541
-0.89573258 0.24758707 0.070955023 428 4685568 370 14 1199 370
-0.86959392 0.25187829 0.070042089 298 4881152 244 14 1152 244
-0.86452508 0.26195022 0.069966011 192 5076736 157 14 1119 157
-0.86886609 0.27495471 0.070270322 101 5271296 84 14 1148 84
-0.85878491 0.2834014 0.070004046 71 5467648 58 14 1180 58
-0.87886465 0.30204812 0.070955023 30 5663488 26 14 1117 26
-0.88167769 0.31516764 0.071221299 22 5859584 19 14 1154 19
-0.85807461 0.3186498 0.070422478 24 6056448 20 14 1180 20
-0.831725 0.32052204 0.069509543 47 6251776 37 14 1049 37
-0.80453426 0.32142571 0.068558566 71 6448128 53 14 1068 53
-0.76729518 0.31750414 0.067189164 286 6643712 197 14 1247 197
-0.76334113 0.3268961 0.067189164 404 6839552 279 14 1175 279
-0.74831009 0.33137828 0.066732697 502 7035392 337 14 1179 337
-0.73691952 0.33720642 0.066428386 612 7228672 403 14 1225 403
-0.71556354 0.33810464 0.065705642 732 7423232 460 14 1230 460
-0.71225852 0.34729865 0.065743685 674 7616256 424 14 1211 424
-0.70169532 0.35286731 0.065477408 788 7809280 486 14 1245 486
-0.69199055 0.35868981 0.065249175 835 8004096 509 14 1248 509
-0.68224943 0.3643277 0.065020941 804 8196608 482 14 1275 482
-0.67335027 0.37026286 0.064830743 857 8390656 507 14 1215 507
-0.66614765 0.37702012 0.06471663 839 8583424 493 14 1307 493
-0.65801769 0.38315329 0.064564474 853 8776192 496 14 1305 496
-0.65069509 0.38965786 0.064450353 853 8972032 491 14 1372 491
-0.64161098 0.39499205 0.064260162 855 9166848 487 14 1286 487
-0.63333881 0.40069705 0.064108007 826 9361664 465 14 1308 465
-0.62502372 0.40625882 0.063955851 815 9556480 454 14 1337 454
-0.61832958 0.41278774 0.063879773 872 9753856 483 14 1325 483
-0 0 0 856 9950208 0 14 1292 0
-0 0 0 1103 10146304 0 14 1811 0
-0.36949271 0.2666539 0.05292454 8468 10342400 1767 14 4814 1767
-0.36619261 0.27116805 0.05292454 9993 10538496 2085 14 6771 2085
-0.37874129 0.28774458 0.053685319 10477 10733824 2376 14 6827 2376
-0.35942754 0.2800732 0.05292454 10008 10929920 2088 14 5928 2088
-0 0 0 5841 11127040 0 14 2610 0
-0 0 0 4412 11321856 0 14 1763 0
-0 0 0 3240 11515648 0 14 1562 0
-0 0 0 2541 11710720 0 14 1696 0
-0.37526032 0.3313773 0.054636292 1603 11906304 402 14 1689 402
-0.4163264 0.37689775 0.056956671 954 12101120 302 14 1432 302
-0.46876982 0.43503302 0.059923716 523 12295168 214 14 1375 214
-0.47135612 0.44833311 0.060342144 576 12489984 245 14 1357 245
-0.47797623 0.46594876 0.060988806 668 12684544 298 14 1408 298
-0.48140705 0.48096591 0.061483312 1140 12879616 529 14 1434 529
-0.47756201 0.48898315 0.061597429 1137 13075712 533 14 1575 533
-0.47152546 0.49480677 0.061597429 2804 13272064 1314 14 1661 1314
-0.47085816 0.50641346 0.061901741 1608 13467648 770 14 1518 770
-0.43508455 0.47957197 0.060228027 6967 13662976 2932 14 3309 2932
-0.46027389 0.52006233 0.062015858 2070 13858560 1000 14 1545 1000
-0.43101564 0.49918583 0.060684495 5247 14055424 2291 14 1979 2291
-0.44286931 0.52584863 0.061749585 1787 14253056 847 14 1541 847
-0.43701684 0.53201622 0.061787624 1459 14449920 693 14 1620 693
-0.42983097 0.53655881 0.061749585 1185 14648064 562 14 1507 562
-0.42259949 0.54100525 0.061711546 1189 14845952 561 14 1461 561
-0.41532373 0.54535514 0.061673507 1262 15043072 594 14 1549 594
-0.40740973 0.54880536 0.061597429 1382 15239168 646 14 1468 646
-0.40064439 0.55376357 0.061597429 1346 15434752 630 14 1528 630
-0.39324337 0.55782133 0.06155939 1427 15629056 666 14 1473 666
-0.38523796 0.5609569 0.061483312 1481 15823872 688 14 1484 688
-0.37665993 0.56314933 0.061369196 1607 16019968 740 14 1467 740
-0.36972085 0.56772912 0.061369196 1556 16214016 715 14 1445 715
-0.36112255 0.56969053 0.061255079 1671 16407808 763 14 1510 763
-0.3546285 0.57492995 0.061293118 1609 16601088 736 14 1512 736
-0.34497833 0.57495272 0.061102923 1658 16796672 747 14 1454 747
-0.33990914 0.58259642 0.061255079 1562 16989440 712 14 1449 712
-0.33371907 0.58846277 0.061331157 1447 17183232 664 14 1478 664
-0.32647261 0.59251374 0.061331157 1406 17377024 645 14 1453 645
-0.31870601 0.59559411 0.061293118 1409 17570048 645 14 1457 645
-0.31045294 0.59768617 0.06121704 1360 17764608 618 14 1411 618
-0.3039934 0.60323614 0.061293118 1182 17959424 541 14 1360 541
-0.29700607 0.60781926 0.061331157 1135 18153728 521 14 1372 521
-0.29037914 0.61322498 0.061407235 1076 18349312 497 14 1477 497
-0.28366411 0.6185593 0.061483312 1018 18544640 473 14 1442 473
-0.27645692 0.62290734 0.061521351 979 18739456 456 14 1429 456
-0.26918569 0.62717146 0.06155939 967 18935040 451 14 1422 451
-0.26185137 0.63135082 0.061597429 955 19133440 447 14 1420 447
-0.25519684 0.63730019 0.061711546 934 19328256 442 14 1362 442
-0.2477165 0.64131624 0.061749585 871 19522816 413 14 1398 413
-0.23982792 0.64430779 0.061749585 897 19718912 425 14 1333 425
-0.23358592 0.65190685 0.06193978 790 19914496 379 14 1336 379
-0.22556844 0.65472424 0.06193978 852 20111872 409 14 1433 409
-0.21939708 0.66313624 0.062168017 804 20307712 394 14 1368 394
-0.21214792 0.66863662 0.062282134 801 20503808 395 14 1352 395
-0.20392674 0.67118967 0.062282134 789 20701440 390 14 1393 390
-0.1965095 0.67652088 0.062396251 814 20897024 404 14 1472 404
-0.18899199 0.68177074 0.062510364 722 21092608 363 14 1420 363
-0.18137512 0.68693757 0.062624484 794 21289216 401 14 1366 401
-0.17365977 0.69201964 0.062738597 771 21484800 393 14 1351 393
-0.1658469 0.6970154 0.062852718 789 21678848 405 14 1466 405
-0.15771863 0.70094812 0.062928796 734 21874432 380 14 1416 380
-0.14972562 0.7057637 0.063042909 765 22068992 399 14 1471 399
-0.14144322 0.70950812 0.063118987 794 22264576 417 14 1324 417
-0.13327421 0.71413767 0.063233107 776 22459904 411 14 1361 411
-0.12535426 0.72064227 0.063423306 750 22654976 402 14 1343 402
-0.11713597 0.72607273 0.063575462 758 22851584 411 14 1404 411
-0.10894971 0.73239785 0.063765652 724 23047168 398 14 1326 398
-0.10049136 0.7376405 0.063917808 761 23243264 423 14 1348 423
-0.091798447 0.74179345 0.064031929 744 23437568 417 14 1358 417
-0.08290866 0.74485052 0.064108007 724 23632128 407 14 1327 407
-0.07395763 0.74780083 0.064184085 699 23826432 396 14 1313 396
-0.065117896 0.75263447 0.06433624 689 24021504 395 14 1370 395
-0.05631743 0.75935638 0.064564474 762 24215552 443 14 1264 443
-0.047361724 0.7659747 0.064792708 742 24411136 438 14 1315 438
-0.038203087 0.77148861 0.064982899 767 24607488 459 14 1329 459
-0.028916214 0.77689236 0.065173097 773 24801024 469 14 1360 469
-0.019502446 0.78218359 0.065363288 756 24997376 464 14 1402 464
-0.0099874567 0.78935844 0.065629564 744 25193984 465 14 1386 465
-0.00029940845 0.79541719 0.065857798 741 25388544 470 14 1279 470
0.0095729521 0.80435377 0.066200152 827 25583872 537 14 1331 537
0.019615317 0.81116855 0.066466421 740 25780480 488 14 1324 488
0.029973909 0.82185131 0.066884853 820 25974528 556 14 1347 556
0.040597584 0.83240032 0.067303278 771 26170368 536 14 1350 536
0.051668752 0.8458029 0.067835823 818 26364928 589 14 1338 589
0.062927604 0.85706389 0.068292297 791 26558976 586 14 1289 586
0.07472802 0.87116086 0.068862878 779 26754304 597 14 1374 597
0.08609926 0.87713945 0.069129154 845 26949120 659 14 1336 659
0.097848877 0.88495541 0.069471501 754 27143424 600 14 1444 600
0.109191 0.88765502 0.069623657 859 27337984 688 14 1284 688
0.12101781 0.89317942 0.069889933 1003 27531008 817 14 1416 817
0.13226284 0.89360398 0.069966011 1128 27726080 923 14 1490 923
0.14448959 0.8998062 0.070270322 1361 27920128 1132 14 1487 1132
0.15552071 0.89796531 0.070270322 1439 28116992 1199 14 1450 1199
0.16616239 0.89402449 0.070194244 1715 28312576 1422 14 1505 1422
0.17809622 0.89681834 0.070384435 1335 28508160 1118 14 1529 1118
0.18722454 0.88576704 0.070042089 2306 28704256 1896 14 1537 1896
0.19873731 0.88632774 0.070156202 1349 28900608 1115 14 1454 1115
0.20775098 0.87604445 0.06985189 1598 29096448 1299 14 1479 1299
0.21824282 0.87245977 0.069813855 1097 29292544 890 14 1430 890
0.22587538 0.85812092 0.069357388 1019 29488384 803 14 1520 803
0.23398921 0.84661704 0.069015034 1012 29683968 783 14 1443 783
0.24074139 0.83120573 0.068520531 963 29879552 723 14 1393 723
0.24773146 0.81767046 0.068102099 953 30075648 698 14 1393 698
0.25442609 0.80409044 0.067683667 925 30271488 660 14 1452 660
0.26019809 0.78857321 0.067189164 905 30467072 626 14 1445 626
0.26627856 0.77492702 0.066770732 929 30662400 626 14 1354 626
0.27240056 0.76219279 0.066390343 924 30858496 606 14 1429 606
0.27999198 0.7541095 0.066200152 953 31054080 618 14 1478 618
0.28490815 0.73942947 0.065743685 865 31249920 545 14 1393 545
0.29099143 0.72845519 0.065439366 858 31445504 529 14 1383 529
0.29646623 0.71652091 0.065097019 869 31642112 524 14 1438 524
0.30208626 0.70548159 0.064792708 904 31837184 533 14 1447 533
0.30586028 0.69075936 0.06433624 856 32031488 489 14 1362 489
0.31015167 0.67786932 0.063955851 847 32226048 472 14 1365 472
0.31502807 0.66678596 0.063651539 806 32421632 440 14 1390 440
0.32055643 0.65748197 0.063423306 849 32615680 456 14 1362 456
0.32500556 0.64635855 0.063118987 738 32809984 387 14 1378 387
0.32600838 0.62901735 0.062548406 515 33004032 259 14 1315 259
0.35302004 0.66109985 0.064108007 135 33199360 76 14 1143 76
0.36207002 0.65846872 0.064184085 90 33392896 51 14 1090 51
0.35435885 0.62615508 0.062966831 26 33586944 13 14 1099 13
0.36805525 0.63211894 0.063423306 10 33782272 5 14 1079 5
0 0 0 7 33975040 0 14 1082 0
0 0 0 10 34168832 0 14 1133 0
0 0 0 11 34364416 0 14 1129 0
0.86516708 1.330248 0.095984682 16 34558720 41 14 1101 41
0.89253128 1.3361471 0.096745461 32 34756096 83 14 1122 83
0.90207571 1.3152065 0.096288994 19 34951168 49 14 1102 49
0.94979882 1.3489689 0.098381139 248 35147008 676 14 1234 676
0.95515746 1.3218255 0.097658403 51 35343360 136 14 1101 136
0.55693877 0.75142205 0.071183257 65 35540224 57 14 1151 57
0.56127667 0.73816937 0.070878945 140 35737856 121 14 1123 121
0.57336724 0.73516464 0.071069144 120 35932928 104 14 1181 104
0.61481929 0.76863861 0.073047169 275 36129792 267 14 1168 267
0.63625175 0.77571118 0.073769912 312 36327936 314 14 1179 314
0.67918235 0.80760121 0.075747937 399 36524288 445 14 1177 445
0.68708336 0.79693604 0.075633824 346 36720640 384 14 1176 384
0.71667176 0.81090015 0.076774992 382 36916992 448 14 1107 448
0.74468994 0.82203364 0.077802047 320 37113856 394 14 1166 394
0.76832527 0.82747424 0.078562826 362 37308672 462 14 1254 462
0.80736488 0.84837663 0.080160461 281 37505024 386 14 1108 386
0.83027804 0.85127759 0.080845162 306 37700096 434 14 1142 434
0.85479546 0.85515505 0.081605941 322 37894656 472 14 1180 472
0.87666976 0.8557657 0.082214564 336 38089728 505 14 1171 505
0.91099066 0.86767894 0.083469853 225 38284288 357 14 1094 357
0.93474936 0.86867487 0.084154554 104 38478592 170 14 1083 170
0.93052924 0.84371877 0.083393775 15 38674432 24 14 1064 24
0 0 0 13 38869760 0 14 1078 0
0 0 0 8 39065344 0 14 1149 0
0 0 0 11 39260416 0 14 1047 0
2.8155859 2.3106771 0.1742309 362 39456256 4815 14 1164 4815
2.8382676 2.2715812 0.17396463 423 39652608 5601 14 1199 5601
2.8604147 2.2322774 0.17369835 406 39848192 5358 14 1136 5358
2.8860023 2.1957977 0.17362228 417 40043008 5497 14 1122 5497
2.9079146 2.1566455 0.17339404 414 40236544 5439 14 1149 5439
2.9341609 2.1207986 0.17339404 470 40430848 6172 14 1203 6172
2.9705873 2.0921111 0.17388855 589 40626688 7793 14 1181 7793
2.9828522 2.0464563 0.17327993 547 40820992 7171 14 1196 7171
3.0118954 2.0124733 0.17347012 659 41015296 8663 14 1256 8663
3.0346894 1.9742715 0.17339404 715 41210624 9388 14 1211 9388
3.0645983 1.9406242 0.17366032 714 41405696 9424 14 1310 9424
3.0830772 1.899726 0.17343208 619 41600000 8134 14 1243 8134
3.1061575 1.8617489 0.17343208 595 41794560 7818 14 1264 7818
3.1201363 1.8184606 0.1730517 497 41989888 6494 14 1210 6494
3.1509116 1.7849592 0.17343208 507 42184192 6664 14 1193 6664
3.1725786 1.7461584 0.17343208 927 42379008 12191 14 1327 12191
3.2052252 1.7132169 0.17392659 472 42574848 6249 14 1148 6249
3.213589 1.6673133 0.17339404 437 42769664 5741 14 1134 5741
3.2105992 1.6160731 0.17240503 225 42965248 2915 14 1143 2915
3.2355776 1.5791817 0.17263326 162 43161344 2108 14 1095 2108
3.2727804 1.5479002 0.17339404 217 43355648 2850 14 1241 2850
3.2897122 1.5067896 0.17331797 205 43550464 2693 14 1118 2693
3.3198316 1.4715693 0.17381248 240 43745792 3175 14 1105 3175
3.314678 1.4208789 0.1728615 177 43939840 2309 14 1152 2309
3.3346343 1.3812426 0.17297561 174 44133120 2275 14 1125 2275
3.3726745 1.3487493 0.17385052 156 44327680 2066 14 1133 2066
3.3992276 1.3112147 0.17426895 194 44523008 2584 14 1127 2584
3.4319229 1.2756674 0.17495364 231 44717568 3104 14 1200 3104
3.4529643 1.2354757 0.17518188 256 44913152 3454 14 1111 3454
3.4725902 1.1946343 0.17537208 220 45109248 2976 14 1145 2976
3.4784489 1.1491101 0.17502972 158 45303808 2127 14 1145 2127
6.7150998 2.1269329 0.30371565 372 45500928 18501 14 1146 18501
6.7617331 2.0507474 0.30455253 352 45696256 17613 14 1164 17613
6.7835107 1.9667815 0.30443838 230 45891328 11499 14 1224 11499
3.6693306 1.0154103 0.18050733 151 46087168 2197 14 1125 2197
3.4196465 0.90131545 0.17019877 71 46281984 894 14 1100 894
3.4226947 0.85734171 0.16989446 92 46478848 1153 14 1062 1153
3.4815707 0.82681465 0.17179641 56 46674688 722 14 1129 722
3.5031552 0.78665417 0.17225288 41 46870528 536 14 1049 536
3.5223212 0.74567443 0.17263326 46 47066112 602 14 1095 602
3.5537488 0.70687532 0.17350817 47 47262464 622 14 1126 622
3.5808215 0.66668534 0.1742309 59 47457792 789 14 1106 789
3.600548 0.62474173 0.17468737 45 47653888 607 14 1097 607
3.6227427 0.58288997 0.17525795 45 47849472 611 14 1130 611
3.6503808 0.5414663 0.17605677 48 48045568 658 14 1155 658
3.6805153 0.49985471 0.17696971 66 48240896 916 14 1144 916
3.7200925 0.45880678 0.17826304 38 48435712 542 14 1053 542
3.7333882 0.41400126 0.17856735 53 48630528 755 14 1080 755
3.7640438 0.37069944 0.17955637 53 48825600 765 14 1105 765
3.7961864 0.32687846 0.18062146 41 49020160 602 14 1103 602
3.8118708 0.28114963 0.18107793 69 49215744 1016 14 1093 1016
3.8459532 0.23624714 0.18225713 63 49410560 940 14 1181 940
3.8715186 0.19015881 0.18313202 62 49604352 939 14 1096 939
3.89553 0.14344178 0.18396889 72 49798144 1103 14 1074 1103
3.9499426 0.096920811 0.18598495 88 49992960 1380 14 1148 1380
3.9748156 0.048733328 0.18689789 90 50186752 1430 14 1118 1430
4.1080179 -6.1940242e-05 0.19195707 52 50380800 884 14 1157 884
4.3245344 -0.053158283 0.20021154 196 50575360 3677 14 1163 3677
4.3585205 -0.1070851 0.2015429 223 50769920 4252 14 1128 4252
4.3738542 -0.16118991 0.20218956 252 50963456 4838 14 1192 4838
4.4234462 -0.21740703 0.20416759 255 51159040 5015 14 1170 5015
4.4553537 -0.27382162 0.20549896 287 51354368 5736 14 1129 5736
4.4955068 -0.33171433 0.20717268 274 51549184 5579 14 1220 5579
4.5259433 -0.38986069 0.20850404 307 51744512 6349 14 1204 6349
4.5506516 -0.44831324 0.20964521 347 51939584 7274 14 1139 7274
4.5944662 -0.50963551 0.21154717 432 52135680 9249 14 1194 9249
4.6414208 -0.57258958 0.21360126 436 52331008 9559 14 1147 9559
4.6290936 -0.62883085 0.21341108 129 52525568 2830 14 1082 2830
4.7475495 -0.70437133 0.21828006 290 52722176 6713 14 1313 6713
7.6005864 -1.2234042 0.32863119 319 52916736 18953 14 1164 18953
5.2053537 -0.90340751 0.23669094 187 53112320 5234 14 1192 5234
5.2596946 -0.97947913 0.23923956 219 53308672 6289 14 1111 6289
5.3070621 -1.0558484 0.24155994 221 53504512 6488 14 1166 6488
5.3523607 -1.1333188 0.24384227 249 53700096 7472 14 1189 7472
5.3936238 -1.211401 0.2460105 365 53896192 11180 14 1147 11180
5.4483509 -1.2941296 0.2487493 484 54091520 15216 14 1115 15216
5.2197824 -1.3076944 0.24041876 1043 54285824 30281 14 1301 30281
5.1598606 -1.3601854 0.23870701 1439 54481152 41070 14 1345 41070
5.6050444 -1.5513823 0.25696573 821 54676992 27824 14 1182 27824
5.6661997 -1.6434355 0.26016101 1027 54872576 35814 14 1207 35814
5.3357916 -1.6188267 0.24783637 474 55068672 14780 14 1900 14780
4.573462 -1.4490099 0.21820399 569 55264512 13119 14 1267 13119
4.5287695 -1.4962445 0.2171389 626 55460096 14270 14 1209 14270
4.4562087 -1.5331718 0.21497068 756 55655680 16824 14 1189 16824
3.7399068 -1.3382101 0.18678378 473 55851264 7480 14 1191 7480
3.7091539 -1.3787796 0.1862132 230 56047360 3615 14 1093 3615
3.6789029 -1.4191566 0.18568064 112 56243200 1751 14 1083 1751
3.6519327 -1.460484 0.18530025 448 56439296 6946 14 1203 6946
3.6586609 -1.5155166 0.18632731 219 56632320 3445 14 1149 3445
3.6039701 -1.5449414 0.18484378 332 56828160 5118 14 1150 5118
3.5975289 -1.594722 0.18537633 660 57024000 10239 14 1197 10239
3.5540681 -1.6279272 0.18438731 332 57217792 5089 14 1088 5089
3.544663 -1.6765467 0.18484378 528 57413632 8137 14 1176 8137
4.8142142 -2.349895 0.23950583 146 57609472 4210 14 1093 4210
4.7644863 -2.3984601 0.23863092 141 57804544 4028 14 1127 4028
4.6956692 -2.4364936 0.23695721 129 57998592 3629 14 1075 3629
4.6292858 -2.4746161 0.23539761 135 58193664 3737 14 1092 3737
4.1074796 -2.2608755 0.21405773 24 58390272 539 14 1071 539
0 -0 0 11 58584064 0 14 1088 0
4.045578 -2.3579774 0.2138295 21 58777344 472 14 1056 472
0 -0 0 6 58973184 0 14 1115 0
4.0188179 -2.4764743 0.21527499 11 59167488 255 14 1093 255
4.4676213 -2.8293159 0.23688114 55 59362816 1551 14 1112 1551
4.4124637 -2.8708467 0.2359682 1521 59557120 42233 14 1552 42233
3.350024 -2.2384787 0.188952 454 59751936 7388 14 1583 7388
3.2662747 -2.240972 0.18636535 192 59946496 3023 14 1118 3023
3.1306939 -2.204922 0.1813442 28 60141056 417 14 1110 417
3.0847747 -2.2297087 0.1804693 31 60334080 456 14 1089 456
3.0427344 -2.2566793 0.1797846 32 60530432 466 14 1100 466
