# .PCD v0.7 - Point Cloud Data file format
VERSION 0.7
FIELDS x y z intensity t reflectivity ring noise range
SIZE 4 4 4 4 4 2 2 2 4
TYPE F F F F U U U U U
COUNT 1 1 1 1 1 1 1 1 1
WIDTH 828
HEIGHT 1
VIEWPOINT 0 0 0 1 0 0 0
POINTS 828
DATA ascii
0.2426528 -0.76496422 -0.011114211 743 70504192 481 18 925 481
0.23266792 -0.76597387 -0.010994204 648 70699520 418 18 958 418
0.22325073 -0.76877135 -0.010994204 712 70896128 458 18 952 458
0.21300153 -0.76856691 -0.010814195 730 71090432 467 18 968 467
0.20329969 -0.77015764 -0.010754191 680 71288064 433 18 893 433
0.1933485 -0.77065784 -0.010634185 774 71481344 491 18 911 491
0.18387678 -0.77297246 -0.010634185 793 71679488 502 18 963 502
0.17437737 -0.77517074 -0.010634185 769 71870720 488 18 1040 488
0.16485171 -0.77725226 -0.010634185 807 72071936 512 18 1004 512
0.15569048 -0.78117478 -0.010754191 741 72257792 472 18 965 472
0.14609253 -0.78302652 -0.010754191 807 72460544 514 18 987 514
0.1361315 -0.78279328 -0.010634185 777 72644608 493 18 947 493
0.12635671 -0.78341937 -0.010574182 754 72849664 477 18 943 477
0.11673343 -0.78491098 -0.010574182 717 73031424 454 18 923 454
0.1076295 -0.79024088 -0.010814195 710 73240320 453 18 971 453
0.098046005 -0.79249287 -0.010874198 788 73421056 505 18 929 505
0.088533349 -0.79562062 -0.010994204 831 73632000 534 18 1001 534
0.078860924 -0.79764056 -0.011054208 723 73811968 467 18 990 467
0.069408849 -0.80252635 -0.011294221 640 74024192 417 18 959 417
0.05962871 -0.80431318 -0.011354224 562 74202624 367 18 948 367
0.049937367 -0.80797333 -0.011534234 688 74418176 453 18 996 453
0.040067401 -0.80952227 -0.011594237 691 74593792 456 18 921 456
0.030166931 -0.81095058 -0.01165424 673 74810624 445 18 959 445
0.020310603 -0.81525129 -0.011894253 541 74987264 362 18 879 362
0.010268264 -0.81244475 -0.011714243 468 75200512 310 18 1013 310
0.00029819729 -0.8065204 -0.011354224 120 75379200 78 18 865 78
-0.0095125632 -0.7994765 -0.010934201 64 75591424 41 18 827 41
-0.019544106 -0.80828059 -0.01147423 42 75769344 27 18 849 27
-0.029314082 -0.80398983 -0.011234217 47 75980288 31 18 865 31
-0.039472595 -0.80955154 -0.011594237 39 76162048 25 18 838 25
-0.049526703 -0.8109988 -0.011714243 55 76371968 37 18 881 37
-0.052488819 -0.71575886 -0.0060139336 9 76555776 5 18 859 5
-0 -0 -0 11 76762112 0 18 889 0
-0.1733747 -1.762272 -0.069317378 11 76945408 37 18 882 37
-0.19212399 -1.734217 -0.067757294 39 77149696 119 18 827 119
-0.21436943 -1.7396542 -0.06823732 64 77336320 197 18 828 197
-0.23691154 -1.7457944 -0.068777345 21 77540096 65 18 814 65
-0.25567895 -1.724983 -0.067697287 28 77727744 85 18 828 85
-0.23969691 -1.4911072 -0.053656522 175 77928960 402 18 899 402
-0.25797704 -1.4880536 -0.053656522 278 78120192 636 18 856 636
-0.27347606 -1.4700561 -0.052756473 310 78319104 697 18 866 697
-0.29441801 -1.4812742 -0.053656522 224 78511616 513 18 841 513
-0.31588286 -1.4931743 -0.054616574 117 78707968 273 18 810 273
-0.3319945 -1.4794463 -0.054016542 20 78902784 46 18 792 46
-0.34620187 -1.4587511 -0.052996486 15 79099392 35 18 925 35
-0.36480486 -1.4572976 -0.053176496 18 79296256 40 18 844 40
-0.39207762 -1.4884237 -0.05539662 63 79490560 149 18 836 149
-0 -0 -0 7 79688448 0 18 856 0
-0.40707186 -1.4045359 -0.050776366 22 79881472 47 18 818 47
-0.42282769 -1.3946588 -0.05047635 17 80082432 36 18 843 36
-0.43237132 -1.3655761 -0.048976269 12 80274432 24 18 806 24
-0.37016505 -1.1213261 -0.033855446 399 80475648 559 18 968 559
-0.38032448 -1.1063166 -0.03319541 542 80664320 746 18 937 746
-0.39319927 -1.0996865 -0.033075403 490 80866816 671 18 1020 671
-0.40353349 -1.0863581 -0.032535374 553 81054720 746 18 949 746
-0.41360024 -1.0729429 -0.031995345 590 81257728 784 18 953 784
-0.42376977 -1.0603721 -0.031515319 622 81442048 815 18 976 815
-0.4333114 -1.0467924 -0.030975292 622 81648384 802 18 974 802
-0.43904364 -1.0248828 -0.029895231 688 81831936 859 18 908 859
-0.4491598 -1.0139427 -0.029535212 673 82039808 831 18 939 831
-0.45782661 -1.0001872 -0.028995182 707 82218752 860 18 953 860
-0.46793157 -0.98998201 -0.028695166 660 82428672 796 18 904 796
-0.47785532 -0.97968018 -0.02839515 706 82608896 842 18 855 842
-0.49298382 -0.97998339 -0.028815173 528 82821376 638 18 944 638
-0.52474421 -1.0119575 -0.031395312 418 82996224 546 18 912 546
-0.54371202 -1.0177658 -0.032235358 392 83212032 524 18 941 524
-0.56386316 -1.025008 -0.03319541 369 83387392 508 18 947 508
-0.58771753 -1.037986 -0.034575485 429 83600384 613 18 967 613
-0.60342735 -1.0358698 -0.034935504 316 83777536 457 18 900 457
-0.62584573 -1.0446533 -0.03607557 484 83990016 722 18 955 722
-0.13321176 -0.21687223 0.02182758 772 84168960 50 18 1164 50
-0 -0 -0 36 84378624 0 18 3625 0
-0 -0 -0 29 84560640 0 18 1568 0
-0 -0 -0 13 84769024 0 18 3846 0
-0 -0 -0 0 84952320 0 18 7004 0
-0 -0 -0 0 85157376 0 18 10276 0
-0 -0 -0 0 85344256 0 18 11570 0
-0 -0 -0 0 85549824 0 18 10539 0
-0 -0 -0 0 85739520 0 18 8980 0
-0 -0 -0 0 85943296 0 18 6694 0
-0 -0 -0 0 86133760 0 18 4717 0
-0 -0 -0 0 86336768 0 18 6401 0
-0 -0 -0 0 86528768 0 18 6341 0
-0 -0 -0 0 86729216 0 18 6192 0
-0 -0 -0 0 86920960 0 18 6990 0
-0 -0 -0 0 87118592 0 18 6924 0
-0 -0 -0 0 87311104 0 18 4396 0
-0 -0 -0 0 87506688 0 18 5310 0
-0 -0 -0 0 87701760 0 18 5790 0
-0 -0 -0 0 87895808 0 18 3853 0
-0 -0 -0 0 88092672 0 18 6533 0
-0 -0 -0 0 88283904 0 18 5475 0
-0 -0 -0 0 88482560 0 18 5309 0
-0 -0 -0 0 88673280 0 18 6125 0
-0 -0 -0 0 88874240 0 18 4793 0
-0 -0 -0 0 89061120 0 18 5758 0
-0 -0 -0 1 89263360 0 18 4253 0
-0 -0 -0 0 89452288 0 18 3708 0
-0 -0 -0 1 89656832 0 18 2940 0
-0 -0 -0 1 89841408 0 18 3044 0
-0 -0 -0 2 90048000 0 18 3166 0
-0 -0 -0 1 90230784 0 18 2714 0
-0 -0 -0 0 90441472 0 18 3083 0
-0 -0 -0 1 90622976 0 18 3066 0
-0 -0 -0 0 90834432 0 18 4544 0
-0 -0 -0 1 91013888 0 18 3623 0
-0 -0 -0 1 91224320 0 18 2396 0
-0 -0 -0 2 91400192 0 18 2617 0
-0 -0 -0 2 91614976 0 18 2354 0
-0 -0 -0 5 91790080 0 18 1439 0
-0 -0 -0 6 92002816 0 18 1570 0
-0 -0 -0 2 92179968 0 18 2823 0
-0 -0 -0 0 92391680 0 18 5916 0
-0 -0 -0 0 92570624 0 18 7661 0
-0 -0 -0 0 92779520 0 18 7468 0
-0 -0 -0 0 92961024 0 18 6134 0
-0 -0 -0 1 93168640 0 18 4178 0
-0 -0 -0 5 93351680 0 18 1617 0
-0.69229746 -0.31742895 -0.0086540775 63 93557504 37 18 963 37
-0 -0 -0 5 93743104 0 18 913 0
-0 -0 -0 7 93947648 0 18 924 0
-0 -0 -0 9 94135296 0 18 1081 0
-0 -0 -0 6 94338816 0 18 887 0
-0.85575038 -0.33040601 -0.018014586 25 94528768 21 18 909 21
-0.85880482 -0.31953207 -0.017954582 39 94730496 32 18 831 32
-0.86360121 -0.30930531 -0.018014586 35 94921984 29 18 810 29
-0.85789245 -0.29543811 -0.017414553 138 95120896 114 18 812 114
-0.86524475 -0.28614026 -0.017654566 150 95313920 125 18 904 125
-0.87820715 -0.27851442 -0.018254599 189 95512064 161 18 922 161
-0.88824558 -0.26974407 -0.018674621 228 95706624 198 18 898 198
-0.89340633 -0.25937945 -0.018794628 227 95903232 198 18 924 198
-0.89844614 -0.24892871 -0.018914634 199 96098816 174 18 935 174
-0.89950275 -0.23737605 -0.018794628 251 96291840 219 18 870 219
-0.90622121 -0.22728963 -0.019034641 228 96489984 200 18 879 200
-0.91476941 -0.217535 -0.01939466 198 96682496 176 18 877 176
-0.9222399 -0.207386 -0.019694677 219 96881408 197 18 952 197
-0.93252802 -0.19770613 -0.020174704 177 97070336 162 18 895 162
-0.94565338 -0.18838865 -0.02083474 159 97270784 149 18 930 149
-0.95476347 -0.17804806 -0.021254763 148 97456640 141 18 936 141
-0.96769524 -0.16819425 -0.021914799 109 97660416 106 18 914 106
-0.96870083 -0.15614802 -0.021854796 135 97844992 131 18 873 131
-0.97844332 -0.14541967 -0.022334822 104 98050816 103 18 871 103
-0.97520852 -0.13273057 -0.022034805 122 98231296 119 18 919 119
-0.97874534 -0.12099743 -0.022154812 113 98439424 111 18 931 111
-0 -0 -0 47 98620928 0 18 1226 0
-0 -0 -0 3 98831360 0 18 2393 0
-0 -0 -0 0 99010560 0 18 3871 0
-0 -0 -0 0 99222528 0 18 6140 0
-0 -0 -0 0 99398400 0 18 7385 0
-0 -0 -0 0 99613184 0 18 7098 0
-0 -0 -0 0 99790336 0 18 5925 0
-0 -0 -0 0 0 0 19 5289 0
-0 -0 -0 0 178176 0 19 5049 0
-0 0 -0 0 393984 0 19 4379 0
-0 0 -0 7 570880 0 19 3414 0
-0 0 -0 57 782336 0 19 2184 0
-0 0 -0 74 962048 0 19 1386 0
-0 0 -0 55 1172736 0 19 1234 0
-0 0 -0 28 1352960 0 19 1228 0
-0 0 -0 28 1561856 0 19 1030 0
-0 0 -0 66 1746176 0 19 904 0
-1.1046573 0.10853286 -0.056478478 298 1952512 371 19 886 371
-1.0636282 0.11768305 -0.053103536 477 2137344 551 19 923 551
-1.0541925 0.12974988 -0.052428551 483 2343424 550 19 912 550
-1.0406727 0.14106618 -0.051416069 514 2529280 571 19 832 571
-1.02605 0.15192412 -0.050319213 563 2731264 610 19 831 610
-1.0024655 0.1610191 -0.048462994 630 2919424 654 19 791 654
-1.0004141 0.17330877 -0.048462994 562 3117824 584 19 772 584
-0.98547745 0.18319993 -0.047366139 576 3309056 584 19 906 584
-0.97142792 0.19294544 -0.046353657 570 3507456 564 19 911 564
-0.95631456 0.2021676 -0.045256801 547 3700992 527 19 815 527
-0.94403964 0.21170357 -0.044413067 561 3896832 529 19 846 529
-0.93070674 0.22073869 -0.04348496 540 4092416 499 19 873 499
-0.92116201 0.23044775 -0.042894345 526 4288000 479 19 865 479
-0.90959322 0.23944791 -0.042134982 564 4483328 504 19 949 504
-0.89890385 0.24846506 -0.041459993 512 4676352 449 19 847 449
-0.88334644 0.25586808 -0.040363137 385 4874496 328 19 801 328
-0.87727952 0.26582077 -0.040110018 317 5063680 268 19 787 268
-0.86825222 0.27476013 -0.039603777 151 5264640 126 19 741 126
-0.8534618 0.28164223 -0.038591295 96 5454336 78 19 736 78
-0.88668716 0.30474019 -0.041881863 40 5657088 35 19 772 35
-0.87443739 0.31257614 -0.0411225 40 5844224 35 19 708 35
-0.88641304 0.32918704 -0.042556848 21 6050048 19 19 753 19
-0.8720808 0.33609405 -0.041628741 26 6234368 23 19 748 23
-0.85956436 0.34343967 -0.040869381 37 6441984 32 19 708 32
-0.75586635 0.3127687 -0.031757042 118 6624768 79 19 740 79
-0.76845556 0.32908916 -0.033275764 234 6833152 165 19 807 165
-0.74249756 0.32880101 -0.031250801 320 7013888 212 19 791 212
-0.73115969 0.33456749 -0.030575812 459 7223040 299 19 780 299
-0.72069395 0.34053186 -0.029985197 574 7402752 367 19 770 367
-0.7110883 0.34672734 -0.029478956 663 7613440 418 19 799 418
-0.70054996 0.35229063 -0.028888341 708 7788544 439 19 878 439
-0.69352078 0.35948396 -0.028635221 738 8003328 454 19 783 454
-0.68554223 0.36608821 -0.028297728 774 8177408 472 19 873 472
-0.67576081 0.37158996 -0.027791485 803 8389888 482 19 862 482
-0.66768223 0.37788966 -0.027453993 801 8566528 476 19 899 476
-0.66041213 0.38454917 -0.027200872 839 8775424 493 19 852 493
-0.65222496 0.39057505 -0.026863378 781 8956928 455 19 916 455
-0.64229327 0.39541256 -0.026357137 791 9164544 454 19 898 454
-0.63318372 0.40059879 -0.02593527 816 9348352 463 19 878 463
-0.62571454 0.40670836 -0.025682148 753 9555712 423 19 886 423
-0 0 -0 798 9742336 0 19 941 0
-0 0 -0 850 9949184 0 19 929 0
-0 0 -0 1072 10136320 0 19 1402 0
-0.36113852 0.2606141 -0.00020134961 8596 10341376 1722 19 4513 1722
-0.37711987 0.27927411 -0.0022263138 10706 10529792 2381 19 6628 2381
-0.37366435 0.28388092 -0.0022263138 10761 10732800 2393 19 6683 2393
-0.36072692 0.28108749 -0.0012138317 9901 10922752 2091 19 5821 2091
-0 0 -0 6451 11124992 0 19 2363 0
-0 0 -0 5446 11314432 0 19 1396 0
-0 0 -0 5368 11512064 0 19 1410 0
-0 0 -0 2791 11704064 0 19 1354 0
-0.35326111 0.31192043 -0.0023950608 1844 11900672 414 19 1340 414
-0.3767215 0.34099409 -0.0055168807 1143 12094208 298 19 1085 298
-0.44039559 0.40866894 -0.013363617 596 12287232 217 19 1020 217
-0.44905764 0.42709857 -0.014966713 534 12483328 207 19 970 207
-0.47943783 0.46737522 -0.019185388 727 12674048 329 19 980 329
-0.48352942 0.48308873 -0.020366618 1109 12872704 523 19 1066 523
-0.48104382 0.49255228 -0.020788485 1152 13062400 550 19 1172 550
-0.46397117 0.4868705 -0.019438509 2808 13264128 1281 19 1277 1281
-0.47152346 0.50712979 -0.02112598 1575 13452800 761 19 1194 761
-0.44385403 0.48924971 -0.018426027 6668 13656064 2936 19 2581 2936
-0.45035625 0.50884384 -0.020029124 1968 13842176 916 19 1237 916
-0.43952268 0.50905001 -0.019438509 3027 14048512 1382 19 1293 1382
-0.4409402 0.52355546 -0.020450991 1680 14235392 794 19 1109 794
-0.43574625 0.53046769 -0.020619739 1314 14443008 624 19 1075 624
-0.4348067 0.54277718 -0.0213791 1145 14629376 558 19 1103 558
-0.42566144 0.54492968 -0.021041606 1098 14839040 529 19 1049 529
-0.41592595 0.54614681 -0.020619739 1171 15023104 556 19 1067 556
-0.40681863 0.54800814 -0.020282244 1222 15231744 574 19 1128 574
-0.39889586 0.55134386 -0.020113498 1301 15412480 608 19 1061 608
-0.39152631 0.55538273 -0.020029124 1271 15623680 591 19 1087 591
-0.38411781 0.55932379 -0.01994475 1425 15802880 662 19 1046 662
-0.37667161 0.56316686 -0.019860376 1388 16016384 642 19 1068 642
-0.37027562 0.56858206 -0.01994475 1416 16192768 658 19 1100 658
-0.36433634 0.57476693 -0.020113498 1420 16406016 662 19 1123 662
-0.35621038 0.57749784 -0.01994475 1397 16580608 649 19 1105 649
-0.34653589 0.57755196 -0.019522883 1395 16795136 638 19 1104 638
-0.33741575 0.57831722 -0.019185388 1368 16971264 619 19 992 619
-0.32931143 0.58068019 -0.019016642 1357 17181440 610 19 1059 610
-0.32312152 0.58642364 -0.019185388 1289 17359872 583 19 1021 583
-0.31684011 0.59210235 -0.019354135 1193 17568256 543 19 1075 543
-0.30955026 0.59594589 -0.019354135 1243 17750784 566 19 1062 566
-0.30266169 0.60058975 -0.019438509 1211 17957888 553 19 1024 553
-0.29614264 0.60604966 -0.019607255 1061 18141952 486 19 1008 486
-0.28953505 0.61143982 -0.019776003 1066 18348032 492 19 1087 492
-0.28491387 0.6212886 -0.020366618 979 18534656 462 19 995 462
-0.27847934 0.62747115 -0.020619739 893 18737920 425 19 998 425
-0.2711508 0.63175714 -0.020704111 951 18926592 453 19 991 453
-0.26452142 0.63779891 -0.020957232 858 19131904 413 19 1076 413
-0.25741452 0.64284742 -0.02112598 887 19320576 429 19 1071 429
-0.25058192 0.64874697 -0.0213791 895 19519744 437 19 969 437
-0.24364316 0.65457529 -0.021632221 820 19712000 403 19 1026 403
-0.23592776 0.65845406 -0.021716593 850 19910400 419 19 1064 419
-0.2281538 0.662242 -0.021800967 782 20104960 387 19 1003 387
-0.2206348 0.66688424 -0.021969713 778 20302080 387 19 1006 387
-0.21303615 0.67144144 -0.022138461 770 20496896 386 19 1027 386
-0.20535877 0.67591232 -0.022307208 735 20694016 370 19 1028 370
-0.19732626 0.67933851 -0.022391582 737 20890112 372 19 1011 372
-0.18950617 0.68362957 -0.022560328 775 21083648 393 19 1023 393
-0.18186428 0.68879431 -0.022813449 751 21282048 384 19 1042 384
-0.17436606 0.69484061 -0.023150943 779 21472512 403 19 997 403
-0.16651654 0.69983649 -0.023404064 730 21671424 380 19 1022 380
-0.15857057 0.70474398 -0.023657184 784 21861376 413 19 991 413
-0.15052915 0.70956135 -0.023910305 738 22062336 392 19 1063 392
-0.14239326 0.71428704 -0.024163425 785 22249216 420 19 1025 420
-0.13434626 0.71989918 -0.02450092 780 22452992 422 19 984 422
-0.12584236 0.72345716 -0.024669666 778 22637568 423 19 1002 423
-0.1175877 0.72888213 -0.02500716 761 22844672 418 19 1040 418
-0.10921874 0.73421288 -0.025344655 741 23027968 412 19 954 412
-0.10073657 0.73944741 -0.025682148 772 23236352 433 19 1014 433
-0.092264153 0.74557275 -0.026104016 779 23415552 443 19 1024 443
-0.08365649 0.75160068 -0.026525883 797 23625728 460 19 953 460
-0.074817128 0.75653726 -0.026863378 757 23805440 441 19 965 441
-0.065869153 0.76136947 -0.027200872 823 24017664 484 19 972 484
-0.056740601 0.76510173 -0.027453993 786 24194560 467 19 934 467
-0.047652323 0.77071321 -0.027875859 804 24409344 483 19 959 483
-0.038386032 0.77522093 -0.028213354 742 24586496 451 19 969 451
-0.029089393 0.78160816 -0.028719595 751 24800000 464 19 959 464
-0.019690428 0.78987539 -0.029394582 784 24978176 493 19 1010 493
-0.010105032 0.79902476 -0.030153945 760 25192960 489 19 865 489
-0.00029824709 0.80606365 -0.030744558 794 25370368 520 19 894 520
0.0097167809 0.81597018 -0.031588294 727 25581568 488 19 929 488
0.019999444 0.82674694 -0.032516401 685 25763840 472 19 878 472
0.030511243 0.83639681 -0.033360139 732 25973504 517 19 953 517
0.041262835 0.84591174 -0.034203872 760 26156032 550 19 896 550
0.052191261 0.85429263 -0.034963235 737 26363904 544 19 957 544
0.063404918 0.86352509 -0.035806969 792 26546688 598 19 964 598
0.074767329 0.87161678 -0.036566332 768 26753280 592 19 975 592
0.086142205 0.87757504 -0.037156947 785 26938880 616 19 980 616
0.098004289 0.88635534 -0.038000681 816 27142400 654 19 923 654
0.10997259 0.89398628 -0.038760044 840 27329792 687 19 985 687
0.1209349 0.89256942 -0.038760044 1012 27529216 828 19 981 828
0.1330495 0.89890325 -0.039435029 1133 27718912 944 19 995 944
0.14581281 0.90802425 -0.040363137 1421 27917312 1213 19 1135 1213
0.15694468 0.90616649 -0.040363137 1430 28110336 1218 19 1060 1218
0.16586299 0.89241737 -0.039350655 1781 28308224 1481 19 1069 1481
0.17699634 0.89129204 -0.039435029 1260 28501760 1049 19 1107 1049
0.18606222 0.88027966 -0.03867567 2562 28697856 2092 19 1203 2092
0.19925328 0.88862431 -0.039603777 1727 28893952 1445 19 1160 1445
0.21014306 0.88611221 -0.039603777 1778 29088512 1488 19 1145 1488
0.21761014 0.8699351 -0.038422547 1103 29286144 895 19 1037 895
0.22649075 0.86045468 -0.037831932 960 29478144 767 19 1003 767
0.23464 0.84896767 -0.037072573 1002 29676544 784 19 1057 784
0.24309705 0.83932555 -0.036481958 1000 29867264 770 19 1066 770
0.25135309 0.82960469 -0.035891343 992 30068992 752 19 1035 752
0.25579506 0.80841011 -0.034288246 939 30258176 681 19 1037 681
0.26444557 0.80142581 -0.033950754 973 30460672 698 19 1067 698
0.27199063 0.79152495 -0.033360139 1054 30646784 745 19 1003 745
0.27362439 0.76561201 -0.031335175 920 30852096 613 19 975 613
0.27987352 0.75379092 -0.030575812 919 31037184 599 19 1034 599
0.28766778 0.7465812 -0.030238317 974 31243520 628 19 1064 628
0.29310685 0.73374325 -0.029394582 1006 31426304 633 19 1014 633
0.29751194 0.71904463 -0.0283821 1003 31635200 612 19 968 612
0.30199376 0.70526582 -0.027453993 963 31815680 572 19 993 572
0.30699065 0.69330865 -0.026694631 950 32026368 550 19 1066 550
0.30966488 0.67680687 -0.025513401 784 32205312 438 19 917 438
0.31666863 0.67025369 -0.025260281 908 32418304 503 19 1019 503
0.32137263 0.65915382 -0.024585294 885 32594944 480 19 993 480
0.32809296 0.6524905 -0.024332173 794 32808704 427 19 1011 427
0.33194438 0.64045531 -0.02357281 609 32984064 319 19 915 319
0.34494668 0.64599961 -0.02450092 127 33198592 68 19 734 68
0.37687609 0.68536264 -0.028719595 44 33374976 27 19 703 27
0.37788966 0.66768223 -0.027453993 36 33585920 21 19 680 21
0.74988633 1.2871017 -0.088624783 9 33765120 20 19 712 20
0.7640875 1.2752388 -0.088371664 11 33974016 25 19 756 25
0.82464093 1.3387167 -0.095627785 10 34155264 25 19 765 25
0.84687191 1.3377559 -0.096555896 8 34363648 21 19 694 21
0.87463737 1.3448014 -0.098327734 10 34546944 26 19 706 26
0.89661109 1.3422515 -0.099171475 29 34755584 76 19 759 76
0.91978073 1.3410068 -0.10018396 19 34940672 51 19 722 51
0.94420153 1.3410231 -0.10136519 184 35146240 499 19 750 499
0.94365668 1.3059177 -0.098918349 57 35334656 149 19 721 149
0.95545566 1.2886373 -0.098327734 50 35539712 130 19 743 130
0.95068038 1.2498556 -0.095459037 92 35729408 229 19 713 229
0.91199154 1.168974 -0.088034168 190 35931392 421 19 750 421
0.566338 0.70807672 -0.039266285 134 36123392 111 19 752 111
0.576249 0.70261389 -0.039435029 113 36327168 94 19 775 94
0.62268329 0.74046928 -0.044413067 208 36518144 196 19 854 196
0.65320367 0.75766873 -0.047197394 287 36718336 289 19 801 289
0.67433465 0.76303095 -0.048716117 322 36910848 336 19 831 336
0.69167835 0.7635572 -0.049728598 272 37109760 291 19 755 291
0.71998739 0.77545083 -0.052091055 282 37302528 318 19 772 318
0.74319237 0.78098887 -0.053778525 330 37499136 387 19 754 387
0.77707911 0.79676855 -0.0567316 272 37693696 339 19 747 339
0.80441469 0.80478531 -0.058840938 277 37884928 362 19 767 362
0.83206147 0.81224853 -0.060950276 235 38083072 320 19 803 320
0.8607316 0.81983876 -0.063143983 260 38274048 370 19 776 370
0.88094908 0.81870782 -0.064325213 259 38472448 377 19 765 377
0.89831334 0.81452644 -0.065168947 208 38661632 308 19 768 308
0.92466503 0.8179608 -0.06702517 144 38863616 221 19 722 221
0.9610433 0.82932878 -0.069978237 68 39050752 111 19 699 111
1.0268112 0.86429894 -0.076137505 8 39254272 15 19 673 15
2.7998393 2.2977571 -0.26918408 35 39439616 467 19 715 467
2.8216012 2.2582455 -0.26850909 83 39646208 1095 19 750 1095
2.0909948 1.6319512 -0.18708867 19 39828480 136 19 718 136
2.0712106 1.5760053 -0.18286999 29 40036096 201 19 657 201
0 0 -0 22 40216064 0 19 734 0
2.9475849 2.1304991 -0.2704497 88 40426496 1174 19 795 1174
0.2677823 0.18902217 0.0097547239 18 40606464 1 19 720 1
0 0 -0 10 40818176 0 19 693 0
3.0008054 2.0050652 -0.26808724 200 40994816 2625 19 805 2625
3.0210083 1.9653732 -0.26766536 283 41209856 3705 19 757 3705
3.0440571 1.9276198 -0.26758099 306 41385728 4003 19 796 4003
3.0649376 1.8885515 -0.26732787 311 41599488 4061 19 821 4061
3.1041219 1.8605291 -0.26893097 264 41776384 3485 19 802 3485
3.1258588 1.821795 -0.2688466 198 41988096 2613 19 780 2613
3.1479797 1.7832987 -0.2688466 330 42167808 4353 19 782 4353
3.1739914 1.7469357 -0.26926845 324 42378752 4286 19 794 4286
3.1969478 1.7087936 -0.26943719 289 42560512 3827 19 764 3827
3.233598 1.6776919 -0.27095592 361 42769152 4829 19 807 4829
3.2032073 1.6123534 -0.26614663 211 42952704 2736 19 791 2736
3.2487223 1.5855955 -0.26859346 181 43161088 2384 19 791 2384
3.2634313 1.5434796 -0.26817161 159 43344896 2089 19 774 2089
3.3011518 1.5120279 -0.26994345 207 43550208 2751 19 762 2751
3.3176363 1.4705963 -0.26977471 179 43736832 2377 19 781 2377
3.2603307 1.3975892 -0.26285607 211 43938560 2676 19 791 2676
3.2882833 1.3620493 -0.26386857 235 44125696 3001 19 785 3001
3.3260305 1.330102 -0.26580915 221 44327168 2858 19 805 2858
3.3402431 1.2884693 -0.26564041 235 44517120 3038 19 735 3038
3.3707476 1.2529355 -0.26699036 261 44714752 3402 19 794 3402
3.4027574 1.2175175 -0.26850909 290 44907264 3817 19 809 3817
3.4438255 1.1847421 -0.27087155 267 45104640 3569 19 786 3569
3.4931133 1.1539528 -0.27399337 233 45298176 3180 19 747 3180
6.7178068 2.12779 -0.55917585 903 45494528 45168 19 837 45168
6.7510405 2.0475051 -0.55985081 527 45690368 26424 19 825 26424
3.4097624 0.98881167 -0.26310921 72 45882624 917 19 727 917
3.3380878 0.92378199 -0.25576869 98 46080256 1186 19 767 1186
3.1795869 0.83807105 -0.24091896 140 46270976 1527 19 773 1527
3.5733716 0.89506686 -0.27441525 210 46472960 2874 19 743 2874
3.6122017 0.85782242 -0.27686208 214 46662400 2977 19 675 2977
3.6525962 0.82019514 -0.27947766 202 46864896 2855 19 743 2855
3.6955311 0.78232348 -0.28234637 165 47052032 2374 19 783 2374
3.710717 0.73808044 -0.28285259 169 47256832 2439 19 777 2439
3.7557409 0.69923306 -0.28597441 188 47441920 2767 19 757 2767
3.7758203 0.65513462 -0.28698689 167 47648512 2475 19 735 2475
3.8140731 0.6136539 -0.28960249 170 47831808 2557 19 820 2557
2.756798 0.40901542 -0.19847909 445 48039168 3483 19 792 3483
2.7566726 0.37448451 -0.19805722 429 48220416 3347 19 775 3347
2.7640276 0.34099329 -0.19831035 395 48431360 3090 19 708 3090
2.773946 0.30770707 -0.19881658 343 48611072 2694 19 764 2694
2.7765217 0.27354574 -0.19873221 426 48823040 3343 19 721 3343
2.7816551 0.23962373 -0.19890095 551 49000960 4328 19 806 4328
2.780411 0.20517772 -0.19856346 430 49214976 3368 19 733 3368
2.7966435 0.17189626 -0.19974469 333 49391360 2634 19 836 2634
2.8084948 0.13805205 -0.20058842 390 49605120 3107 19 758 3107
4.1333466 0.15217511 -0.31272081 202 49780736 3483 19 790 3483
4.1588097 0.10202541 -0.31474578 463 49993216 8075 19 807 8075
4.1149125 0.05043738 -0.31094897 165 50170624 2818 19 772 2818
4.0564318 -5.6313082e-05 -0.30597094 135 50381312 2239 19 825 2239
3.995348 -0.049082443 -0.30082417 136 50562048 2190 19 785 2190
3.9277041 -0.096462138 -0.29517114 150 50770688 2336 19 742 2336
3.8455684 -0.1416743 -0.28833687 159 50952448 2377 19 706 2377
4.4098253 -0.21673639 -0.3363454 276 51159808 5428 19 677 5428
4.4336867 -0.27248809 -0.33862349 351 51345152 6982 19 749 6982
4.484664 -0.33091331 -0.34326401 338 51550208 6887 19 797 6887
4.5130262 -0.38874692 -0.34604836 333 51737088 6884 19 816 6884
4.5327063 -0.44654381 -0.34815767 342 51940608 7148 19 806 7148
4.559567 -0.50576138 -0.35094202 369 52129024 7823 19 821 7823
4.5985079 -0.56729198 -0.3548232 402 52331264 8697 19 806 8697
4.6405678 -0.63039047 -0.35904187 475 52520960 10501 19 757 10501
4.6679649 -0.69255722 -0.36207932 333 52721408 7487 19 982 7487
7.6241784 -1.2272028 -0.61638105 928 52911872 55749 19 808 55749
5.2425375 -0.90986371 -0.41304091 407 53109760 11610 19 831 11610
5.2936707 -0.98580879 -0.41844082 590 53304064 17235 19 809 17235
5.3505602 -1.0645057 -0.42443132 590 53499904 17690 19 845 17690
5.3994818 -1.1432998 -0.42983124 660 53695488 20282 19 858 20282
5.4336553 -1.220395 -0.4340499 718 53890048 22461 19 897 22461
5.4900088 -1.3040274 -0.44029355 893 54086656 28652 19 783 28652
5.2541871 -1.3163164 -0.42114076 817 54276096 24169 19 966 24169
5.1634488 -1.3611314 -0.414644 1205 54476288 34637 19 883 34637
5.6389961 -1.560782 -0.45792761 866 54666496 29865 19 830 29865
5.6978903 -1.6526293 -0.46484625 960 54867968 34065 19 897 34065
8.4222975 -2.5554757 -0.70775759 251 55056384 19591 19 822 19591
4.5015197 -1.42621 -0.36233243 39 55259904 883 19 708 883
4.4401584 -1.4669607 -0.35845125 45 55446016 997 19 730 997
4.4095736 -1.5171225 -0.3573544 37 55651072 818 19 695 818
4.4009438 -1.5748142 -0.35828251 44 55835136 978 19 667 978
4.4111733 -1.6398149 -0.36098245 37 56043008 832 19 720 832
4.4055924 -1.6995627 -0.36233243 18 56224512 410 19 734 410
5.4696112 -2.1876185 -0.46130255 22 56434688 777 19 748 777
5.3889623 -2.2324519 -0.45640889 33 56614144 1140 19 741 1140
5.3355184 -2.2874193 -0.45404643 62 56826112 2113 19 750 2113
5.2669668 -2.3349509 -0.45033401 35 57006080 1178 19 752 1178
5.219799 -2.3911078 -0.44864655 34 57218048 1135 19 774 1135
5.1585383 -2.4400682 -0.44569346 46 57395712 1515 19 778 1515
5.0897031 -2.4843903 -0.44206539 36 57611008 1168 19 783 1168
1.8201579 -0.91600698 -0.13503021 31 57787136 130 19 778 130
1.8078955 -0.93781513 -0.13494584 27 58000640 113 19 776 113
1.725953 -0.92234522 -0.12819596 192 58177792 741 19 778 741
1.7066483 -0.93913084 -0.12743659 118 58390784 451 19 835 451
1.6941284 -0.95951211 -0.12735222 150 58569728 574 19 718 574
1.6805044 -0.97922575 -0.12718348 92 58779392 351 19 808 351
1.6538328 -0.99106419 -0.12574913 54 58961408 202 19 798 202
1.6398499 -1.010239 -0.12558039 52 59169536 195 19 755 195
1.6222786 -1.0270873 -0.12507413 104 59353088 387 19 760 387
1.6028711 -1.0425701 -0.12439915 116 59559168 428 19 725 428
1.5750444 -1.0521951 -0.12288043 128 59744256 463 19 800 463
1.5628353 -1.0720079 -0.1229648 32 59948800 116 19 745 116
1.5243096 -1.0733163 -0.12034922 38 60135168 134 19 730 134
1.490836 -1.0773462 -0.11823989 46 60335360 157 19 720 157
1.4102796 -1.0456923 -0.11115251 623 60525824 1935 19 738 1935
1.3727603 -1.0442133 -0.10853693 1002 60727040 3004 19 814 3004
0 -0 -0 109 60916736 0 19 734 0
0 -0 -0 50 61115136 0 19 700 0
1.0391848 -0.85252702 -0.076306254 27 61308160 50 19 652 50
1.0172092 -0.85559094 -0.075040646 75 61505536 134 19 704 134
0 -0 -0 7 61699328 0 19 716 0
0.98694885 -0.87237519 -0.074028164 15 61893888 26 19 762 26
0.91711026 -0.8308813 -0.067278288 43 62090752 66 19 739 66
0.89516556 -0.83122104 -0.06592831 43 62284032 65 19 753 65
0.88273299 -0.84008199 -0.065675192 132 62481920 197 19 708 197
0.87449676 -0.85293913 -0.06592831 120 62674432 181 19 707 181
0.86889559 -0.86853898 -0.066518925 112 62874368 170 19 724 170
0.85747606 -0.87842304 -0.066434555 24 63064832 37 19 663 37
0.85899794 -0.90187073 -0.067953274 70 63268096 109 19 726 109
0.86617446 -0.93205714 -0.070231363 144 63456256 235 19 737 235
0.86270046 -0.95147687 -0.071243845 151 63660800 251 19 742 251
0.87405843 -0.98812068 -0.074196912 232 63848960 407 19 692 407
0.84299481 -0.97688949 -0.071750082 110 64056064 185 19 721 185
0.83350921 -0.99021083 -0.072087578 120 64243456 203 19 698 203
0.69488561 -0.84630013 -0.055212874 69 64449280 83 19 728 83
0.68320274 -0.85320765 -0.055044129 80 64634112 96 19 669 96
0.67452002 -0.86388415 -0.055297248 96 64843008 116 19 701 116
0.66266149 -0.8705104 -0.055128504 75 65026304 90 19 705 90
0.64955515 -0.87537509 -0.054791007 83 65235456 99 19 684 99
0.64693475 -0.89458704 -0.055972237 75 65417216 92 19 745 92
0.90438378 -1.2837532 -0.095459037 86 65628160 214 19 711 214
0.90434355 -1.3177626 -0.097821496 383 65807360 987 19 753 987
0.88589048 -1.3254467 -0.097484 506 66019840 1296 19 760 1296
0.8717317 -1.3395594 -0.097821496 383 66197504 987 19 707 987
0.88880646 -1.4031956 -0.10313702 118 66412288 328 19 769 328
0.87361068 -1.4173905 -0.10347452 161 66586624 450 19 763 450
0.80544591 -1.3433864 -0.095121548 776 66799872 1919 19 739 1919
0.78940147 -1.3540304 -0.095205918 802 66977536 1985 19 793 1985
0.77370811 -1.3653497 -0.095374666 802 67190272 1991 19 837 1991
0.75785565 -1.3764874 -0.095543414 832 67368960 2071 19 748 2071
0.74231583 -1.3883203 -0.095796533 806 67577600 2012 19 775 2012
0.72476429 -1.3964406 -0.095712155 721 67759104 1798 19 799 1798
0.70891696 -1.4078996 -0.095965281 457 67967232 1144 19 817 1144
0.36212277 -0.74127287 -0.032347657 35 68151040 24 19 693 24
0.35257301 -0.74476004 -0.032263283 39 68358400 26 19 687 26
0.34340712 -0.74903053 -0.032263283 38 68541952 26 19 705 26
0.3341895 -0.75318831 -0.032263283 42 68745984 29 19 704 29
0.32452908 -0.75631672 -0.032178909 44 68933632 30 19 673 30
0.31903565 -0.76944852 -0.033022642 142 69136384 99 19 707 99
0.30254135 -0.75572616 -0.031419545 518 69327104 346 19 781 346
0.29216912 -0.75659275 -0.031166427 586 69529600 388 19 824 388
0.28216842 -0.7582531 -0.030997679 653 69720576 431 19 817 431
0.27250665 -0.76072043 -0.030913306 624 69920256 410 19 767 410
0.26282689 -0.76306492 -0.030828932 631 70112512 414 19 794 414
0.25250572 -0.76339424 -0.030575812 731 70310912 476 19 790 476
0.24311869 -0.76643538 -0.030575812 739 70504192 482 19 783 482
0.2334059 -0.76840758 -0.030491438 679 70699520 441 19 849 441
0.22395878 -0.77121395 -0.030491438 579 70896128 376 19 866 376
0.21394663 -0.7719835 -0.030322691 592 71090432 383 19 819 383
0.20394938 -0.77262372 -0.030153945 652 71288064 419 19 811 419
0.19493677 -0.7770015 -0.030322691 760 71481344 492 19 820 492
0.18515696 -0.77836567 -0.030238317 742 71679488 479 19 825 479
0.17559126 -0.78057921 -0.030238317 711 71870720 458 19 793 458
0.16538033 -0.77975065 -0.029985197 655 72071936 419 19 797 419
0.15618771 -0.78367603 -0.030153945 612 72257792 394 19 826 394
0.14674133 -0.78651327 -0.030238317 712 72460544 460 19 804 460
0.13707855 -0.7882548 -0.030238317 801 72644608 517 19 805 517
0.12739512 -0.78987765 -0.030238317 758 72849664 489 19 827 489
0.11769252 -0.79138148 -0.030238317 726 73031424 469 19 846 469
0.10757022 -0.78980404 -0.029985197 605 73240320 387 19 830 387
0.097870007 -0.79106462 -0.029985197 667 73421056 427 19 815 427
0.08848422 -0.79517716 -0.030238317 730 73632000 471 19 817 471
0.079109751 -0.80016971 -0.030575812 764 73811968 498 19 783 498
0.069626011 -0.80505133 -0.030913306 774 74024192 509 19 778 509
0.060034323 -0.80982012 -0.031250801 723 74202624 481 19 853 481
0.050275046 -0.81347954 -0.03150392 736 74418176 493 19 894 493
0.040337399 -0.81503046 -0.031588294 756 74593792 508 19 873 508
0.030296115 -0.81446832 -0.03150392 630 74810624 421 19 780 421
0.020347746 -0.81677109 -0.031672668 521 74987264 350 19 806 350
0.010335295 -0.81795561 -0.031757042 403 75200512 272 19 787 272
0.00029737756 -0.81403512 -0.031419545 87 75379200 58 19 684 58
-0.0096674357 -0.81198478 -0.031250801 50 75591424 33 19 690 33
-0.019385386 -0.8018437 -0.030407066 31 75769344 20 19 697 20
-0.02944449 -0.80751997 -0.030913306 41 75980288 27 19 766 27
-0.039400786 -0.80809307 -0.030997679 41 76162048 27 19 712 27
-0.049314365 -0.8075487 -0.030997679 50 76371968 33 19 721 33
-0.12330801 -1.6744058 -0.10465575 35 76555776 100 19 703 100
-0.14170627 -1.6479478 -0.10254642 161 76762112 444 19 797 444
-0.1605496 -1.6322019 -0.10136519 149 76945408 404 19 766 404
-0.17616963 -1.5904949 -0.097990245 189 77149696 488 19 758 488
-0.1929884 -1.5664568 -0.096134029 190 77336320 477 19 758 477
-0.20964673 -1.5452108 -0.094530933 183 77540096 449 19 701 449
-0.22537413 -1.5208379 -0.09267471 112 77727744 267 19 711 267
-0.2416442 -1.5032012 -0.09140911 291 77928960 680 19 741 680
-0.25512928 -1.471652 -0.088962279 464 78120192 1043 19 751 1043
-0.2760894 -1.4840837 -0.090312257 655 78319104 1504 19 802 1504
-0.2935026 -1.4766748 -0.089974761 594 78511616 1358 19 736 1358
-0.31635058 -1.4953824 -0.091915354 335 78707968 789 19 750 789
-0.33424056 -1.4894434 -0.091746606 104 78902784 244 19 747 244
-0.35594824 -1.4997712 -0.093012206 62 79099392 149 19 741 149
-0.36705938 -1.4662939 -0.090480998 44 79296256 101 19 752 101
-0.38400918 -1.4578251 -0.090143509 52 79490560 119 19 740 119
-0.39389402 -1.4241936 -0.087612301 31 79688448 68 19 733 68
-0.4085651 -1.409683 -0.086768568 28 79881472 61 19 725 61
-0.41975689 -1.3845397 -0.084996723 25 80082432 53 19 775 53
-0.42828679 -1.3526878 -0.082634263 14 80274432 28 19 734 28
-0.37075216 -1.1231027 -0.062637746 395 80475648 556 19 812 556
-0.38223666 -1.1118729 -0.062047131 452 80664320 629 19 811 629
-0.39316595 -1.0995934 -0.061372142 456 80866816 627 19 831 627
-0.40350455 -1.0862802 -0.060612779 451 81054720 610 19 829 610
-0.4139348 -1.0738099 -0.059937794 498 81257728 666 19 868 666
-0.42337999 -1.0593978 -0.059094056 570 81442048 748 19 851 748
-0.43215293 -1.0439965 -0.058165949 584 81648384 751 19 800 751
-0.44100496 -1.0294567 -0.057322212 569 81831936 719 19 782 719
-0.44875804 -1.0130366 -0.05630973 638 82039808 789 19 780 789
-0.45866549 -1.0020181 -0.055803489 663 82218752 811 19 747 811
-0.46666598 -0.98730689 -0.054959755 635 82428672 763 19 759 763
-0.47787231 -0.97971499 -0.054791007 670 82608896 802 19 789 802
-0.48582599 -0.96576709 -0.054031648 507 82821376 598 19 760 598
-0.51645958 -0.99599391 -0.05749096 441 82996224 559 19 837 559
-0.54555625 -1.0212153 -0.060528405 377 83212032 509 19 780 509
-0.56765825 -1.0319015 -0.062215876 356 83387392 498 19 812 498
-0.58715582 -1.0369947 -0.063397102 363 83600384 520 19 771 520
-0.60736471 -1.0426239 -0.06466271 344 83777536 504 19 790 504
-0.62472481 -1.0427836 -0.065422073 433 83990016 645 19 830 645
-0.13923486 -0.22664472 0.014985882 166 84168960 11 19 766 11
-0 -0 -0 43 84378624 0 19 2816 0
-0.13823341 -0.21313734 0.015998363 830 84560640 54 19 1002 54
-0.13419436 -0.20148362 0.017010845 383 84769024 22 19 760 22
-0 -0 -0 20 84952320 0 19 1483 0
-0 -0 -0 11 85157376 0 19 5249 0
-0 -0 -0 0 85344256 0 19 8480 0
-0 -0 -0 0 85549824 0 19 10904 0
-0 -0 -0 0 85739520 0 19 11539 0
-0 -0 -0 0 85943296 0 19 10615 0
-0 -0 -0 0 86133760 0 19 9078 0
-0 -0 -0 0 86336768 0 19 7184 0
-0 -0 -0 1 86528768 0 19 4023 0
-0 -0 -0 0 86729216 0 19 5804 0
-0 -0 -0 0 86920960 0 19 6701 0
-0 -0 -0 0 87118592 0 19 6715 0
-0 -0 -0 0 87311104 0 19 7365 0
-0 -0 -0 0 87506688 0 19 7857 0
-0 -0 -0 0 87701760 0 19 7092 0
-0 -0 -0 0 87895808 0 19 7304 0
-0 -0 -0 0 88092672 0 19 5992 0
-0 -0 -0 0 88283904 0 19 3417 0
-0 -0 -0 0 88482560 0 19 4847 0
-0 -0 -0 0 88673280 0 19 5386 0
-0 -0 -0 0 88874240 0 19 4528 0
-0 -0 -0 0 89061120 0 19 4849 0
-0 -0 -0 2 89263360 0 19 2244 0
-0 -0 -0 0 89452288 0 19 3594 0
-0 -0 -0 0 89656832 0 19 3504 0
-0 -0 -0 2 89841408 0 19 2548 0
-0 -0 -0 4 90048000 0 19 2994 0
-0 -0 -0 17 90230784 0 19 1955 0
-0 -0 -0 11 90441472 0 19 2441 0
-0 -0 -0 17 90622976 0 19 2748 0
-0 -0 -0 14 90834432 0 19 2071 0
-0 -0 -0 12 91013888 0 19 2341 0
-0 -0 -0 18 91224320 0 19 2033 0
-0 -0 -0 14 91400192 0 19 1584 0
-0 -0 -0 4 91614976 0 19 2202 0
-0 -0 -0 0 91790080 0 19 4134 0
-0 -0 -0 0 92002816 0 19 6748 0
-0 -0 -0 0 92179968 0 19 8578 0
-0 -0 -0 0 92391680 0 19 8816 0
-0 -0 -0 0 92570624 0 19 8087 0
-0 -0 -0 0 92779520 0 19 6154 0
-0 -0 -0 2 92961024 0 19 2358 0
-0 -0 -0 47 93168640 0 19 881 0
-0 -0 -0 32 93351680 0 19 832 0
-0 -0 -0 6 93557504 0 19 809 0
-0 -0 -0 7 93743104 0 19 785 0
-0 -0 -0 5 93947648 0 19 804 0
-0 -0 -0 6 94135296 0 19 814 0
-0 -0 -0 24 94338816 0 19 769 0
-0.84677416 -0.32694462 -0.039350655 32 94528768 26 19 728 26
-0.836712 -0.31132266 -0.038085055 21 94730496 17 19 779 17
-0.85548097 -0.30640087 -0.039435029 54 94921984 45 19 815 45
-0.86671472 -0.29847211 -0.040110018 119 95120896 101 19 705 101
-0.87315071 -0.2887511 -0.040363137 131 95313920 111 19 745 111
-0.87947822 -0.27891693 -0.040616259 148 95512064 127 19 771 127
-0.8856954 -0.26897079 -0.040869381 164 95706624 141 19 785 141
-0.89180052 -0.25891396 -0.0411225 183 95903232 159 19 754 159
-0.9016332 -0.24981031 -0.041713115 165 96098816 145 19 824 145
-0.90944868 -0.23999633 -0.042134982 151 96291840 134 19 804 134
-0.9161917 -0.22978596 -0.042472478 150 96489984 135 19 759 135
-0.92379004 -0.21967621 -0.042894345 149 96682496 135 19 762 135
-0.93224972 -0.20963264 -0.043400586 128 96881408 117 19 782 117
-0.94352567 -0.20003311 -0.044159945 108 97070336 101 19 795 101
-0.9527505 -0.18979955 -0.04475056 102 97270784 97 19 796 97
-0.95990598 -0.17900495 -0.045172427 108 97456640 103 19 837 103
-0.97381181 -0.16925488 -0.046184909 97 97660416 95 19 762 95
-0.97679925 -0.15745015 -0.046269283 100 97844992 98 19 811 98
-0.97964352 -0.14559758 -0.046353657 124 98050816 122 19 734 122
-0.98036909 -0.13343088 -0.046269283 139 98231296 137 19 800 137
-0.98687744 -0.12199953 -0.046691153 110 98439424 109 19 786 109
-0 -0 -0 48 98620928 0 19 1199 0
-0 -0 -0 16 98831360 0 19 2467 0
-0 -0 -0 0 99010560 0 19 4117 0
-0 -0 -0 0 99222528 0 19 6840 0
-0 -0 -0 0 99398400 0 19 8143 0
-0 -0 -0 0 99613184 0 19 7543 0
-0 -0 -0 0 99790336 0 19 6590 0
-0 -0 -0 24 0 0 20 4363 0
-0 -0 -0 4 178176 0 20 4366 0
-0 -0 -0 24 393984 0 20 4175 0
-0 0 -0 58 570880 0 20 2709 0
-0 0 -0 113 782336 0 20 1985 0
-0 0 -0 130 962048 0 20 1600 0
-0 0 -0 95 1172736 0 20 1709 0
-0 0 -0 126 1352960 0 20 1743 0
-0 0 -0 64 1561856 0 20 1293 0
-0 0 -0 74 1746176 0 20 993 0
-1.0950992 0.10739467 -0.082425565 312 1952512 383 20 1051 383
-1.0788784 0.11918257 -0.080795161 367 2137344 438 20 959 438
-1.0674685 0.13119689 -0.079708226 391 2343424 458 20 987 458
-1.0470624 0.14174584 -0.077643052 429 2529280 486 20 956 486
-1.0285276 0.15210567 -0.075795263 477 2731264 523 20 894 523
-1.0138246 0.16266376 -0.074382253 477 2919424 510 20 878 510
-0.99608088 0.17237453 -0.072643161 501 3117824 519 20 949 519
-0.98411769 0.18276608 -0.071556225 509 3309056 517 20 934 517
-0.97010088 0.19250251 -0.070251904 509 3507456 505 20 875 505
-0.95405006 0.20151116 -0.068730198 516 3700992 498 20 1000 498
-0.93986613 0.21059078 -0.067425877 525 3896832 493 20 963 493
-0.92753917 0.21981226 -0.066338941 470 4092416 433 20 953 433
-0.91705751 0.22924623 -0.065469392 470 4288000 426 20 1017 426
-0.9026401 0.23744315 -0.064165071 569 4483328 502 20 970 502
-0.8948679 0.24717671 -0.06362161 466 4676352 407 20 1047 407
-0.87362689 0.25288016 -0.061556432 380 4874496 318 20 958 318
-0.86379886 0.26156235 -0.060795579 321 5063680 265 20 922 265
-0.87568688 0.27694526 -0.062534675 157 5264640 134 20 930 134
-0.84862435 0.27987641 -0.05981734 100 5454336 80 20 839 80
-0.85546619 0.29382581 -0.061012965 38 5657088 31 20 788 31
-0.85834801 0.30664539 -0.061773818 27 5844224 22 20 801 22
-0.85824758 0.31854072 -0.062208593 24 6050048 21 20 874 21
-0.85241902 0.32833335 -0.061991207 20 6234368 16 20 847 16
-0.82524991 0.3295427 -0.059273873 48 6441984 39 20 886 39
-0.76971167 0.31834504 -0.053187042 100 6624768 70 20 829 70
-0.75661021 0.32385063 -0.052100111 233 6833152 160 20 877 160
-0.74167323 0.32827765 -0.05079579 356 7013888 238 20 888 238
-0.73758894 0.33735439 -0.05079579 428 7223040 285 20 872 285
-0.72350824 0.34170574 -0.049600162 544 7402752 353 20 911 353
-0.71300685 0.34750685 -0.048839308 611 7613440 390 20 951 390
-0.70247298 0.35310215 -0.048078455 656 7788544 411 20 913 411
-0.69367498 0.35940725 -0.047534987 724 8003328 448 20 998 448
-0.68570536 0.36601844 -0.047100212 790 8177408 483 20 967 483
-0.67854935 0.37296775 -0.046774134 760 8389888 461 20 970 461
-0.66959655 0.3788169 -0.046230666 735 8566528 440 20 914 440
-0.65974414 0.38400236 -0.045578506 753 8775424 444 20 1019 444
-0.6498661 0.38900352 -0.044926345 796 8956928 463 20 1020 463
-0.64250445 0.39538479 -0.044600267 699 9164544 403 20 1026 403
-0.63508445 0.40164423 -0.044274185 796 9348352 455 20 1027 455
-0.62677467 0.40723929 -0.043839414 750 9555712 424 20 1036 424
-0.6184237 0.41269121 -0.043404639 761 9742336 426 20 1072 426
-0.61085355 0.41856217 -0.04307856 748 9949184 416 20 1034 416
-0 0 -0 979 10136320 0 20 1561 0
-0.36996916 0.26689669 -0.011992252 8786 10341376 1857 20 4703 1857
-0.37624791 0.2785221 -0.013296573 10398 10529792 2314 20 6748 2314
-0.36568126 0.27770144 -0.012318333 10950 10732800 2337 20 6873 2337
-0.35049015 0.27299497 -0.010687932 9644 10922752 1934 20 5993 1934
-0 0 -0 6432 11124992 0 20 2344 0
-0 0 -0 5416 11314432 0 20 1461 0
-0 0 -0 3441 11512064 0 20 1362 0
-0 0 -0 2698 11704064 0 20 1419 0
-0.35319832 0.31175148 -0.013622654 1789 11900672 403 20 1412 403
-0.37733704 0.34142852 -0.017753001 1140 12094208 299 20 1217 299
-0.44449785 0.41233236 -0.028404953 593 12287232 221 20 1085 221
-0.4797245 0.45613885 -0.034491781 500 12483328 222 20 1085 222
-0.47195622 0.45990887 -0.034165703 669 12674048 294 20 1104 294
-0.49158359 0.49096924 -0.038078662 973 12872704 476 20 1181 476
-0.47996733 0.49127319 -0.037209116 1102 13062400 527 20 1195 527
-0.47184601 0.49496642 -0.036883038 2352 13264128 1115 20 1346 1115
-0.46776634 0.50290424 -0.037209116 1434 13452800 685 20 1284 685
-0.42684302 0.47030765 -0.031557061 5048 13656064 2066 20 1834 2066
-0.45264941 0.51125371 -0.036774345 1770 13842176 835 20 1273 835
-0.44699082 0.51752257 -0.036883038 2563 14048512 1215 20 1411 1215
-0.43996629 0.52220827 -0.036774345 1522 14235392 720 20 1229 720
-0.43604758 0.53064162 -0.037209116 1255 14443008 600 20 1203 600
-0.43447265 0.54216117 -0.038078662 1075 14629376 526 20 1242 526
-0.42595187 0.54510111 -0.037752584 1032 14839040 501 20 1174 501
-0.41742462 0.54791391 -0.037426502 1121 15023104 538 20 1142 538
-0.40889278 0.55059981 -0.037100423 1111 15231744 530 20 1176 530
-0.40094054 0.55396491 -0.036883038 1102 15412480 522 20 1151 522
-0.39239499 0.55640525 -0.036556955 1078 15623680 506 20 1169 506
-0.38385019 0.55871964 -0.036230877 1168 15802880 544 20 1209 544
-0.3764126 0.56256145 -0.036122184 1152 16016384 534 20 1129 534
-0.36893862 0.56630504 -0.036013488 1154 16192768 534 20 1197 534
-0.36142951 0.56995004 -0.035904795 1160 16406016 535 20 1194 535
-0.3538866 0.57349616 -0.035796102 1121 16580608 515 20 1197 515
-0.34631115 0.5769431 -0.035687409 1189 16795136 545 20 1128 545
-0.34020633 0.58286703 -0.035904795 1157 16971264 534 20 1161 534
-0.3340081 0.58872783 -0.036122184 1070 17181440 496 20 1159 496
-0.32723776 0.59365314 -0.036230877 1112 17359872 518 20 1095 518
-0.32039672 0.59850079 -0.03633957 1011 17568256 472 20 1137 472
-0.31348595 0.60326988 -0.036448263 1017 17750784 476 20 1105 476
-0.3060593 0.6070714 -0.036448263 1002 17957888 470 20 1134 470
-0.29945871 0.61256814 -0.036665648 975 18141952 459 20 1119 459
-0.29276916 0.61799401 -0.036883038 948 18348032 449 20 1198 449
-0.28557739 0.62244397 -0.03699173 872 18534656 414 20 1084 414
-0.27832046 0.62681037 -0.037100423 917 18737920 436 20 1062 436
-0.27021584 0.62926495 -0.03699173 865 18926592 411 20 1186 411
-0.26323441 0.63437027 -0.037209116 901 19131904 431 20 1175 431
-0.25616825 0.63939875 -0.037426502 794 19320576 382 20 1133 382
-0.24973384 0.64620394 -0.037861276 783 19519744 381 20 1044 381
-0.24351719 0.65387875 -0.038404744 777 19712000 383 20 1192 383
-0.23647963 0.65962565 -0.038730823 795 19910400 396 20 1173 396
-0.22933753 0.66529793 -0.039056905 782 20104960 393 20 1100 393
-0.22209169 0.67089379 -0.039382983 775 20302080 392 20 1110 392
-0.21384206 0.67356867 -0.039382983 686 20496896 347 20 1075 347
-0.20584887 0.67709339 -0.039491676 702 20694016 356 20 1116 356
-0.19807826 0.6814779 -0.039709065 741 20890112 377 20 1139 377
-0.19049615 0.68673146 -0.040035143 783 21083648 402 20 1108 402
-0.18281481 0.69190115 -0.040361226 762 21282048 395 20 1083 395
-0.17431034 0.69409245 -0.040361226 719 21472512 373 20 1087 373
-0.16669865 0.70004791 -0.040795997 781 21671424 410 20 1157 410
-0.15853116 0.70398062 -0.041013386 812 21861376 428 20 1142 428
-0.1507041 0.70976311 -0.041448157 768 22062336 410 20 1098 410
-0.14237086 0.71350896 -0.041665547 819 22249216 439 20 1109 439
-0.13433236 0.71911138 -0.042100318 796 22452992 432 20 1097 432
-0.12583767 0.72266459 -0.042317703 764 22637568 417 20 1121 417
-0.11743394 0.7270987 -0.042643785 745 22844672 410 20 1089 410
-0.10894025 0.731435 -0.042969864 754 23027968 418 20 1099 418
-0.10062546 0.73764187 -0.043513332 798 23236352 448 20 1026 448
-0.092052877 0.74276751 -0.043948106 794 23415552 451 20 1115 451
-0.083588846 0.74976933 -0.044600267 798 23625728 460 20 1024 460
-0.074966736 0.75667429 -0.045252427 833 23805440 487 20 1028 487
-0.065846242 0.75951809 -0.045469813 827 24017664 487 20 1121 487
-0.057033185 0.76720858 -0.046230666 854 24194560 512 20 1063 512
-0.047919173 0.77281171 -0.046774134 829 24409344 503 20 1065 503
-0.038578499 0.77632016 -0.047100212 851 24586496 521 20 1024 521
-0.029342186 0.78468233 -0.047969762 752 24800000 470 20 1098 470
-0.019857483 0.79094595 -0.048621923 724 24978176 459 20 1026 459
-0.010223447 0.79709411 -0.04927408 770 25192960 496 20 1059 496
-0.00044156224 0.80411804 -0.050034937 744 25370368 487 20 1063 487
0.0095111728 0.81102091 -0.05079579 701 25581568 468 20 1051 468
0.0197549 0.82276845 -0.052100111 718 25763840 493 20 1057 493
0.030434433 0.83835858 -0.053839203 828 25973504 591 20 1003 591
0.041012362 0.84387922 -0.054491363 760 26156032 550 20 1053 550
0.052034788 0.85422671 -0.055686992 816 26363904 606 20 1029 606
0.062878869 0.85848075 -0.056230459 781 26546688 586 20 1067 586
0.074176028 0.86655825 -0.057208698 820 26753280 628 20 1074 628
0.085193932 0.86953992 -0.057643473 790 26938880 611 20 1081 611
0.096843652 0.87732124 -0.058621712 868 27142400 685 20 1122 685
0.10808893 0.88001317 -0.059056487 909 27329792 724 20 1101 724
0.11994965 0.88650084 -0.059926033 1004 27529216 813 20 1105 813
0.13081935 0.88496208 -0.059926033 1176 27718912 952 20 1162 952
0.14419499 0.89899349 -0.061665125 1419 27917312 1192 20 1147 1192
0.15555593 0.8991152 -0.061882515 1412 28110336 1190 20 1175 1190
0.16675964 0.89811587 -0.061991207 1714 28308224 1449 20 1218 1449
0.17699286 0.89210194 -0.061556432 1199 28501760 1005 20 1118 1005
0.18730953 0.88694519 -0.061230354 2317 28697856 1930 20 1260 1930
0.1975264 0.88167 -0.060904272 1353 28893952 1120 20 1215 1120
0.20901984 0.88208121 -0.061230354 1586 29088512 1321 20 1239 1321
0.21524052 0.86112815 -0.05916518 1214 29286144 968 20 1214 968
0.22427194 0.8526544 -0.058513019 970 29478144 764 20 1099 764
0.23259787 0.84217334 -0.057643473 998 29676544 772 20 1073 772
0.23793259 0.82206994 -0.055686992 1243 29867264 923 20 1114 923
0.23934765 0.79054958 -0.052426189 1685 30068992 1166 20 1177 1166
0.25263274 0.79892498 -0.05373051 1249 30258176 887 20 1161 887
0.26054719 0.79010111 -0.05307835 1041 30460672 730 20 1197 730
0.26699013 0.77744401 -0.051991414 1176 30646784 805 20 1124 805
0.27450144 0.76849318 -0.051339254 1051 30852096 709 20 1150 709
0.28010216 0.75481689 -0.050143629 1077 31037184 708 20 1083 708
0.28505141 0.74019289 -0.048839308 1081 31243520 688 20 1124 688
0.28968456 0.72556281 -0.047534987 1065 31426304 659 20 1135 659
0.29514331 0.71368742 -0.046556748 1031 31635200 623 20 1129 623
0.30035475 0.70178854 -0.045578506 986 31815680 583 20 1093 583
0.30572191 0.69077933 -0.04470896 991 32026368 573 20 1100 573
