# .PCD v0.7 - Point Cloud Data file format
VERSION 0.7
FIELDS x y z intensity t reflectivity ring noise range
SIZE 4 4 4 4 4 2 2 2 4
TYPE F F F F U U U U U
COUNT 1 1 1 1 1 1 1 1 1
WIDTH 807
HEIGHT 1
VIEWPOINT 0 0 0 1 0 0 0
POINTS 807
DATA ascii
-0.15825775 0.70335019 0.045902979 792 21873152 412 15 1175 412
-0.15044259 0.70915228 0.045958128 802 22066432 421 15 1149 421
-0.14231376 0.71388716 0.045999493 762 22260992 404 15 1192 404
-0.13427421 0.71951193 0.046054643 772 22455040 414 15 1137 414
-0.12577626 0.72307593 0.046082217 780 22649088 421 15 1170 421
-0.11736974 0.72752661 0.046123579 796 22844416 432 15 1141 432
-0.10857964 0.72990125 0.04613737 756 23037952 412 15 1150 412
-0.1001523 0.73514199 0.046192519 706 23233024 389 15 1136 389
-0.091734886 0.74127769 0.046261456 786 23426304 439 15 1137 439
-0.083291985 0.74831051 0.046344183 780 23621120 443 15 1084 443
-0.074494384 0.75325668 0.046399333 699 23816448 401 15 1093 401
-0.06567356 0.75909531 0.046468273 761 24011264 442 15 1096 442
-0.056647144 0.76383287 0.046523422 814 24205312 478 15 1125 478
-0.047697917 0.77145672 0.046619937 765 24400896 458 15 1071 458
-0.038570043 0.77897489 0.046716452 737 24597504 449 15 1080 449
-0.029191392 0.78438568 0.046785388 772 24792064 476 15 1115 476
-0.019685725 0.78968287 0.046854328 801 24988416 500 15 1020 500
-0.010042263 0.79386431 0.046909478 802 25185024 506 15 1120 506
-0.00029891648 0.79992723 0.046992205 796 25380608 510 15 1063 510
0.0096164793 0.80786926 0.047102503 762 25576704 498 15 1119 498
0.019677442 0.81368804 0.047185231 834 25774336 553 15 1123 553
0.03014103 0.82637519 0.04736447 793 25970176 542 15 1117 542
0.040771373 0.83593005 0.047502346 809 26166528 567 15 1159 567
0.051579267 0.84434891 0.047626436 814 26361856 583 15 1084 583
0.062747173 0.85462147 0.0477781 760 26557184 559 15 1163 559
0.074174844 0.86474538 0.047929764 874 26753280 659 15 1159 659
0.08546783 0.87073559 0.048026279 835 26948608 640 15 1142 640
0.097360179 0.88055301 0.048177943 863 27143168 678 15 1158 678
0.10889363 0.88524616 0.04826067 930 27338752 740 15 1153 740
0.12082617 0.89176959 0.048370969 988 27532800 801 15 1168 801
0.13293506 0.89813226 0.048481271 1196 27728640 986 15 1244 986
0.14458232 0.90038204 0.048536424 1365 27923456 1136 15 1209 1136
0.15647577 0.90346587 0.04860536 1435 28120320 1207 15 1228 1207
0.16590273 0.8926307 0.048481271 1840 28315904 1517 15 1188 1517
0.17879598 0.9003343 0.048619147 1430 28511488 1206 15 1205 1206
0.1890022 0.89415962 0.048563998 2625 28707072 2194 15 1385 2194
0.20105663 0.89665085 0.048632935 1512 28902400 1277 15 1279 1277
0.20811535 0.87757808 0.048398547 1687 29096448 1375 15 1327 1375
0.21789666 0.87107843 0.048343394 1124 29291264 907 15 1192 907
0.22500047 0.85480297 0.048150368 1007 29485824 787 15 1212 787
0.23280536 0.84234095 0.048012491 949 29680640 725 15 1146 725
0.24228884 0.83653969 0.047971129 972 29875968 738 15 1230 738
0.25195551 0.83158982 0.047943551 1046 30071296 790 15 1261 790
0.25670397 0.81127805 0.047695376 1018 30266624 739 15 1307 739
0.26193392 0.79382575 0.047488559 1034 30460928 722 15 1226 722
0.26840183 0.78109682 0.047350682 962 30654976 657 15 1188 657
0.2762821 0.7730372 0.047281746 1001 30850304 676 15 1148 676
0.27947485 0.75271875 0.047033567 865 31044608 559 15 1184 559
0.28761095 0.74643391 0.046992205 977 31238400 625 15 1271 625
0.29117844 0.72892261 0.046785388 888 31433216 547 15 1208 547
0.29665679 0.71698076 0.046661299 864 31628800 520 15 1218 520
0.30188641 0.70501548 0.046537209 894 31823616 526 15 1130 526
0.30727288 0.69394517 0.046426911 910 32018432 525 15 1160 525
0.31160063 0.68103182 0.046289034 851 32212992 478 15 1193 478
0.31608596 0.66902202 0.046164945 843 32408576 461 15 1178 461
0.31988534 0.65610737 0.046027068 848 32602624 452 15 1214 452
0.32521471 0.64677393 0.045944341 803 32797184 421 15 1200 421
0.32667887 0.63030928 0.045751315 576 32992256 290 15 1012 290
0.35701862 0.66857868 0.04641312 107 33187840 61 15 919 61
0.37098303 0.67465842 0.046578575 96 33381888 57 15 908 57
0.38909313 0.6874541 0.046854328 22 33577216 14 15 919 14
0.43980107 0.75518978 0.048012491 11 33773312 9 15 882 9
0 0 0 7 33967872 0 15 863 0
0.76091492 1.2353213 0.055967972 9 34163200 20 15 918 20
0.80544406 1.27235 0.056726296 13 34359296 31 15 916 31
0.87662429 1.3478549 0.058132637 20 34554624 54 15 868 54
0.91587847 1.3710804 0.058697931 40 34752768 111 15 904 111
0.92924017 1.3547912 0.058615204 35 34948352 97 15 874 97
0.94752312 1.3457383 0.058656566 398 35144704 1080 15 1010 1080
0.96748102 1.3388714 0.058739293 61 35341056 169 15 889 169
0.98085952 1.3228827 0.058670357 77 35538432 211 15 964 211
0.55800277 0.73386741 0.0486743 160 35736576 136 15 931 136
0.56389016 0.72302359 0.04860536 134 35932672 112 15 848 112
0.60958856 0.76210445 0.049418833 236 36130816 225 15 911 225
0.64236826 0.78316253 0.049928974 332 36329216 341 15 935 341
0.65901291 0.78363603 0.050080642 335 36525568 352 15 940 352
0.6809904 0.78987414 0.050342605 384 36721920 418 15 965 418
0.70653051 0.79943371 0.050673511 406 36918016 463 15 911 463
0.7297191 0.80551946 0.050949264 386 37114880 457 15 919 457
0.76337069 0.82214189 0.051431831 329 37308928 415 15 924 415
0.79753655 0.83805585 0.051914401 347 37503744 465 15 937 465
0.82661718 0.84752655 0.052286666 293 37697792 412 15 929 412
0.85251194 0.85287207 0.052589994 315 37891072 459 15 950 459
0.87436563 0.85351795 0.052810598 367 38085888 549 15 873 549
0.89563757 0.85306478 0.053017411 290 38279680 445 15 930 445
0.92875099 0.86310387 0.053444829 175 38472704 283 15 899 283
0.93186313 0.84492749 0.053306952 77 38667520 123 15 894 123
0 0 0 13 38861824 0 15 908 0
0 0 0 6 39056384 0 15 851 0
0 0 0 6 39249664 0 15 870 0
2.8142729 2.3095999 0.086162955 336 39443712 4467 15 913 4467
2.8439648 2.27614 0.086190537 413 39639040 5491 15 973 5491
2.8653758 2.2361481 0.086080231 420 39833600 5562 15 942 5562
2.8957844 2.2032387 0.08613538 469 40027904 6222 15 955 6222
2.9137683 2.1609859 0.085983716 485 40221440 6394 15 981 6394
2.9311526 2.1186247 0.085832052 500 40416000 6553 15 1003 6553
2.9651062 2.0882518 0.085969932 634 40611584 8351 15 1014 8351
2.9954565 2.0551019 0.086052656 828 40805888 10941 15 970 10941
3.0146301 2.0143001 0.085956141 978 41000192 12865 15 1091 12865
3.0391216 1.9771544 0.085956141 896 41196288 11786 15 1097 11786
3.055552 1.9348972 0.085832052 903 41391616 11821 15 1061 11821
3.0884309 1.9030241 0.085983716 843 41586432 11104 15 1076 11104
3.1106937 1.864467 0.085969932 740 41782016 9745 15 1036 9745
3.1376591 1.8286706 0.086038865 722 41978112 9536 15 1039 9536
3.1529028 1.7860869 0.085928567 501 42174208 6591 15 959 6591
3.1763356 1.7482256 0.085956141 471 42370304 6206 15 926 6206
3.2240064 1.723253 0.086369775 658 42566656 8805 15 971 8805
3.2085187 1.6646835 0.085804477 478 42762496 6257 15 999 6257
3.2081621 1.6148468 0.085487366 234 42958848 3031 15 891 3031
3.2304332 1.5766716 0.085528724 192 43155712 2492 15 927 2492
3.2649052 1.5441766 0.085763112 202 43350784 2646 15 954 2646
3.3108826 1.5164835 0.086176746 233 43545600 3102 15 921 3102
3.3219295 1.4724989 0.086066447 224 43741696 2968 15 963 2968
3.3195298 1.4229581 0.085763112 199 43937024 2609 15 865 2609
3.3348939 1.3813502 0.085735537 245 44131840 3205 15 888 3205
3.3766625 1.3503437 0.086107805 184 44327680 2444 15 972 2444
3.4079061 1.3145614 0.08632841 204 44523008 2733 15 919 2733
3.4406524 1.2789112 0.086576588 253 44717568 3420 15 926 3420
3.4551461 1.236256 0.086562797 233 44913152 3149 15 946 3149
3.4776211 1.1963644 0.086673103 264 45108992 3584 15 890 3584
3.4740005 1.1476412 0.086411133 170 45302528 2288 15 915 2288
6.7164745 2.1273682 0.13310996 961 45498112 47757 15 973 47757
6.7535572 2.0482683 0.1332754 976 45691648 48657 15 972 48657
3.6531415 1.0593615 0.088410348 649 45885952 9394 15 1702 9394
3.6649027 1.0141854 0.088396557 256 46080512 3714 15 989 3714
3.4179399 0.90086585 0.084701464 70 46275328 884 15 940 884
3.4297075 0.85909754 0.084715255 67 46471424 849 15 872 849
3.4536119 0.82017803 0.084908277 64 46666496 807 15 817 807
3.5092714 0.78802693 0.085556298 33 46861568 437 15 942 437
3.5235689 0.74593836 0.085625239 64 47055872 841 15 918 841
3.5589366 0.70790666 0.085997507 57 47251456 762 15 915 762
3.5762029 0.66582596 0.086121596 52 47445248 697 15 971 697
3.5900156 0.62291533 0.08620432 61 47639808 810 15 841 810
3.6033127 0.57976586 0.086287044 76 47834112 1023 15 917 1023
3.6279597 0.53814292 0.086535223 50 48029440 684 15 917 684
3.6432078 0.49479192 0.086659312 72 48224000 986 15 874 986
3.6698458 0.45261499 0.086948857 54 48419840 751 15 900 751
3.7059324 0.41095945 0.087376274 68 48614656 957 15 930 957
3.7256229 0.36691952 0.087583087 82 48809728 1161 15 924 1161
3.7706902 0.32468566 0.088148378 72 49004288 1045 15 876 1045
3.8033097 0.28051907 0.088548221 49 49200128 725 15 906 725
3.8284223 0.23517202 0.088851549 80 49395712 1190 15 909 1190
3.8599825 0.18959334 0.089251392 81 49590016 1222 15 934 1222
3.8909962 0.14327529 0.089651234 101 49784576 1544 15 938 1544
3.9384432 0.096639767 0.090285473 112 49980160 1739 15 854 1739
3.9523304 0.048459832 0.090464711 98 50175232 1531 15 844 1531
4.0976138 -6.0805309e-05 0.092463918 67 50371072 1139 15 925 1139
4.3302646 -0.053229231 0.095676444 195 50566912 3674 15 939 3674
4.3532758 -0.10695578 0.096007347 219 50762240 4169 15 920 4169
4.3816118 -0.16147649 0.096420981 242 50957312 4670 15 894 4670
4.4182496 -0.21715117 0.096958697 266 51153408 5220 15 977 5220
4.4382067 -0.27276629 0.097275816 312 51349504 6188 15 914 6188
4.4624462 -0.32927203 0.097661868 291 51545088 5845 15 905 5845
4.4959254 -0.38727242 0.0981858 287 51740416 5863 15 929 5863
4.5296426 -0.44624174 0.098723523 306 51936256 6357 15 953 6357
4.560596 -0.50587565 0.099233665 367 52133120 7746 15 970 7746
4.605648 -0.56817347 0.099950619 454 52329728 9800 15 908 9800
3.4321647 -0.46613541 0.083722539 481 52525056 5775 15 1233 5775
4.6842785 -0.69497895 0.10126045 272 52721408 6117 15 1013 6117
7.6191988 -1.226401 0.14237526 198 52915968 11845 15 916 11845
5.2273564 -0.90722781 0.10911942 166 53111808 4692 15 1005 4692
3.1043627 -0.57794458 0.079503514 288 53307392 2880 15 946 2880
3.0960562 -0.61580122 0.07948973 270 53502208 2699 15 957 2699
3.0921791 -0.65457702 0.079544879 310 53696000 3106 15 950 3106
3.0887914 -0.69356942 0.07961382 341 53890816 3427 15 929 3427
3.0888031 -0.73350173 0.079737909 59 54085120 604 15 880 604
3.0689003 -0.76867718 0.079586245 38 54278144 390 15 863 390
3.0611701 -0.80678928 0.07961382 178 54473216 1794 15 873 1794
5.6095438 -1.5526279 0.11622006 146 54668544 4971 15 984 4971
4.5558157 -1.3212988 0.10137075 47 54863104 1079 15 867 1079
4.5335174 -1.3753639 0.10128803 49 55058176 1120 15 890 1120
4.4638734 -1.4142792 0.1005297 136 55252992 3004 15 878 3004
4.4034586 -1.4548323 0.099909261 71 55447808 1545 15 920 1545
4.3710918 -1.5038792 0.09970244 76 55641856 1644 15 889 1644
4.3118267 -1.5429167 0.099109575 38 55835648 797 15 846 797
4.3319311 -1.6103498 0.099688657 563 56030720 12043 15 960 12043
4.3398294 -1.6741868 0.10010228 676 56225536 14644 15 1004 14644
5.126646 -2.0504205 0.11209755 867 56421632 26462 15 1370 26462
5.1158781 -2.119302 0.11231816 1727 56615680 52983 15 1635 52983
5.3394494 -2.2891049 0.1160684 1443 56811264 48728 15 1069 48728
5.0239358 -2.227191 0.11173908 137 57007360 4165 15 911 4165
4.9462295 -2.2657676 0.11098076 167 57201152 4972 15 878 4972
4.8674364 -2.3023486 0.11020865 187 57397760 5452 15 863 5452
4.8217444 -2.3535714 0.10994668 133 57594112 3852 15 963 3852
4.7398071 -2.386034 0.10913321 120 57789696 3405 15 901 3405
4.684432 -2.4306619 0.10873336 113 57984256 3170 15 936 3170
4.6013441 -2.4596772 0.1079061 99 58180352 2721 15 882 2721
4.1924105 -2.3076327 0.10194983 9 58377472 228 15 861 228
4.1507273 -2.3515122 0.10174302 14 58572800 340 15 867 340
4.1189666 -2.4007602 0.10170165 8 58767872 200 15 935 200
4.0943408 -2.4542103 0.10178438 11 58964480 272 15 867 272
4.0749812 -2.5110896 0.10196362 8 59159808 204 15 889 204
4.4467888 -2.8161204 0.10854033 81 59355904 2245 15 850 2245
4.4160862 -2.873204 0.10860927 1220 59551232 33876 15 1252 33876
4.3547235 -2.909956 0.10818186 1013 59746560 27802 15 1238 27802
3.9592264 -2.7165012 0.10217044 549 59941632 12676 15 1053 12676
3.932132 -2.7694893 0.10228074 597 60136960 13830 15 975 13830
3.8913674 -2.8128474 0.10217044 521 60331264 12029 15 1079 12029
1.4072046 -1.0434113 0.060118061 243 60528384 749 15 874 749
3.0835555 -2.3461633 0.089389272 56 60724736 853 15 923 853
3.0600495 -2.3881333 0.089485787 57 60919552 859 15 853 859
1.3366222 -1.069504 0.059566554 641 61115136 1882 15 1046 1882
1.3094856 -1.0744064 0.059318375 899 61310464 2581 15 1031 2581
1.2962023 -1.090395 0.059318375 1310 61506304 3763 15 1159 3763
1.2827239 -1.1062193 0.059318375 1624 61699584 4661 15 1228 4661
1.2817851 -1.1331383 0.059552766 2448 61893632 7170 15 1598 7170
1.2640792 -1.1454246 0.059483826 6316 62087936 18387 15 3007 18387
1.2323477 -1.1445158 0.059152924 7538 62283520 21331 15 4311 21331
1.2268991 -1.167827 0.059318375 9580 62478336 27494 15 5928 27494
1.2038887 -1.1744144 0.059152924 1699 62674944 4809 15 1386 4809
0.91720563 -0.91685957 0.053844672 99 62868992 168 15 902 168
0.86468965 -0.88581747 0.053031199 327 63065344 503 15 919 503
0.85375416 -0.89636183 0.053031199 244 63261184 375 15 937 375
0.85834068 -0.92362237 0.053348318 109 63456512 174 15 908 174
0.83149922 -0.91704404 0.053031199 283 63652352 435 15 940 435
1.1254901 -1.2725312 0.059387315 941 63848960 2718 15 1109 2718
1.1104424 -1.287004 0.059401102 943 64045312 2729 15 1107 2729
1.0907031 -1.2959429 0.059318375 705 64242432 2024 15 1042 2024
0.95294207 -1.1608127 0.056671143 27 64437504 63 15 898 63
0 -0 0 6 64634368 0 15 867 0
1.0625619 -1.3612257 0.059773367 283 64830464 844 15 847 844
1.0463829 -1.3749583 0.059787154 291 65026304 871 15 949 871
1.0347912 -1.3949243 0.059911244 227 65221120 687 15 917 687
1.0181811 -1.4083282 0.059925031 254 65417472 770 15 866 770
1.0060031 -1.428075 0.06004912 210 65612288 643 15 892 643
0.99518973 -1.4502075 0.060214575 169 65807360 525 15 890 525
0.97954023 -1.4656366 0.060269725 164 66001152 512 15 881 512
0.96202606 -1.4783849 0.060283512 136 66197504 426 15 907 426
0.94488126 -1.4917687 0.060311086 149 66393856 464 15 854 464
0.92860156 -1.5066569 0.060366239 99 66588928 310 15 846 310
0.89924949 -1.499927 0.060076699 159 66784000 489 15 914 489
0.88027197 -1.5099853 0.060062908 191 66979840 586 15 904 586
0.86118311 -1.5198039 0.06004912 302 67176192 924 15 908 924
0.83716547 -1.5206211 0.059897456 362 67371264 1094 15 952 1094
0.81702828 -1.5281342 0.059856094 442 67565824 1328 15 845 1328
0.79683304 -1.5353825 0.059814733 409 67761408 1226 15 928 1226
0.35857493 -0.71170044 0.046950839 47 67956992 29 15 852 29
0.34981427 -0.71604711 0.046950839 37 68152064 23 15 851 23
0.34100091 -0.72028595 0.046950839 43 68348928 27 15 874 27
0.33213624 -0.72441638 0.046950839 47 68543744 29 15 830 29
0.3232215 -0.7284376 0.046950839 62 68739840 39 15 825 39
0.31425813 -0.73234922 0.046950839 71 68935936 45 15 848 45
0.30409977 -0.73337901 0.046909478 513 69132032 323 15 955 323
0.29507717 -0.73705554 0.046909478 735 69329408 463 15 1033 463
0.28708944 -0.74341995 0.046950839 772 69526528 490 15 1260 490
0.59418619 -1.5979444 0.059470039 817 69722624 2378 15 1799 2378
0.57621598 -1.6098231 0.059538979 1584 69918976 4636 15 1964 4636
0.55609238 -1.6158274 0.059525192 1504 70113792 4397 15 2048 4397
0.53214574 -1.6101867 0.059345949 845 70309632 2432 15 1932 2432
0.23975462 -0.75581241 0.04689569 836 70503936 526 15 1380 526
0.22959113 -0.75582701 0.046854328 741 70699520 462 15 1202 462
0.21918513 -0.75474608 0.046799175 819 70895104 507 15 1087 507
0.20910698 -0.75448787 0.046757814 903 71090432 554 15 1039 554
0.19957778 -0.7560302 0.046744026 855 71285248 524 15 1010 524
0.19028509 -0.75842237 0.046744026 852 71481344 521 15 1062 521
0.18050189 -0.75875461 0.046716452 770 71674624 469 15 1065 469
0.1713962 -0.76188815 0.046730239 778 71870464 475 15 984 475
0.16286169 -0.76784706 0.046785388 830 72064768 511 15 1021 511
0.15342675 -0.76978779 0.046785388 939 72256256 579 15 1053 579
0.14396873 -0.77161264 0.046785388 944 72450048 582 15 1047 582
0.13448901 -0.77332127 0.046785388 887 72643840 548 15 994 548
0.12498904 -0.77491343 0.046785388 795 72837888 491 15 1036 491
0.11576347 -0.77836704 0.046812963 743 73030912 460 15 1028 460
0.10633745 -0.78071988 0.04682675 762 73226240 474 15 1026 474
0.096993394 -0.78395081 0.046854328 888 73420544 554 15 1082 554
0.087475911 -0.78607589 0.046868116 834 73616384 522 15 1052 522
0.078018762 -0.78908032 0.04689569 788 73811456 496 15 1064 496
0.068158291 -0.78798586 0.046868116 881 74006784 551 15 1072 551
0.059070952 -0.79674059 0.046978414 801 74201600 512 15 1043 512
0.049595304 -0.80239564 0.047047354 696 74398720 450 15 1031 450
0.039842848 -0.80494124 0.047074929 657 74594304 428 15 1070 428
0.029851897 -0.80237186 0.047033567 624 74792448 403 15 948 403
0.020052172 -0.80467701 0.047061142 647 74989056 420 15 952 420
0.010176037 -0.80486244 0.047061142 701 75184384 455 15 894 455
0.00029826205 -0.80592662 0.047074929 182 75380736 118 15 897 118
-0.0096164793 -0.80786926 0.047102503 65 75576576 43 15 894 43
-0.019480258 -0.80569124 0.047074929 53 75771136 34 15 931 34
-0.029292036 -0.80339307 0.047047354 43 75967488 28 15 901 28
-0.03919787 -0.80397183 0.047061142 34 76163328 22 15 918 22
-0.049122315 -0.80442828 0.047074929 39 76359424 25 15 854 25
-0.058695521 -0.79977614 0.04701978 46 76556032 30 15 882 30
-0 -0 0 8 76752128 0 15 892 0
-1.6688699 -16.929327 0.27053159 33 76946944 9805 15 909 9805
-1.8874147 -17.005959 0.27189657 44 77142272 13145 15 903 13145
-2.1139705 -17.127396 0.27392337 31 77337600 9502 15 899 9502
-2.3498485 -17.290398 0.27657059 49 77534464 15168 15 940 15168
-2.5926845 -17.467962 0.279466 47 77729024 14915 15 935 14915
-2.8303728 -17.580936 0.2815066 56 77925120 18046 15 899 18046
-3.0717337 -17.693638 0.28358853 60 78121216 19636 15 911 19636
-0.26808912 -1.4411403 0.056174789 274 78316288 590 15 919 590
-0.2841925 -1.4298965 0.056064487 270 78511104 575 15 1020 575
-0.30026776 -1.419454 0.055967972 305 78705664 643 15 951 643
-0.32511637 -1.4488323 0.056436755 285 78901760 630 15 947 630
-0.34610727 -1.4583529 0.056629781 227 79098112 511 15 962 511
-0.35158125 -1.4045304 0.05592661 79 79293696 167 15 942 167
-0.3756741 -1.4262153 0.056298878 64 79489024 141 15 873 141
-5.2850556 -19.091082 0.30910948 35 79684096 14013 15 983 14013
-0.54512483 -1.8803954 0.062958315 60 79880192 233 15 961 233
-0.56119049 -1.8506007 0.062627412 45 80076800 171 15 927 171
-6.2496934 -19.721466 0.32122883 34 80272384 14893 15 945 14893
-0.37488592 -1.1356111 0.052452117 422 80466944 604 15 1015 604
-0.38553953 -1.1214703 0.05231424 538 80661504 757 15 1057 757
-0.39556611 -1.106299 0.052162576 624 80857088 862 15 1009 862
-0.40667289 -1.0948011 0.052066065 612 81052928 836 15 1074 836
-0.41503769 -1.076668 0.051873036 643 81246208 858 15 1005 858
-0.42004839 -1.0510695 0.051569708 731 81440000 938 15 1022 938
-0.43100128 -1.041217 0.051500771 695 81634816 884 15 1041 884
-0.44138181 -1.0303357 0.051418044 692 81830144 870 15 1031 870
-0.44912875 -1.0138727 0.051252592 741 82024192 912 15 988 912
-0.45903778 -1.0028306 0.051169865 735 82216704 894 15 1070 894
-0.46746096 -0.98898733 0.051045775 780 82409472 935 15 948 935
-0.47693014 -0.97778511 0.050963052 825 82605568 979 15 943 979
-0.48709449 -0.96828645 0.050907899 608 82801408 715 15 966 715
-0.5187456 -1.0003989 0.051500771 470 82995968 598 15 960 598
-0.54088342 -1.0124753 0.051790312 356 83192576 470 15 981 470
-0.55953634 -1.0171487 0.051969551 422 83387904 570 15 972 570
-0.58183509 -1.0276047 0.052245304 421 83582976 588 15 1033 588
-0.61152345 -1.0497577 0.052714083 318 83778048 470 15 1162 470
-0 -0 0 277 83974656 0 15 3787 0
-0 -0 0 4 84169472 0 15 7074 0
-0 -0 0 0 84364800 0 15 8678 0
-0 -0 0 0 84560128 0 15 10741 0
-0 -0 0 0 84756224 0 15 9820 0
-0 -0 0 0 84952576 0 15 7555 0
-0 -0 0 0 85147648 0 15 4625 0
-0 -0 0 74 85344768 0 15 4640 0
-0 -0 0 27 85541632 0 15 5827 0
-0 -0 0 0 85740032 0 15 5157 0
-0 -0 0 0 85936128 0 15 5639 0
-0 -0 0 0 86134016 0 15 6129 0
-0 -0 0 0 86330880 0 15 6598 0
-0 -0 0 0 86528256 0 15 7520 0
-0 -0 0 0 86723584 0 15 8142 0
-0 -0 0 0 86920448 0 15 8791 0
-0 -0 0 0 87116032 0 15 7777 0
-0 -0 0 0 87310592 0 15 7938 0
-0 -0 0 0 87504384 0 15 7887 0
-0 -0 0 0 87699456 0 15 8122 0
-0 -0 0 0 87893504 0 15 7784 0
-0 -0 0 0 88088064 0 15 7037 0
-0 -0 0 0 88281600 0 15 6039 0
-0 -0 0 0 88475392 0 15 5603 0
-0 -0 0 0 88669696 0 15 6341 0
-0 -0 0 0 88864256 0 15 6086 0
-0 -0 0 0 89058560 0 15 6666 0
-0 -0 0 0 89252608 0 15 6101 0
-0 -0 0 0 89449984 0 15 6789 0
-0 -0 0 0 89644544 0 15 8392 0
-0 -0 0 0 89839104 0 15 6263 0
-0 -0 0 0 90033408 0 15 5336 0
-0 -0 0 0 90228224 0 15 5308 0
-0 -0 0 0 90425600 0 15 4839 0
-0 -0 0 0 90619648 0 15 4678 0
-0 -0 0 1 90815488 0 15 3679 0
-0 -0 0 2 91010560 0 15 3537 0
-0 -0 0 0 91204352 0 15 3637 0
-0 -0 0 1 91399168 0 15 3121 0
-0 -0 0 4 91595264 0 15 3019 0
-0 -0 0 2 91790336 0 15 3377 0
-0 -0 0 2 91984896 0 15 3121 0
-0 -0 0 0 92180224 0 15 3471 0
-0 -0 0 4 92375808 0 15 2408 0
-0 -0 0 8 92570368 0 15 1605 0
-0 -0 0 3 92764928 0 15 1703 0
-0 -0 0 5 92960256 0 15 1997 0
-0 -0 0 5 93156608 0 15 1209 0
-0 -0 0 4 93351936 0 15 2118 0
-0 -0 0 1 93547776 0 15 3129 0
-0 -0 0 2 93743360 0 15 2433 0
-0 -0 0 5 93939712 0 15 1727 0
-0 -0 0 4 94135552 0 15 1103 0
-0 -0 0 9 94332416 0 15 994 0
-0 -0 0 8 94529024 0 15 979 0
-0 -0 0 11 94724864 0 15 876 0
-0 -0 0 7 94920960 0 15 888 0
-0.99838132 -0.34375232 0.050521847 14 95117056 15 15 846 15
-0.88479 -0.29259476 0.048812177 146 95313408 127 15 943 127
-0.89403343 -0.28352624 0.048894901 244 95509504 215 15 988 215
-0.89457476 -0.27166328 0.048853539 303 95704832 265 15 1069 265
-0.89880151 -0.26094338 0.048867326 335 95900672 294 15 967 294
-0.90097231 -0.24962749 0.048853539 384 96094976 336 15 1005 336
-0.90686852 -0.23931658 0.048894901 395 96289280 348 15 1032 348
-0.91264689 -0.22889845 0.048936263 379 96484352 336 15 1007 336
-0.91830575 -0.21837442 0.048977628 380 96679680 339 15 982 339
-0.92384326 -0.20774588 0.04901899 361 96872448 324 15 1080 324
-0.93023604 -0.19722119 0.049074139 310 97066496 281 15 1058 281
-0.94043195 -0.18735063 0.049184442 283 97260544 260 15 1007 260
-0.94855839 -0.17689347 0.049267169 318 97454080 296 15 1024 296
-0.96248013 -0.16728994 0.04943262 283 97648128 271 15 949 271
-0.9802562 -0.158006 0.049653221 246 97842432 243 15 989 243
-0.98904502 -0.1469911 0.049749736 206 98036224 206 15 971 206
-0.97393036 -0.13255712 0.049515348 132 98228480 128 15 989 128
-0 -0 0 68 98422528 0 15 1730 0
-0 -0 0 15 98618112 0 15 1295 0
-0 -0 0 5 98811648 0 15 1499 0
-0 -0 0 3 99006208 0 15 1854 0
-0 -0 0 2 99201536 0 15 2414 0
-0 -0 0 0 99397376 0 15 3214 0
-0 -0 0 0 99592960 0 15 3649 0
-0 -0 0 1 99790080 0 15 2640 0
-0 -0 -0 4 0 0 16 2331 0
-0 -0 -0 5 196864 0 16 2590 0
-0 -0 -0 3 393472 0 16 2316 0
-0 0 -0 0 588032 0 16 3018 0
-0 0 -0 9 783616 0 16 3772 0
-0 0 -0 26 980224 0 16 1758 0
-0 0 -0 23 1176576 0 16 1085 0
-0 0 -0 15 1371136 0 16 1048 0
-0 0 -0 12 1567488 0 16 947 0
-0 0 -0 27 1764096 0 16 883 0
-0 0 -0 53 1959680 0 16 812 0
-1.0813578 0.11945736 0.024203727 308 2155264 364 16 793 364
-1.0540074 0.12953749 0.024494143 499 2351872 563 16 813 563
-1.0305398 0.13950287 0.024739882 621 2545920 673 16 811 673
-1.0198481 0.15081877 0.024840411 610 2740736 649 16 772 649
-1.0070608 0.1615759 0.024963278 659 2936576 686 16 831 686
-0.99219418 0.17170039 0.025108486 641 3130880 651 16 798 651
-0.97821575 0.18166764 0.025242526 676 3326464 669 16 813 669
-0.96512467 0.19151302 0.025365394 671 3522304 650 16 817 650
-0.95585394 0.20189291 0.025443584 699 3718144 667 16 814 667
-0.9406209 0.21076021 0.025588792 652 3913472 607 16 952 607
-0.92823476 0.21997739 0.025700491 653 4109568 595 16 856 595
-0.91673553 0.2291656 0.02580102 626 4305920 560 16 896 560
-0.9051519 0.23810501 0.025901549 645 4497920 566 16 875 566
-0.88674212 0.24492857 0.026080266 478 4692992 405 16 782 405
-0.87502617 0.25328586 0.026180794 425 4887296 353 16 792 353
-0.87567967 0.26516551 0.026136115 252 5081600 211 16 741 211
-0.85424769 0.27015492 0.026348343 115 5276160 92 16 755 92
-0.87935281 0.2900255 0.026013248 59 5472000 50 16 699 50
-0.88423771 0.30372173 0.025912719 34 5666560 30 16 706 30
-0.87479496 0.31252897 0.025979737 23 5861632 20 16 670 20
-0.87089384 0.32324052 0.025979737 25 6057728 21 16 739 21
-0.8621968 0.33210433 0.026035586 31 6252032 26 16 662 26
-0.78377867 0.31296116 0.026929177 82 6447104 58 16 702 58
-0.76879299 0.31796455 0.027063215 205 6640640 142 16 707 142
-0.75380421 0.32264802 0.027197253 331 6835456 222 16 774 222
-0.73698956 0.32620186 0.027353631 440 7030528 286 16 786 286
-0.72747618 0.33272323 0.027420651 619 7224064 396 16 756 396
-0.71791464 0.3390606 0.027487671 689 7419648 434 16 806 434
-0.70830792 0.34521383 0.027554689 792 7612416 492 16 809 492
-0.69865906 0.3511827 0.027621709 816 7805440 500 16 822 500
-0.69163406 0.35834852 0.027655218 892 8000000 541 16 821 541
-0.68453884 0.36539504 0.027688729 876 8193280 527 16 812 527
-0.67474705 0.37087527 0.027755747 926 8388096 550 16 818 550
-0.66666478 0.37715629 0.027800428 900 8581376 529 16 872 529
-0.65507466 0.38128129 0.027889786 945 8775168 543 16 829 543
-0.64777327 0.38774931 0.027923295 862 8971776 492 16 924 492
-0.63870955 0.3930468 0.027979145 886 9167360 499 16 902 499
-0.6321485 0.39978531 0.028001485 872 9363712 488 16 828 488
-0.62468028 0.40587693 0.028034994 867 9560064 482 16 914 482
-0 0 -0 864 9757696 0 16 963 0
-0 0 -0 833 9954560 0 16 906 0
-0 0 -0 1082 10151424 0 16 1345 0
-0.35196403 0.25388438 0.031508826 7749 10348288 1460 16 4093 1460
-0.37532744 0.27783951 0.031140219 10289 10544640 2245 16 6210 2245
-0.36472723 0.27697566 0.031240748 10405 10739968 2191 16 6326 2191
-0.34711078 0.27035803 0.031441808 9516 10936576 1850 16 5435 1850
-0 0 -0 6119 11134208 0 16 2030 0
-0 0 -0 5258 11329280 0 16 1311 0
-0 0 -0 4344 11523840 0 16 1238 0
-0 0 -0 2591 11718912 0 16 1271 0
-0.35460037 0.31299105 0.0310732 1912 11914240 428 16 1272 428
-0.37518412 0.33947745 0.030704595 1130 12108800 290 16 1059 290
-0.43473077 0.40326038 0.029732816 636 12302336 224 16 921 224
-0.4449586 0.42304331 0.029498247 612 12495616 231 16 991 231
-0.47623602 0.46408436 0.028928583 785 12688128 347 16 978 347
-0.47899044 0.47837776 0.028794546 1298 12881664 596 16 1095 596
-0.47517908 0.4863666 0.028761037 1289 13076480 596 16 1026 596
-0.46503755 0.48781621 0.028828055 2994 13272064 1360 16 1217 1360
-0.46718356 0.50227696 0.028694017 1660 13467648 781 16 1138 781
-0.4448671 0.49019155 0.028962094 7373 13662208 3233 16 3287 3233
-0.45869091 0.51808524 0.028626997 2126 13856768 1020 16 1180 1020
-0.42486504 0.49187607 0.029096132 5363 14052864 2267 16 1538 2267
-0.44004375 0.52230036 0.028727526 1826 14249984 854 16 1105 854
-0.43233237 0.52611518 0.028749866 1448 14445824 673 16 1109 673
-0.42709333 0.53294224 0.028727526 1307 14643456 610 16 1087 610
-0.41929063 0.53656667 0.028749866 1288 14839552 598 16 1099 598
-0.41267458 0.54167163 0.028749866 1376 15036160 639 16 1039 639
-0.40718779 0.54830122 0.028727526 1416 15231488 661 16 1089 661
-0.40101445 0.55406713 0.028716357 1519 15426816 712 16 1153 712
-0.39015421 0.55322403 0.028794546 1607 15621888 737 16 1093 737
-0.37994143 0.55302316 0.028861566 1713 15816704 773 16 1014 773
-0.37201518 0.55598122 0.028883904 1754 16012800 786 16 1098 786
-0.36461908 0.5596664 0.028895075 1899 16206592 849 16 1085 849
-0.35932872 0.56663299 0.028861566 1999 16400128 900 16 1127 900
-0.35129899 0.56929731 0.028883904 1876 16594176 841 16 1075 841
-0.34531462 0.57528073 0.028861566 1928 16789760 870 16 1109 870
-0.33772549 0.57861102 0.028872734 1917 16983296 861 16 1088 861
-0.33059961 0.58271188 0.028872734 1838 17178368 826 16 1082 826
-0.32342395 0.586725 0.028872734 1695 17373184 762 16 1098 762
-0.31667098 0.59153152 0.028861566 1534 17568000 692 16 1042 692
-0.30938816 0.59537303 0.028861566 1479 17763840 666 16 1001 666
-0.30115941 0.59733862 0.028883904 1427 17959680 640 16 963 640
-0.29468378 0.60278648 0.028861566 1282 18155008 579 16 998 579
-0.28854725 0.60906905 0.028828055 1249 18351360 569 16 1023 569
-0.28271714 0.61620045 0.028783375 1089 18547456 501 16 1000 501
-0.27513412 0.61962342 0.028783375 1080 18742784 497 16 1021 497
-0.26790372 0.6238721 0.028772205 1030 18938368 475 16 964 475
-0.26061037 0.6280365 0.028761037 956 19137024 443 16 936 443
-0.25399786 0.63397259 0.028727526 962 19332864 449 16 952 449
-0.24727871 0.63984054 0.028694017 919 19527936 434 16 942 434
-0.24010518 0.64470136 0.028671676 865 19724544 410 16 954 410
-0.23251255 0.64854074 0.028660508 885 19920128 421 16 942 421
-0.2255125 0.65418178 0.028626997 907 20117504 435 16 966 435
-0.21872261 0.6606977 0.028582318 837 20313344 406 16 1004 406
-0.21210861 0.66809815 0.028526468 794 20509184 390 16 981 390
-0.20418438 0.67160755 0.028515298 791 20706560 390 16 964 390
-0.19620591 0.67502302 0.028504129 775 20900096 383 16 969 383
-0.18817432 0.67834365 0.028492959 767 21094400 381 16 1006 381
-0.18060057 0.68350244 0.02845945 757 21290240 379 16 963 379
-0.1726854 0.68760711 0.02843711 706 21484544 355 16 961 355
-0.16515884 0.69356591 0.02839243 761 21678080 388 16 1033 388
-0.15729274 0.69846731 0.028358921 772 21873152 397 16 1002 397
-0.14933111 0.70327967 0.028325411 762 22066432 395 16 969 395
-0.14127496 0.70800138 0.028291902 735 22260992 384 16 971 384
-0.13312533 0.71263087 0.028258393 787 22455040 415 16 970 415
-0.12488329 0.71716648 0.028224882 754 22649088 400 16 1019 400
-0.11686771 0.72358114 0.028169032 726 22844416 390 16 973 390
-0.10886017 0.7308954 0.028102014 738 23037952 403 16 933 403
-0.10055595 0.7371304 0.028046165 693 23233024 384 16 916 384
-0.092114992 0.74327093 0.027990315 782 23426304 439 16 915 439
-0.08320754 0.746333 0.027967975 800 23621120 452 16 979 452
-0.074336849 0.75028324 0.027934466 746 23816448 425 16 951 425
-0.065381698 0.75412774 0.027900957 694 24011264 398 16 911 398
-0.056490593 0.75985938 0.027845107 698 24205312 406 16 857 406
-0.047468606 0.76548564 0.027789257 686 24400896 405 16 925 405
-0.038366124 0.77200294 0.027722238 785 24597504 470 16 939 470
-0.029073924 0.77741188 0.027666388 670 24792064 406 16 868 406
-0.01970393 0.78470761 0.0275882 771 24988416 475 16 936 475
-0.010146895 0.79088944 0.02752118 750 25185024 470 16 895 470
-0.00044109338 0.79695404 0.02745416 735 25380608 468 16 904 468
0.0094364351 0.80489838 0.027364802 829 25576704 538 16 885 538
0.019484386 0.81171942 0.027286613 753 25774336 498 16 936 498
0.029848099 0.82241106 0.027163744 759 25970176 515 16 897 515
0.040428091 0.83197021 0.027052045 782 26166528 544 16 895 544
0.051430874 0.84438628 0.026906837 771 26361856 553 16 881 553
0.062597364 0.85466111 0.026783967 803 26557184 590 16 940 590
0.074023649 0.8647874 0.0266611 762 26753280 575 16 908 575
0.085903645 0.87675059 0.026515892 838 26948608 651 16 907 651
0.097537458 0.88358122 0.026426531 840 27143168 665 16 967 665
0.10910704 0.88827229 0.026359513 855 27338752 686 16 995 686
0.12053732 0.89082992 0.026314834 917 27532800 742 16 979 742
0.1324867 0.89620751 0.026236644 1202 27728640 988 16 1000 988
0.14474483 0.90241224 0.026147285 1325 27923456 1109 16 1062 1109
0.15683325 0.90647936 0.026080266 1409 28120320 1193 16 1061 1193
0.16684754 0.89858818 0.026147285 1692 28315904 1414 16 1106 1414
0.17903212 0.90235752 0.026080266 1429 28511488 1210 16 1052 1210
0.18636534 0.88248366 0.026281323 2633 28707072 2143 16 1191 2143
0.19893293 0.88793552 0.026191965 1498 28902400 1242 16 1077 1242
0.20912135 0.88250875 0.026225474 1602 29096448 1319 16 1086 1319
0.21750632 0.8701762 0.026337173 1115 29291264 899 16 980 899
0.22714919 0.86357379 0.026381852 1010 29485824 806 16 1006 806
0.23452987 0.8491565 0.026515892 949 29680640 738 16 1078 738
0.24159139 0.83468986 0.02664993 986 29875968 746 16 971 746
0.24891409 0.82209331 0.026761629 988 30071296 730 16 1015 730
0.25566253 0.80849093 0.026884496 960 30266624 692 16 1003 692
0.26117429 0.79199982 0.027040875 915 30460928 637 16 1028 637
0.26762143 0.77927947 0.027152574 934 30654976 634 16 973 634
0.27413297 0.76746309 0.027253103 941 30850304 625 16 1018 625
0.27969858 0.75373095 0.027375972 873 31044608 565 16 990 565
0.28604847 0.74277818 0.02746533 950 31238400 603 16 941 603
0.29068714 0.72807032 0.027599368 891 31433216 548 16 1014 548
0.29692161 0.7179814 0.027677558 942 31628800 570 16 981 570
0.3005892 0.7023356 0.027822766 881 31823616 515 16 949 515
0.30432343 0.68762386 0.027956804 865 32018432 490 16 978 490
0.30857527 0.67474616 0.028068503 865 32212992 477 16 985 477
0.31298497 0.66277301 0.028169032 875 32408576 470 16 1073 470
0.31758642 0.65169317 0.028258393 777 32602624 408 16 1029 408
0.32286263 0.64238763 0.028325411 789 32797184 409 16 939 409
0.32473555 0.62683821 0.028470619 565 32992256 282 16 880 282
0.33947301 0.63603449 0.028303072 116 33187840 60 16 661 60
0.37666044 0.68525958 0.027621709 52 33381888 32 16 687 32
0.39489746 0.69798708 0.027398311 33 33577216 21 16 649 21
0.46384716 0.79676276 0.026057927 7 33773312 6 16 668 6
0.72802693 1.2155765 0.020528838 9 33967872 19 16 643 19
0 0 -0 10 34163200 0 16 691 0
0.82022375 1.2961895 0.019221963 17 34359296 41 16 648 41
0.82788968 1.2734534 0.01938951 15 34554624 35 16 671 35
0.89344788 1.3380289 0.018384222 41 34752768 107 16 681 107
0.90640646 1.3220167 0.018451242 24 34948352 62 16 715 62
0.94731724 1.3459498 0.017970936 327 35144704 886 16 777 886
0.9567343 1.3244979 0.018104976 52 35341056 139 16 708 139
0.97291589 1.3126576 0.018104976 75 35538432 201 16 662 201
0.57121032 0.75149906 0.02581219 49 35736576 44 16 699 44
0.56378055 0.72314775 0.026113776 170 35932672 143 16 724 143
0.57448655 0.71851707 0.026080266 164 36130816 139 16 721 139
0.61878157 0.75470132 0.025454754 255 36329216 243 16 771 243
0.65889591 0.78377885 0.024918599 355 36525568 372 16 820 372
0.67760766 0.78623503 0.024762221 374 36721920 403 16 690 403
0.70045143 0.79284316 0.024538822 378 36918016 424 16 681 424
0.72490042 0.80048877 0.024293086 364 37114880 425 16 754 425
0.75236231 0.8105818 0.024002669 349 37308928 427 16 720 427
0.78500462 0.82518828 0.023634063 346 37503744 449 16 807 449
0.81392556 0.83481771 0.023332477 303 37697792 412 16 779 412
0.84107715 0.84173733 0.023064399 301 37891072 427 16 763 427
0.86350912 0.84322506 0.022874512 388 38085888 566 16 757 566
0.89334399 0.8511827 0.022572925 305 38279680 465 16 777 465
0.91471052 0.85036504 0.022405377 277 38472704 432 16 716 432
0.94359845 0.85586524 0.022126131 128 38667520 208 16 701 208
0.9480378 0.83892196 0.022215489 23 38861824 37 16 641 37
2.8154738 2.4294796 -0.0051842136 6 39056384 88 16 676 88
2.8825641 2.4262946 -0.0057315375 11 39249664 161 16 702 161
2.818598 2.3139756 -0.0043799826 285 39443712 3797 16 691 3797
2.8358529 2.2704644 -0.0042236047 404 39639040 5337 16 751 5337
2.8603482 2.2330322 -0.004178925 423 39833600 5576 16 756 5576
2.8795781 2.1917081 -0.0040672263 424 40027904 5557 16 763 5557
2.9022415 2.1532276 -0.0040113768 420 40221440 5491 16 748 5491
2.9308774 2.1192079 -0.0040448867 411 40416000 5378 16 821 5378
2.9632025 2.0876887 -0.0041342457 397 40611584 5221 16 758 5221
2.981178 2.0460765 -0.0040337169 86 40805888 1130 16 665 1130
3.0143759 2.0148947 -0.0041454155 678 41000192 8919 16 833 8919
3.0380366 1.9772067 -0.0041342457 708 41196288 9306 16 841 9306
3.0553131 1.9354962 -0.0040448867 683 41391616 8952 16 891 8952
3.0967112 1.908874 -0.0042794538 666 41586432 8816 16 828 8816
3.112184 1.8661017 -0.004178925 631 41782016 8315 16 819 8315
3.1322579 1.8262593 -0.0041454155 562 41978112 7393 16 854 7393
3.1413832 1.7802902 -0.0039778673 482 42174208 6290 16 777 6290
3.1761334 1.7488397 -0.0041454155 447 42370304 5882 16 772 5882
3.2035279 1.713032 -0.0042236047 396 42566656 5231 16 759 5231
3.2296336 1.6763542 -0.0042906241 372 42762496 4931 16 746 4931
3.2106638 1.6168112 -0.0037991493 247 42958848 3195 16 764 3195
3.223074 1.5737804 -0.0037097903 202 43155712 2603 16 722 2603
3.2665496 1.5456548 -0.0040113768 176 43350784 2300 16 799 2300
3.0661819 1.4050852 -0.0013194371 150 43545600 1710 16 710 1710
3.0959914 1.3730265 -0.0014758153 228 43741696 2620 16 719 2620
3.131907 1.3432051 -0.0017103828 214 43937024 2490 16 712 2490
3.1638589 1.3111769 -0.0019002706 224 44131840 2632 16 708 2632
3.1685698 1.2677964 -0.0017662321 261 44327680 3046 16 685 3046
3.2156079 1.2410555 -0.0021460077 200 44523008 2381 16 709 2381
3.23247 1.2021985 -0.0021683476 246 44717568 2932 16 691 2932
3.3881989 1.2129802 -0.0038438288 172 44913152 2232 16 705 2232
3.4737434 1.1957119 -0.0046815695 227 45108992 3071 16 662 3071
3.4891045 1.1533073 -0.0046927393 201 45302528 2721 16 681 2721
6.7106028 2.1268003 -0.04227937 1048 45498112 51965 16 765 51965
6.7562909 2.0503876 -0.042513937 1088 45691648 54257 16 778 54257
6.8059125 1.974566 -0.042804353 686 45885952 34507 16 870 34507
3.6446075 1.0092591 -0.0058879158 133 46080512 1908 16 668 1908
3.399523 0.89665133 -0.0029167293 82 46275328 1017 16 728 1017
3.4248197 0.85851187 -0.0030842773 97 46471424 1215 16 678 1215
3.464283 0.82335263 -0.0034193737 66 46666496 841 16 706 841
3.4907117 0.78450412 -0.0036092615 50 46861568 644 16 727 644
3.5088799 0.74347311 -0.0037097903 51 47055872 662 16 659 662
3.5383344 0.70445573 -0.0039443579 51 47251456 667 16 748 667
3.5703053 0.66537613 -0.0042124349 58 47445248 771 16 653 771
3.5880537 0.62322307 -0.0043241335 51 47639808 680 16 739 680
3.6220868 0.58343583 -0.00462572 51 47834112 691 16 691 691
3.6546903 0.54275978 -0.0049161366 61 48029440 838 16 678 838
3.6630573 0.4981395 -0.0049384767 50 48224000 688 16 699 688
3.679811 0.45449778 -0.0050613452 53 48419840 734 16 671 734
3.7010126 0.41107109 -0.0052400632 81 48614656 1128 16 698 1128
3.7316515 0.368173 -0.0055304798 48 48809728 680 16 691 680
3.7757382 0.32578647 -0.0059772749 87 49004288 1255 16 684 1255
3.8013909 0.28104758 -0.0062230122 69 49200128 1008 16 678 1008
3.8285067 0.23585068 -0.0064910892 83 49395712 1227 16 682 1227
3.8610747 0.19032516 -0.0068261856 83 49590016 1246 16 711 1246
3.8900995 0.143925 -0.0071277721 78 49784576 1189 16 673 1189
3.9135647 0.096717969 -0.0073735095 93 49980160 1429 16 746 1429
3.9544513 0.049178675 -0.0078203045 110 50175232 1726 16 708 1726
4.1137471 0.00065817696 -0.0095963143 71 50371072 1208 16 699 1208
4.3264165 -0.052423615 -0.011975498 195 50566912 3657 16 714 3657
4.3434405 -0.10595199 -0.012176556 211 50762240 3988 16 753 3988
4.3647966 -0.16008972 -0.012433463 241 50957312 4605 16 716 4605
4.3984575 -0.21540441 -0.012835578 285 51153408 5535 16 718 5535
4.4304152 -0.27150783 -0.013226524 326 51349504 6431 16 744 6431
4.4716253 -0.32916266 -0.013729168 323 51545088 6502 16 737 6502
4.5041108 -0.38718349 -0.014142454 307 51740416 6280 16 774 6280
4.5258889 -0.44507125 -0.01444404 328 51936256 6790 16 784 6790
4.5687852 -0.50597471 -0.014991364 385 52133120 8143 16 743 8143
4.5989518 -0.56652915 -0.015404649 440 52329728 9453 16 770 9453
4.6184063 -0.62655437 -0.015706236 291 52525056 6339 16 958 6339
4.6746626 -0.69271487 -0.016432278 295 52721408 6591 16 822 6591
7.5959687 -1.2212977 -0.049584467 386 52915968 22864 16 761 22864
5.2296572 -0.90668428 -0.022933146 309 53111808 8734 16 870 8734
5.2663064 -0.97975719 -0.023480469 414 53307392 11892 16 744 11892
5.3195963 -1.057375 -0.02422885 474 53502208 13956 16 740 13956
5.378612 -1.1378956 -0.025055422 573 53696000 17323 16 831 17323
5.4354663 -1.2198025 -0.025870822 677 53890816 21022 16 779 21022
5.477489 -1.30004 -0.026529845 839 54085120 26600 16 786 26600
5.2166862 -1.3059481 -0.023715036 1279 54278144 37019 16 918 37019
5.1538548 -1.3576368 -0.023178883 611 54473216 17383 16 914 17383
5.6340928 -1.558363 -0.028942538 907 54668544 31003 16 802 31003
5.6260695 -1.6307259 -0.029076576 265 54863104 9100 16 774 9100
4.5406051 -1.3766466 -0.016644506 72 55058176 1630 16 687 1630
4.4880991 -1.4210919 -0.01623122 62 55252992 1382 16 700 1382
4.4313931 -1.4632032 -0.015773255 94 55447808 2059 16 644 2059
4.3856821 -1.5080414 -0.015449329 151 55641856 3256 16 706 3256
4.3555479 -1.5577053 -0.015315291 114 55835648 2448 16 686 2448
4.3529758 -1.6173073 -0.015516348 150 56030720 3244 16 682 3244
4.3654547 -1.6831965 -0.015907293 646 56225536 14156 16 703 14156
4.3500414 -1.7388681 -0.015974313 750 56421632 16470 16 716 16470
4.3394613 -1.79671 -0.016108351 665 56615680 14678 16 733 14678
5.3179669 -2.2787917 -0.028272346 490 56811264 16426 16 1012 16426
5.2786322 -2.3390179 -0.028138306 1175 57007360 39197 16 1014 39197
5.1977105 -2.3798871 -0.027501624 1977 57201152 64641 16 1021 64641
5.1229162 -2.4221182 -0.02694313 1942 57397760 62382 16 852 62382
5.0460773 -2.4619985 -0.026362296 903 57594112 28480 16 742 28480
4.9645729 -2.4981132 -0.025725614 413 57789696 12768 16 728 12768
4.9335432 -2.5588481 -0.025725614 1358 57984256 41975 16 976 41975
4.8488569 -2.590919 -0.025055422 466 58180352 14089 16 831 14089
2.518826 -1.3856881 0.0042431606 199 58377472 1646 16 783 1646
4.0529575 -2.2951748 -0.015672727 10 58572800 225 16 693 225
4.0400381 -2.3538001 -0.015873784 14 58767872 319 16 601 319
4.0571656 -2.4309571 -0.016476957 23 58964480 522 16 699 522
4.0449066 -2.4915762 -0.016711526 13 59159808 305 16 625 305
4.4094095 -2.7913632 -0.021939026 56 59355904 1534 16 714 1534
4.417572 -2.8730702 -0.02250869 926 59551232 25735 16 1035 25735
1.1867042 -0.79235029 0.020417139 329 59746560 671 16 766 671
1.1777161 -0.807419 0.020405971 304 59941632 620 16 823 620
1.1791651 -0.82987064 0.020249592 153 60136960 319 16 684 319
1.1688925 -0.84427834 0.020249592 88 60331264 183 16 711 183
1.1608535 -0.86034566 0.020216081 93 60528384 195 16 674 195
1.1040504 -0.83941191 0.020863935 52 60724736 100 16 714 100
1.0849947 -0.84613055 0.020986803 60 60919552 114 16 698 114
1.1026359 -0.88187313 0.020584688 179 61115136 357 16 783 357
1.0005165 -0.82049 0.021902733 68 61310464 114 16 660 114
0.96053118 -0.80760014 0.022338359 45 61506304 71 16 691 71
0.94979113 -0.81867349 0.022349527 80 61699584 126 16 735 126
1.0415554 -0.92034346 0.020830425 71 61893632 137 16 727 137
0.88569784 -0.80211931 0.02300855 42 62087936 60 16 675 60
0.91168791 -0.84627277 0.022461226 37 62283520 57 16 763 57
0.8990615 -0.8553285 0.022494737 67 62478336 103 16 733 103
1.0273496 -1.0017644 0.02032778 55 62674944 114 16 668 114
0.82900935 -0.82835084 0.023265457 100 62868992 138 16 676 138
0.77408552 -0.79266071 0.023980329 40 63065344 49 16 678 49
0.72982281 -0.76589239 0.024538822 28 63261184 31 16 713 31
0.71628553 -0.7703954 0.024605842 29 63456512 32 16 655 32
0.71147865 -0.78431332 0.024527654 29 63652352 33 16 649 33
0.7229979 -0.81695473 0.024170218 48 63848960 57 16 720 57
0.70116091 -0.81213737 0.024371276 85 64045312 98 16 697 98
0.68405968 -0.81226468 0.024494143 84 64242432 95 16 726 95
0.67150277 -0.81750631 0.024538822 83 64437504 93 16 656 93
0.66329479 -0.82802707 0.024505313 75 64634368 84 16 654 84
0.65308368 -0.83610433 0.024505313 100 64830464 113 16 675 113
0.65064603 -0.85440046 0.024360105 84 65026304 97 16 744 97
0.64785653 -0.87276107 0.024214897 78 65221120 92 16 714 92
0.64002669 -0.88469738 0.024159048 80 65417472 95 16 722 95
0.65964067 -0.93581218 0.023567045 43 65612288 57 16 650 57
0.64471263 -0.9388895 0.023634063 50 65807360 65 16 667 65
0.64758784 -0.96834636 0.023343647 33 66001152 45 16 692 45
1.1237404 -1.7263527 0.013346609 38 66197504 162 16 733 162
1.1078211 -1.7484604 0.01323491 47 66393856 203 16 705 203
1.0936259 -1.7738411 0.013078531 30 66588928 132 16 691 132
1.0717758 -1.7871281 0.013078531 38 66784000 167 16 662 167
1.0537928 -1.8070569 0.012989173 58 66979840 255 16 697 255
1.0349885 -1.8259425 0.012910984 37 67176192 165 16 655 165
1.0211833 -1.8542737 0.012709926 49 67371264 221 16 649 221
1.0190943 -1.9054663 0.012218451 134 67565824 627 16 710 627
0.99655569 -1.9196037 0.012196111 143 67761408 671 16 671 671
0.3668071 -0.72773689 0.027253103 40 67956992 26 16 681 26
0.35653311 -0.72948766 0.027286613 37 68152064 24 16 667 24
0.34627154 -0.73109621 0.027320122 43 68348928 28 16 703 28
0.33727381 -0.73529041 0.027320122 38 68543744 25 16 655 25
0.32741472 -0.73754567 0.027342461 40 68739840 26 16 702 26
0.31794521 -0.74058902 0.027353631 76 68935936 49 16 735 49
0.31036398 -0.74813008 0.027308952 445 69132032 292 16 819 292
0.2963323 -0.73981291 0.02745416 606 69329408 385 16 717 385
0.28651148 -0.7415278 0.027476501 792 69526528 501 16 816 501
0.27808714 -0.74686241 0.02745416 804 69722624 511 16 792 511
0.26890105 -0.75021875 0.02745416 764 69918976 485 16 793 485
0.26032516 -0.75535315 0.027431821 685 70113792 438 16 711 438
0.25166366 -0.76038975 0.027409481 660 70309632 424 16 823 424
0.24110536 -0.75960791 0.02745416 780 70503936 495 16 768 495
0.23089465 -0.75963885 0.027487671 782 70699520 494 16 825 494
0.22127678 -0.76145476 0.027498839 703 70895104 443 16 883 443
0.21138237 -0.76218539 0.02752118 716 71090432 449 16 834 449
0.20124853 -0.76182133 0.027554689 846 71285248 526 16 802 526
0.19188465 -0.76423359 0.027554689 921 71481344 572 16 838 572
0.18179856 -0.76361215 0.0275882 876 71674624 540 16 803 540
0.17263333 -0.76676124 0.02757703 830 71870464 514 16 876 514
0.16300383 -0.76784372 0.0275882 759 72064768 469 16 886 469
0.15395921 -0.77174765 0.027565859 758 72256256 470 16 910 470
0.14466019 -0.77456188 0.027554689 842 72450048 523 16 792 523
0.13497321 -0.77529353 0.027565859 920 72643840 570 16 803 570
0.12560792 -0.7778787 0.027554689 871 72837888 542 16 882 542
0.11649305 -0.7823289 0.02752118 825 73030912 517 16 817 517
0.10701854 -0.78469032 0.02751001 801 73226240 503 16 838 503
0.097503588 -0.78693694 0.027498839 769 73420544 484 16 854 484
0.08783932 -0.7880742 0.027498839 772 73616384 486 16 793 486
0.0782599 -0.79008794 0.027487671 831 73811456 524 16 782 524
0.06855841 -0.7909888 0.027487671 819 74006784 517 16 819 517
0.059067477 -0.79476219 0.02745416 808 74201600 513 16 849 513
0.049371455 -0.79642528 0.027442992 807 74398720 514 16 777 514
0.039840024 -0.80196482 0.027387142 697 74594304 450 16 787 450
0.029958811 -0.8013941 0.027398311 578 74792448 372 16 830 372
0.020073008 -0.79970211 0.027420651 543 74989056 348 16 820 348
0.010270257 -0.80088806 0.027409481 588 75184384 377 16 805 377
0.00044128971 -0.79995388 0.027420651 174 75380736 111 16 686 111
-0.0091190962 -0.77890193 0.027655218 65 75576576 39 16 655 39
-0.018945951 -0.78972739 0.02753235 46 75771136 29 16 660 29
-0.028635694 -0.78943545 0.02753235 49 75967488 30 16 678 30
-0.038517121 -0.79301953 0.027487671 36 76163328 23 16 658 23
-0.048245791 -0.79248714 0.027487671 33 76359424 21 16 671 21
-0.058261175 -0.79582435 0.027442992 41 76556032 26 16 672 26
-0.21581571 -2.5125949 0.0081861261 8 76752128 53 16 675 53
-1.6634202 -16.904299 -0.15338612 48 76946944 13940 16 724 13940
-1.8815315 -16.980011 -0.15448076 55 77142272 16135 16 739 16135
-2.1112921 -17.13031 -0.15644667 23 77337600 6955 16 710 6955
-2.341121 -17.248766 -0.15808862 53 77534464 16179 16 689 16179
-2.5776918 -17.387878 -0.15999869 48 77729024 14918 16 740 14918
-2.8226306 -17.552387 -0.16223265 35 77925120 11179 16 699 11179
-3.07968 -17.757809 -0.16496928 38 78121216 12430 16 744 12430
-3.3396285 -17.945765 -0.16754952 56 78316288 18782 16 703 18782
-3.585731 -18.034849 -0.16904628 46 78511104 15654 16 732 15654
-0.30810159 -1.4577063 0.019713437 215 78705664 477 16 785 477
-0.32990912 -1.4713775 0.01951238 27 78901760 62 16 660 62
-4.4240446 -18.635885 -0.17760241 45 79098112 16589 16 766 16589
-4.7024403 -18.78001 -0.1799034 46 79293696 17412 16 664 17412
