# .PCD v0.7 - Point Cloud Data file format
VERSION 0.7
FIELDS x y z intensity t reflectivity ring noise range
SIZE 4 4 4 4 4 2 2 2 4
TYPE F F F F U U U U U
COUNT 1 1 1 1 1 1 1 1 1
WIDTH 228
HEIGHT 1
VIEWPOINT 0 0 0 1 0 0 0
POINTS 228
DATA ascii
3.6380453 -1.055733 0.92394668 375 54863104 5681 6 853 5681
3.6201587 -1.0988837 0.92280149 350 55057920 5289 6 833 5289
3.6054733 -1.1429317 0.92257249 314 55252736 4742 6 851 4742
3.6777203 -0.77860379 0.82450378 296 53696512 4376 7 1133 4376
3.659296 -0.82174587 0.82264948 338 53891840 4970 7 1154 4970
3.6736894 -0.87247056 0.82800633 307 54086144 4579 7 1100 4579
3.6655538 -0.91820025 0.82862443 432 54278912 6449 7 1156 6449
3.6502254 -0.96211511 0.82780027 412 54474240 6139 7 1131 6139
3.6551189 -1.0115362 0.83150887 92 54669568 1392 7 1013 1392
3.6584072 -1.060949 0.83501148 58 54863104 888 7 1018 888
3.6282575 -1.1006485 0.83130288 304 55057920 4572 7 1084 4572
3.6172762 -1.1459768 0.83192098 194 55252736 2926 7 1063 2926
3.6075864 -1.1918154 0.83295113 270 55447808 4080 7 1046 4080
3.7468498 -0.55581999 0.73742849 399 52724224 5935 8 989 5935
3.722275 -0.59894454 0.73413897 380 52916736 5600 8 989 5600
3.7185194 -0.64525026 0.73486996 369 53111552 5452 8 917 5452
3.7054887 -0.6899333 0.73395622 305 53306880 4494 8 963 4494
3.7025285 -0.73650485 0.7350527 343 53501696 5068 8 981 5068
3.691288 -0.78147763 0.73468721 382 53696512 5638 8 1003 5638
3.6747055 -0.82520795 0.73340797 354 53891840 5210 8 923 5210
3.6700413 -0.87160373 0.73450446 250 54086144 3692 8 946 3692
3.6705132 -0.91944307 0.73669749 385 54278912 5714 8 977 5714
3.6713123 -0.96767551 0.73907322 169 54474240 2535 8 876 2535
3.6525285 -1.010819 0.73779398 183 54669568 2733 8 913 2733
3.6398492 -1.055565 0.73779398 388 54863104 5778 8 946 5778
3.6360297 -1.1030071 0.73962146 397 55057920 5941 8 1018 5941
3.6381531 -1.1525931 0.74272823 101 55252736 1536 8 865 1536
3.6125329 -1.1934501 0.74053526 366 55447808 5496 8 922 5496
3.6245751 -1.2469696 0.74583501 242 55641856 3688 8 1037 3688
3.7749357 -0.32577178 0.64398408 265 51744256 3913 9 1059 3913
3.751004 -0.37013057 0.64080369 356 51940096 5199 9 1039 5199
3.756973 -0.41733336 0.64255291 337 52136960 4950 9 1084 4950
3.7505889 -0.46328464 0.64239389 441 52333568 6471 9 1055 6471
3.7465777 -0.50954151 0.64271194 537 52528896 7887 9 1049 7887
3.7439492 -0.55606002 0.64334804 530 52724224 7798 9 1118 7798
3.7358687 -0.60180503 0.64318901 349 52916736 5135 9 1090 5135
3.7291751 -0.64777362 0.64334804 394 53111552 5800 9 1047 5800
3.717063 -0.69276363 0.64271194 364 53306880 5349 9 1032 5349
3.70925 -0.73851842 0.64287096 351 53501696 5160 9 1052 5160
3.7086003 -0.78582376 0.64430213 300 53696512 4434 9 990 4434
3.6957881 -0.83062506 0.64382505 295 53891840 4353 9 1019 4353
3.6920402 -0.87751424 0.64493823 487 54086144 7204 9 1043 7204
3.6819513 -0.92299539 0.64509726 447 54278912 6620 9 1013 6620
3.6798935 -0.97062802 0.64668745 391 54474240 5819 9 1051 5819
3.6743653 -1.017558 0.64780056 438 54669568 6545 9 1005 6545
3.6559129 -1.06092 0.64684647 278 54863104 4146 9 970 4146
3.650176 -1.1079987 0.64811862 91 55057920 1371 9 933 1371
3.6720657 -1.1640489 0.65416133 180 55252736 2751 9 992 2751
3.624697 -1.1981746 0.64859569 176 55447808 2646 9 867 2646
3.6283903 -1.2489938 0.65177608 103 55641856 1568 9 958 1568
3.8418865 -0.095019773 0.55980754 213 50765312 3210 10 1135 3210
3.792907 -0.14039455 0.55330151 304 50959872 4468 10 1096 4468
3.7899089 -0.18687989 0.55316597 294 51155968 4322 10 1034 4322
3.7823858 -0.23306866 0.55248827 312 51352320 4573 10 1081 4573
3.7940619 -0.28056428 0.55452138 344 51548160 5079 10 1082 5079
3.7814496 -0.32633457 0.55330151 400 51744256 5879 10 1045 5879
3.780118 -0.37300637 0.55370814 412 51940096 6062 10 1102 6062
3.7723019 -0.4190377 0.55330151 302 52136960 4440 10 1055 4440
3.7629426 -0.46481186 0.55275935 503 52333568 7374 10 1104 7374
3.75401 -0.51055312 0.55235273 443 52528896 6483 10 1155 6483
3.7562821 -0.55789304 0.5535726 415 52724224 6104 10 1093 6104
3.742306 -0.60284269 0.55262381 470 52916736 6887 10 1119 6887
3.7395072 -0.64956945 0.55330151 438 53111552 6438 10 1066 6438
3.7390461 -0.69686306 0.55438584 399 53306880 5890 10 1017 5890
3.7146661 -0.73959738 0.55221719 361 53501696 5281 10 1167 5281
3.7159719 -0.7873866 0.55370814 356 53696512 5241 10 1107 5241
3.7089298 -0.83358008 0.55411476 440 53891840 6484 10 1106 6484
3.6926377 -0.87765634 0.55330151 528 54086144 7757 10 1159 7757
3.6883166 -0.92459172 0.5542503 226 54278912 3339 10 1006 3339
3.6920204 -0.97382796 0.55641901 499 54474240 7421 10 1045 7421
3.6482835 -1.0103322 0.5519461 138 54669568 2025 10 982 2025
3.6708155 -1.0652462 0.55696118 84 54863104 1260 10 1021 1260
3.6659992 -1.1128035 0.55818105 332 55057920 4973 10 1054 4973
3.6482894 -1.1565092 0.55763888 379 55252736 5664 10 1070 5664
3.6601617 -1.2099017 0.56143409 216 55447808 3281 10 965 3281
3.6347339 -1.2511781 0.55994308 442 55641856 6665 10 1034 6665
3.6237702 -1.2973579 0.56062084 402 55836672 6076 10 1046 6076
3.8223763 -0.14148834 0.46279719 213 50959872 3157 11 824 3157
3.7875972 -0.18676566 0.45912445 215 51155968 3132 11 841 3132
3.8108094 -0.23482299 0.46201813 331 51352320 4889 11 804 4889
3.7917836 -0.2803956 0.46023738 271 51548160 3980 11 912 3980
3.8009286 -0.32801756 0.46168423 329 51744256 4849 11 840 4849
3.7877164 -0.37375692 0.46068257 321 51940096 4711 11 838 4711
3.780869 -0.41999024 0.46045998 326 52136960 4793 11 857 4793
3.7793756 -0.46684343 0.46090516 472 52333568 6932 11 842 6932
3.7802551 -0.51412517 0.46168423 441 52528896 6502 11 844 6502
3.7697294 -0.55989164 0.46123904 524 52724224 7708 11 851 7708
3.7527635 -0.60452837 0.4601261 461 52916736 6761 11 869 6761
3.7528954 -0.65189642 0.46101645 389 53111552 5731 11 884 5731
3.7397282 -0.69699025 0.46045998 368 53306880 5408 11 872 5408
3.7328429 -0.7432183 0.46068257 320 53501696 4710 11 870 4710
3.7234414 -0.78897005 0.46068257 400 53696512 5868 11 852 5868
3.7231748 -0.83678317 0.46179554 343 53891840 5060 11 830 5060
3.7454982 -0.89022571 0.46557957 298 54086144 4475 11 801 4475
3.715977 -0.93152857 0.46346495 324 54278912 4816 11 845 4816
3.7129138 -0.97934115 0.46446663 445 54474240 6648 11 775 6648
3.6881659 -1.0213814 0.46301979 172 54669568 2551 11 834 2551
3.6868069 -1.0698886 0.46435532 485 54863104 7240 11 788 7240
3.6705475 -1.1141846 0.46402144 402 55057920 5992 11 846 5992
3.6793334 -1.1663536 0.46669254 62 55252736 938 11 780 938
3.6675742 -1.2123528 0.46702641 76 55447808 1149 11 835 1149
3.6467826 -1.255327 0.46635863 135 55641856 2036 11 768 2036
3.6367168 -1.3019944 0.46702641 38 55836672 578 11 743 578
3.6353681 -1.3520688 0.46880713 258 56032000 3941 11 988 3941
3.8236749 -0.1885483 0.36974195 310 51155968 4591 12 1364 4591
3.8190846 -0.23533374 0.36956763 267 51352320 3951 12 1368 3951
3.8188894 -0.28240275 0.36982909 320 51548160 4743 12 1291 4743
3.8181138 -0.3295024 0.37009054 311 51744256 4616 12 1363 4616
3.7969296 -0.37466699 0.36860892 365 51940096 5366 12 1403 5366
3.7969964 -0.42178336 0.36904469 295 52136960 4351 12 1343 4351
3.7865913 -0.46773547 0.36860892 352 52333568 5178 12 1339 5178
3.7884631 -0.51524234 0.36930615 379 52528896 5595 12 1361 5595
3.7798843 -0.56140089 0.36913183 421 52724224 6209 12 1350 6209
3.7668095 -0.60679245 0.36860892 403 52916736 5925 12 1359 5925
3.7649684 -0.6539948 0.36913183 388 53111552 5724 12 1327 5724
3.7674317 -0.70215636 0.37009054 311 53306880 4619 12 1300 4619
3.7468076 -0.74600017 0.36904469 344 53501696 5073 12 1365 5073
3.7412691 -0.79274946 0.36939332 191 53696512 2829 12 1306 2829
3.7312591 -0.83860093 0.36939332 200 53891840 2962 12 1305 2962
3.725533 -0.88547832 0.36982909 485 54086144 7175 12 1484 7175
3.7201838 -0.93258369 0.37035203 620 54278912 9206 12 1369 9206
3.7084596 -0.97816581 0.37035203 403 54474240 5989 12 1333 5989
3.6961768 -1.0236007 0.37035203 494 54669568 7336 12 1327 7336
3.7072546 -1.0758246 0.37253091 312 54863104 4687 12 1247 4687
3.6823349 -1.117764 0.37148505 105 55057920 1581 12 1301 1581
3.7129719 -1.1770207 0.37558138 171 55252736 2615 12 1256 2615
3.6812236 -1.2168663 0.37401256 467 55447808 7089 12 1293 7089
3.6773164 -1.265841 0.37505844 369 55641856 5641 12 1286 5641
3.6699467 -1.3138949 0.37584284 465 55836672 7132 12 1366 7132
3.6535468 -1.3588318 0.37584284 465 56032000 7134 12 1318 7134
3.8516686 -0.18993151 0.2778101 254 51155968 3808 13 885 3808
3.8321137 -0.23613791 0.27674267 182 51352320 2698 13 747 2698
3.8189743 -0.28240904 0.27611476 337 51548160 4964 13 776 4964
3.8221815 -0.32985383 0.27655429 237 51744256 3506 13 751 3506
3.8198323 -0.37692925 0.27667987 248 51940096 3673 13 768 3673
3.814919 -0.42377609 0.27667987 367 52136960 5443 13 874 5443
3.8084409 -0.47043666 0.27661708 405 52333568 5990 13 811 5990
3.7984257 -0.51659828 0.27636591 434 52528896 6402 13 854 6402
3.7848899 -0.56214488 0.27592638 423 52724224 6232 13 882 6232
3.7806623 -0.60902542 0.27611476 387 52916736 5702 13 790 5702
3.7719207 -0.65520322 0.27605197 232 53111552 3417 13 777 3417
3.7704642 -0.70272183 0.27649149 233 53306880 3444 13 796 3444
3.7635143 -0.74932832 0.27661708 385 53501696 5696 13 755 5696
3.7569644 -0.79607689 0.27680546 210 53696512 3112 13 781 3112
3.742044 -0.84102601 0.27649149 516 53891840 7634 13 897 7634
3.7508607 -0.89150083 0.2777473 589 54086144 8803 13 948 8803
3.7386701 -0.93721974 0.27768451 189 54278912 2822 13 748 2822
3.7307475 -0.984047 0.27793568 167 54474240 2500 13 741 2500
3.7135818 -1.0284226 0.27762172 225 54669568 3357 13 773 3357
3.707391 -1.0758642 0.27806127 109 54863104 1634 13 764 1634
3.7235134 -1.1302681 0.28000778 441 55057920 6709 13 757 6709
3.7074602 -1.1752728 0.27988219 505 55252736 7675 13 791 7675
3.6946537 -1.2213073 0.28000778 247 55447808 3757 13 816 3757
3.7124159 -1.2779272 0.28220543 136 55641856 2110 13 731 2110
3.672025 -1.3146392 0.28057289 292 55836672 4464 13 742 4464
3.6696467 -1.3648216 0.28151473 60 56032000 926 13 763 926
3.6563461 -1.4111887 0.28176591 207 56226816 3196 13 759 3196
3.8409622 -0.23600838 0.18206693 295 51352320 4378 14 1206 4378
3.8377769 -0.2831251 0.18206693 153 51548160 2277 14 1051 2277
3.8320222 -0.33002752 0.18199086 138 51744256 2051 14 1117 2051
3.8247004 -0.37673333 0.18187675 287 51940096 4250 14 1170 4250
3.8197894 -0.42363992 0.18187675 313 52136960 4632 14 1218 4632
3.8053772 -0.46938083 0.18153439 156 52333568 2302 14 1130 2302
3.8122029 -0.517793 0.1820289 238 52528896 3533 14 1136 3533
3.8075387 -0.56482911 0.18210497 234 52724224 3475 14 1214 3475
3.8062401 -0.61246401 0.18233322 156 52916736 2328 14 1094 2328
3.7856386 -0.65690404 0.18183871 274 53111552 4057 14 1118 4057
3.7812216 -0.70404226 0.18199086 372 53306880 5513 14 1212 5513
3.7673969 -0.74941534 0.18180066 233 53501696 3448 14 1150 3448
3.7794237 -0.80014616 0.18263753 330 53696512 4936 14 1192 4936
3.7683451 -0.84624618 0.18259948 365 53891840 5460 14 1106 5460
3.7469823 -0.88988489 0.18218106 136 54086144 2026 14 1095 2026
3.7483809 -0.93895698 0.18267556 197 54278912 2951 14 1126 2951
3.7443063 -0.98692298 0.18297987 556 54474240 8353 14 1178 8353
3.7319133 -1.0327971 0.18297987 474 54669568 7121 14 1208 7121
3.7227969 -1.0796293 0.18313202 487 54863104 7332 14 1165 7332
3.7159615 -1.1272637 0.18339831 469 55057920 7089 14 1151 7089
3.6951804 -1.1706661 0.18313202 89 55252736 1346 14 1081 1346
3.6900244 -1.2190591 0.18351242 68 55447808 1033 14 1157 1033
3.7021885 -1.2736797 0.18461555 473 55641856 7266 14 1128 7266
3.6891022 -1.3200257 0.18472967 456 55836672 7018 14 1136 7018
3.6876116 -1.3707695 0.18533829 466 56032000 7230 14 1146 7230
3.8581505 -0.28463021 0.089306548 221 51548160 3318 15 993 3318
3.8364356 -0.33040807 0.089058369 291 51744256 4325 15 993 4325
3.8400526 -0.37824708 0.089168668 283 51940096 4228 15 910 4228
3.8112705 -0.42269427 0.088837765 89 52136960 1321 15 938 1321
3.8266363 -0.47200525 0.089127302 144 52333568 2153 15 933 2153
3.8195651 -0.51879376 0.089113519 391 52528896 5823 15 972 5823
3.8119221 -0.56547982 0.089099728 199 52724224 2968 15 917 2968
3.8066702 -0.61253327 0.089127302 437 52916736 6509 15 989 6509
3.7988667 -0.65920085 0.089127302 424 53111552 6316 15 975 6316
3.7924573 -0.70613539 0.089154884 105 53306880 1577 15 890 1577
3.7805643 -0.75203598 0.089113519 83 53501696 1248 15 869 1248
3.7759421 -0.79940867 0.089182459 194 53696512 2902 15 931 2902
3.7902374 -0.85116476 0.089527145 94 53891840 1432 15 907 1432
3.7610233 -0.89322102 0.089265183 354 54086144 5301 15 980 5301
3.7672372 -0.94368243 0.089513361 538 54278912 8130 15 983 8130
3.749572 -0.98831147 0.089430638 362 54474240 5458 15 889 5458
3.7294524 -1.0321157 0.089320332 112 54669568 1690 15 913 1690
3.744355 -1.0858835 0.089720175 456 54863104 6946 15 967 6946
3.733618 -1.1326218 0.08976154 454 55057920 6928 15 922 6928
3.730876 -1.1819787 0.089926988 108 55252736 1665 15 989 1665
3.847578 -0.33068955 -0.0067815059 125 51744256 1871 16 675 1871
3.848206 -0.37837008 -0.0068373554 68 51940096 1023 16 690 1023
3.8542054 -0.42677665 -0.0069602239 219 52136960 3299 16 685 3299
3.8377612 -0.47269583 -0.0068373554 397 52333568 5942 16 753 5942
3.8455434 -0.52163857 -0.0069937333 285 52528896 4298 16 697 4298
3.8368742 -0.5684967 -0.0069713937 207 52724224 3121 16 695 3121
3.8217111 -0.614268 -0.0068820347 387 52916736 5804 16 751 5804
3.8168411 -0.66163266 -0.0069155446 88 53111552 1326 16 702 1326
3.7927055 -0.70549393 -0.0067368266 71 53306880 1063 16 675 1063
3.7965119 -0.75451833 -0.0068820347 359 53501696 5385 16 707 5385
3.7879453 -0.80125761 -0.0068932045 381 53696512 5716 16 747 5716
3.7885597 -0.85009044 -0.0070160734 397 53891840 5989 16 804 5989
3.7749238 -0.89582491 -0.0069825635 440 54086144 6628 16 759 6628
3.8618202 -0.38039339 -0.10215578 328 51940096 4949 17 763 4949
3.8548748 -0.4275347 -0.10208423 338 52136960 5095 17 730 5095
3.8602481 -0.4761546 -0.10247772 134 52333568 2035 17 688 2035
3.8343093 -0.52079785 -0.10176229 71 52528896 1069 17 702 1069
3.8296065 -0.56810504 -0.10183384 289 52724224 4344 17 672 4344
3.8292532 -0.61616945 -0.10208423 423 52916736 6375 17 804 6375
3.8204191 -0.66294295 -0.10204846 370 53111552 5576 17 694 5576
3.7924514 -0.80290562 -0.10201269 153 53696512 2316 17 905 2316
3.917721 -0.096215978 -0.1984444 133 50765312 2064 18 895 2064
3.838439 -0.14141092 -0.19376414 144 50959872 2146 18 900 2146
3.9000278 -0.3841607 -0.1984444 205 51940096 3168 18 1065 3168
3.8632724 -0.42846692 -0.19652429 256 52136960 3896 18 878 3896
3.8026726 -0.80507064 -0.19652429 47 53696512 726 18 903 726
