# .PCD v0.7 - Point Cloud Data file format
VERSION 0.7
FIELDS x y z intensity t reflectivity ring noise range
SIZE 4 4 4 4 4 2 2 2 4
TYPE F F F F U U U U U
COUNT 1 1 1 1 1 1 1 1 1
WIDTH 851
HEIGHT 1
VIEWPOINT 0 0 0 1 0 0 0
POINTS 851
DATA ascii
1.1701142 -1.2291514 0.26622218 392 63247104 1151 10 1264 1151
1.1562908 -1.2448701 0.26649326 374 63443200 1101 10 1179 1101
1.1415924 -1.2597001 0.2666288 360 63639808 1060 10 1203 1060
1.1280162 -1.2758416 0.26703542 326 63837440 963 10 1214 963
1.1155094 -1.29334 0.26771316 284 64035072 845 10 1150 845
1.1021048 -1.3099648 0.26825532 285 64232448 852 10 1178 852
1.0916015 -1.3302852 0.26947519 240 64427776 725 10 1143 725
1.0795267 -1.3489965 0.27042401 212 64624640 646 10 1145 646
1.0659379 -1.3660487 0.27110171 193 64821504 591 10 1159 591
1.0508932 -1.3813925 0.27150834 181 65018112 557 10 1053 557
1.0350422 -1.3957765 0.27177942 175 65213952 539 10 1149 539
1.0189962 -1.4099792 0.2720505 169 65410560 523 10 1042 523
1.0050385 -1.4272389 0.27286378 157 65605888 488 10 1142 488
0.99024975 -1.4435505 0.27354148 163 65800704 510 10 1120 510
0.97576189 -1.4605374 0.27435473 140 65995264 441 10 1185 441
0.95938551 -1.4748935 0.27476135 136 66190848 430 10 1119 430
0.94174391 -1.4873928 0.27489692 138 66385920 437 10 1125 437
0.92757648 -1.5055865 0.27598125 67 66578944 215 10 1054 215
0.90750343 -1.5143061 0.27557462 95 66772992 302 10 1149 302
0.88586032 -1.5201917 0.27476135 114 66967808 361 10 1124 361
0.86420989 -1.525775 0.2739481 193 67163392 606 10 1098 606
0.8449437 -1.5353971 0.27381256 173 67357184 542 10 1151 542
0.82463801 -1.5430285 0.27340594 219 67550464 684 10 1160 684
0.80427247 -1.5503931 0.27299932 170 67745024 529 10 1116 529
0.34487244 -0.68477476 0.13894762 28 67939840 16 10 1167 16
0.33600894 -0.68806481 0.13881208 29 68134656 17 10 1096 17
0.32499987 -0.68676174 0.13799883 34 68330496 20 10 1070 20
0.31489846 -0.68709469 0.13745666 29 68523264 17 10 1114 17
0.30604181 -0.69000137 0.13732111 38 68718080 22 10 1105 22
0.29677117 -0.6918835 0.13705003 63 68913152 36 10 1065 36
0.2863639 -0.69089597 0.13637231 46 69108480 26 10 1095 26
0.27639344 -0.69067788 0.13583015 47 69305088 26 10 1140 26
0.27716106 -0.71805423 0.13935426 92 69501440 55 10 1100 55
0.26867351 -0.72233015 0.1394898 482 69697280 292 10 1194 292
0.25712106 -0.71810919 0.13840546 617 69893632 366 10 1218 366
0.24796733 -0.72027344 0.13826992 660 70089216 390 10 1268 390
0.23879927 -0.72232127 0.13813438 693 70285824 410 10 1290 410
0.23021626 -0.72614193 0.13826992 716 70480896 424 10 1284 424
0.2210007 -0.72796416 0.13813438 740 70676480 436 10 1252 436
0.21205083 -0.73062134 0.13813438 732 70872832 431 10 1247 431
0.20306902 -0.73316854 0.13813438 768 71068928 453 10 1260 453
0.19329989 -0.73273093 0.13772774 726 71264768 425 10 1266 425
0.18405314 -0.73408669 0.1375922 647 71461376 378 10 1235 378
0.1745736 -0.73436201 0.13732111 654 71655936 381 10 1311 381
0.1655487 -0.73644894 0.13732111 669 71852544 389 10 1346 389
0.1558841 -0.73551702 0.13691449 765 72048128 442 10 1308 442
0.14723246 -0.73931813 0.13718557 723 72241920 419 10 1354 419
0.13832988 -0.74204332 0.13732111 758 72436736 440 10 1278 440
0.12921345 -0.74368495 0.13732111 749 72630784 436 10 1325 436
0.12039179 -0.7471711 0.1375922 714 72825344 417 10 1341 417
0.11106869 -0.74761212 0.13745666 765 73019648 446 10 1302 446
0.10175291 -0.74793702 0.13732111 776 73216000 451 10 1217 451
0.093050927 -0.75306278 0.13786328 621 73411072 365 10 1321 365
0.084020533 -0.75611752 0.13813438 548 73606912 323 10 1309 323
0.074735478 -0.75709164 0.13813438 653 73802240 386 10 1322 386
0.065693349 -0.76091319 0.138541 660 73997312 393 10 1308 393
0.056423433 -0.76265013 0.13867654 678 74192640 404 10 1229 404
0.047120769 -0.76427406 0.13881208 685 74389760 409 10 1259 409
0.038028408 -0.77073228 0.13962534 573 74583808 348 10 1211 348
0.027807551 -0.75034863 0.13677895 268 74780416 154 10 1191 154
0.018477356 -0.74568093 0.13610123 79 74976256 45 10 1162 45
0.0094797183 -0.75873065 0.13786328 53 75170304 31 10 1084 31
0.00016708823 -0.76275295 0.13840546 42 75366144 25 10 1032 25
-0.0092055155 -0.76368827 0.138541 29 75560960 17 10 1180 17
-0.018551856 -0.76252729 0.13840546 37 75753984 22 10 1072 22
-0.027907843 -0.7622422 0.13840546 46 75949568 27 10 1092 27
-0.037161835 -0.75986326 0.13813438 40 76144896 23 10 1111 23
-0.04654476 -0.76033884 0.13826992 44 76340992 26 10 1119 26
-0.055725452 -0.7577343 0.13799883 34 76536576 20 10 1128 20
-0.21162558 -2.4538081 0.37099665 11 76730880 69 10 1204 69
-1.677478 -16.986242 2.3691664 80 76923904 23778 10 1236 23778
-1.899156 -17.084511 2.3857026 104 77118208 31597 10 1301 31597
-2.1317627 -17.246744 2.4114556 88 77312512 27091 10 1261 27091
-2.3694351 -17.411701 2.4380221 86 77508352 27069 10 1265 27069
-2.6057928 -17.535175 2.4593022 92 77701632 29759 10 1308 29759
-2.8516834 -17.693594 2.4858687 90 77897728 29525 10 1186 29525
-3.1064308 -17.874947 2.5160947 81 78093824 27166 10 1279 27166
-3.3587875 -18.013718 2.540899 77 78289408 26347 10 1276 26347
-1.2990017 -6.522819 0.94393545 67 78484992 3064 10 1285 3064
-3.8892365 -18.347479 2.59986 67 78680320 24014 10 1278 24014
-1.4756421 -6.564373 0.95450777 64 78876160 2996 10 1300 2996
-4.4554553 -18.739058 2.6691222 56 79073024 21241 10 1199 21241
-4.7385812 -18.896317 2.6992128 75 79269632 29041 10 1237 29041
-5.0358357 -19.085819 2.7344539 65 79465728 25893 10 1186 25893
-5.3421478 -19.284201 2.7715926 73 79661824 30167 10 1305 30167
-5.6405416 -19.431278 2.8020897 79 79858432 32990 10 1242 32990
-2.152319 -7.0893269 1.0476255 38 80055552 2137 10 1188 2137
-2.2520318 -7.1029911 1.0534539 58 80252416 3287 10 1240 3287
-0.37596667 -1.1382058 0.19804423 347 80448512 508 10 1198 508
-0.38119638 -1.1082131 0.19438457 500 80643840 700 10 1262 700
-0.39309692 -1.098788 0.19370686 534 80839424 742 10 1306 742
-0.40378743 -1.0864526 0.19262251 578 81035776 792 10 1206 792
-0.41316426 -1.0712487 0.19113155 634 81230336 853 10 1304 853
-0.42480642 -1.0624185 0.19058938 569 81425152 759 10 1209 759
-0.43098253 -1.0406511 0.1881496 660 81620480 855 10 1295 855
-0.44020495 -1.0270891 0.18692972 634 81816832 808 10 1245 808
-0.44915995 -1.0134588 0.18570983 657 82011904 823 10 1136 823
-0.45743439 -0.99886411 0.18435441 702 82204416 864 10 1160 864
-0.46626663 -0.98601127 0.18327007 703 82397952 853 10 1244 853
-0.47615731 -0.97576392 0.18259236 668 82594304 803 10 1218 803
-0.48586699 -0.96542299 0.18191464 550 82789120 655 10 1173 655
-0.50909108 -0.98137093 0.18530321 391 82981632 487 10 1242 487
-0.52997428 -0.99164903 0.18787852 354 83177216 457 10 1300 457
-0.5497511 -0.99895638 0.1900472 326 83371520 432 10 1241 432
-0 -0 0 259 83565312 0 10 2557 0
-0 -0 0 101 83759360 0 10 4492 0
-0 -0 0 3 83954944 0 10 4984 0
-0 -0 0 0 84148736 0 10 4435 0
-0 -0 0 4 84343296 0 10 3522 0
-0 -0 0 15 84538368 0 10 2770 0
-0 -0 0 12 84733440 0 10 3195 0
-0 -0 0 2 84928000 0 10 2845 0
-0 -0 0 4 85121792 0 10 2752 0
-0 -0 0 1 85317888 0 10 3172 0
-0 -0 0 2 85513984 0 10 3779 0
-0 -0 0 1 85711872 0 10 3907 0
-0 -0 0 0 85906944 0 10 3771 0
-0 -0 0 1 86104320 0 10 4119 0
-0 -0 0 0 86300672 0 10 4294 0
-0 -0 0 0 86498560 0 10 4392 0
-0 -0 0 0 86694144 0 10 4547 0
-0 -0 0 5 86890496 0 10 4156 0
-0 -0 0 0 87085312 0 10 4366 0
-0 -0 0 1 87280640 0 10 4159 0
-0 -0 0 0 87475200 0 10 4020 0
-0 -0 0 3 87671296 0 10 3585 0
-0 -0 0 3 87866368 0 10 3396 0
-0 -0 0 2 88061952 0 10 3406 0
-0 -0 0 4 88256512 0 10 3322 0
-0 -0 0 3 88451584 0 10 3474 0
-0 -0 0 2 88647680 0 10 3016 0
-0 -0 0 9 88843264 0 10 2617 0
-0 -0 0 17 89037568 0 10 2541 0
-0 -0 0 4 89232384 0 10 2862 0
-0 -0 0 5 89430272 0 10 2987 0
-0 -0 0 3 89625600 0 10 3016 0
-0 -0 0 3 89821184 0 10 2962 0
-0 -0 0 5 90016512 0 10 3027 0
-0 -0 0 7 90212096 0 10 3229 0
-0 -0 0 2 90409216 0 10 3203 0
-0 -0 0 1 90604288 0 10 3125 0
-0 -0 0 3 90800384 0 10 3283 0
-0 -0 0 1 90994944 0 10 3104 0
-0 -0 0 2 91187712 0 10 3390 0
-0 -0 0 2 91380992 0 10 3501 0
-0 -0 0 1 91576064 0 10 3464 0
-0 -0 0 3 91769856 0 10 3253 0
-0 -0 0 3 91963136 0 10 3108 0
-0 -0 0 5 92157440 0 10 2540 0
-0 -0 0 5 92352000 0 10 2059 0
-0 -0 0 4 92545792 0 10 1989 0
-0 -0 0 7 92739840 0 10 2012 0
-0 -0 0 6 92934144 0 10 2010 0
-0 -0 0 3 93128704 0 10 2158 0
-0 -0 0 4 93322496 0 10 2087 0
-0 -0 0 7 93517312 0 10 1557 0
-0 -0 0 7 93711616 0 10 1264 0
-0 -0 0 6 93907200 0 10 1189 0
-0 -0 0 6 94102016 0 10 1155 0
-0 -0 0 6 94298880 0 10 1086 0
-0 -0 0 6 94495488 0 10 1100 0
-0 -0 0 16 94692096 0 10 1180 0
-0.88510722 -0.31682047 0.16266759 30 94888448 27 10 1037 27
-0.89548725 -0.30818927 0.16361639 25 95084032 23 10 1050 23
-0.87850296 -0.29034561 0.16063444 14 95279872 12 10 1154 12
-0.89522409 -0.28372848 0.16253205 17 95476480 15 10 1163 15
-0.88915658 -0.26984799 0.16117662 171 95672832 150 10 1228 150
-0.89144945 -0.25864065 0.16104108 269 95869440 236 10 1217 236
-0.89837605 -0.24873765 0.16158324 312 96064768 277 10 1296 277
-0.90136081 -0.23769446 0.16158324 321 96259840 284 10 1172 284
-0.90805441 -0.22757734 0.16212542 390 96455680 348 10 1237 348
-0.91174281 -0.21664563 0.16226096 424 96652032 380 10 1328 380
-0.91723299 -0.20609125 0.16266759 438 96847104 395 10 1265 395
-0.92066234 -0.1950248 0.16280313 405 97042176 365 10 1246 365
-0.92978877 -0.18506327 0.16375193 338 97236224 309 10 1255 309
-0.93004161 -0.17327724 0.16348085 375 97430528 342 10 1251 342
-0.9457652 -0.16421866 0.16537844 284 97625600 266 10 1178 266
-0.95651335 -0.15401433 0.16659832 209 97820928 200 10 1150 200
-0.96421182 -0.14313544 0.16741158 120 98015744 116 10 1169 116
-0.95018697 -0.12916334 0.1652429 46 98208768 43 10 1091 43
-0 -0 0 7 98402560 0 10 1110 0
-0 -0 0 7 98598144 0 10 1210 0
-0 -0 0 9 98792448 0 10 1247 0
-0 -0 0 7 98987776 0 10 1296 0
-0 -0 0 6 99181568 0 10 1280 0
-0 -0 0 8 99375360 0 10 1213 0
-0 -0 0 8 99569920 0 10 1207 0
-0 -0 0 7 99766272 0 10 1203 0
-0 -0 0 5 0 0 11 1163 0
-0 -0 0 4 196864 0 11 1696 0
-0 0 0 3 393728 0 11 1710 0
-0 0 0 3 587776 0 11 1602 0
-0 0 0 13 781824 0 11 1396 0
-0 0 0 11 976640 0 11 1296 0
-0 0 0 12 1171968 0 11 1236 0
-0 0 0 10 1365504 0 11 1127 0
-0 0 0 12 1561088 0 11 1082 0
-0 0 0 25 1757184 0 11 1006 0
-0 0 0 25 1951488 0 11 952 0
-0 0 0 43 2146304 0 11 984 0
-1.0769709 0.13275546 0.15595554 97 2342400 116 11 986 116
-1.071322 0.14542547 0.15551035 359 2535936 426 11 964 426
-1.0193242 0.15111031 0.14983428 485 2729984 523 11 936 523
-1.0075818 0.16202611 0.14872132 546 2924032 576 11 1029 576
-0.99278927 0.17216617 0.14727448 544 3116544 560 11 994 560
-0.97887838 0.1821501 0.14593893 568 3311104 571 11 1017 571
-0.96584845 0.19201303 0.14471468 575 3505920 565 11 986 565
-0.95272541 0.20158391 0.14349043 561 3700992 540 11 1056 540
-0.9414537 0.211298 0.14248878 565 3895040 534 11 1031 534
-0.93105525 0.22099601 0.14159842 551 4090880 512 11 1103 512
-0.9215256 0.23071264 0.14081934 549 4287488 502 11 1078 502
-0.90325069 0.23794693 0.13903862 452 4481536 400 11 1020 400
-0.90217811 0.24954394 0.13926122 304 4677888 270 11 1016 270
-0.88568652 0.25671741 0.13770308 224 4872960 193 11 922 193
-0.88056767 0.26698932 0.13748048 105 5067520 90 11 961 90
-0.88575065 0.28047872 0.13848214 91 5262848 80 11 894 80
-0.88790333 0.29319912 0.13914992 39 5459456 35 11 887 35
-0.88141954 0.30310231 0.13881603 33 5655296 29 11 897 29
-0.87856925 0.31423095 0.13892733 19 5851136 17 11 901 17
-0.86998987 0.32325608 0.13837084 26 6048000 23 11 885 23
-0.86410332 0.33319202 0.13814826 35 6243328 31 11 942 31
-0.78890675 0.31533685 0.1295785 102 6439680 75 11 862 75
-0.77855146 0.32233024 0.12879944 309 6635008 223 11 925 223
-0.74896514 0.3208895 0.12568316 404 6830848 272 11 934 272
-0.74587935 0.33045927 0.12579446 496 7026176 335 11 925 335
-0.72641015 0.33254781 0.12390243 643 7220480 416 11 1023 416
-0.71957982 0.34016147 0.12356855 691 7416576 444 11 980 444
-0.71267241 0.34765777 0.12323466 724 7610880 462 11 991 462
-0.70480227 0.3545889 0.12278948 704 7805184 445 11 1058 445
-0.69598788 0.36092156 0.122233 760 8000000 474 11 974 474
-0.68537223 0.36615422 0.12145393 818 8192512 500 11 1043 500
-0.67647487 0.37214005 0.12089746 783 8386304 473 11 995 473
-0.66839904 0.37845311 0.12045228 783 8579072 468 11 1003 468
-0.65855372 0.38362294 0.1197845 791 8771584 466 11 1015 466
-0.65038747 0.38963094 0.11933932 814 8966912 474 11 1080 474
-0.64217347 0.39549658 0.11889414 794 9160704 458 11 1038 458
-0.63475341 0.40175152 0.11856025 754 9356288 431 11 1034 431
-0.62644404 0.40734196 0.11811507 788 9551616 446 11 1065 446
-0.61891973 0.41334167 0.11778118 781 9748992 439 11 1077 439
-0.61134285 0.4192183 0.11744729 789 9945088 440 11 1076 440
-0 0 0 934 10141440 0 11 1491 0
-0.35687774 0.2576319 0.083724767 7502 10337280 1472 11 4274 1472
-0.37284252 0.27620533 0.086395852 10238 10533376 2233 11 6159 2233
-0.35756415 0.27173027 0.084726423 9854 10728448 2014 11 6203 2014
-0.3502863 0.27303952 0.084169947 9463 10924288 1895 11 5382 1895
-0.32518941 0.25992399 0.081053674 6350 11120384 1115 11 2262 1115
-0 0 0 5424 11313920 0 11 1508 0
-0 0 0 3254 11507200 0 11 1433 0
-0 0 0 2424 11700992 0 11 1481 0
-0.3656331 0.32298002 0.089066945 1578 11895296 380 11 1475 380
-0.40875626 0.37016872 0.096189857 928 12089856 286 11 1216 286
-0.45950416 0.42657691 0.10464831 573 12284160 228 11 1113 228
-0.47006497 0.44726375 0.10709681 572 12478720 244 11 1143 244
-0.47520727 0.46341208 0.10876625 663 12673280 296 11 1176 296
-0.48353502 0.48326698 0.11099216 1026 12868096 486 11 1251 486
-0.47895584 0.49058726 0.11121475 1132 13063680 539 11 1221 539
-0.47632477 0.50002754 0.11177123 2578 13259264 1248 11 1465 1248
-0.47488597 0.51093322 0.1125503 1455 13455616 718 11 1314 718
-0.42387936 0.46737432 0.10509349 5205 13651456 2099 11 1999 2099
-0.44970033 0.50828493 0.11043568 1934 13846784 902 11 1343 902
-0.44342902 0.51376516 0.11043568 3155 14043648 1472 11 1488 1472
-0.44924363 0.53361934 0.1125503 1630 14241280 805 11 1356 805
-0.43698937 0.53217655 0.11154863 1352 14437888 650 11 1292 650
-0.43352965 0.54137933 0.11210511 1160 14636288 565 11 1308 565
-0.42685345 0.54665864 0.11210511 1040 14833920 506 11 1250 506
-0.41951144 0.55106455 0.11199382 1051 15031040 511 11 1234 511
-0.41153389 0.55457437 0.11177123 1057 15226368 512 11 1306 512
-0.40469742 0.55958277 0.11177123 975 15422208 471 11 1253 471
-0.39608401 0.56206888 0.11143734 1068 15618304 512 11 1223 512
-0.38747078 0.56442821 0.11110345 1123 15814144 533 11 1198 533
-0.38051519 0.56914061 0.11110345 1055 16010752 502 11 1279 502
-0.3729606 0.57293409 0.11099216 1037 16205824 491 11 1216 491
-0.3653703 0.57662797 0.11088086 992 16399360 469 11 1205 469
-0.35774559 0.58022201 0.11076957 983 16592896 462 11 1221 462
-0.35008776 0.58371586 0.11065827 1083 16788224 508 11 1181 508
-0.34289831 0.58796799 0.11065827 1034 16980992 485 11 1160 485
-0.33614683 0.59299648 0.11076957 1001 17174528 471 11 1278 471
-0.32884452 0.59707683 0.11076957 1033 17367296 486 11 1176 486
-0.3214927 0.6010673 0.11076957 942 17561088 444 11 1173 444
-0.31546476 0.60761404 0.11110345 906 17755904 430 11 1158 430
-0.30843124 0.61232734 0.11121475 893 17950720 426 11 1179 426
-0.30132943 0.61695933 0.11132605 901 18145024 430 11 1219 430
-0.29373571 0.62061065 0.11132605 904 18340608 432 11 1187 432
-0.28609774 0.62416852 0.11132605 908 18535936 434 11 1228 434
-0.27881917 0.62854105 0.11143734 873 18730496 418 11 1202 418
-0.27108499 0.63191527 0.11143734 833 18926080 400 11 1170 400
-0.26331002 0.6351943 0.11143734 848 19124480 407 11 1150 407
-0.25549537 0.63837767 0.11143734 906 19318528 434 11 1214 434
-0.24871445 0.64424682 0.11177123 880 19512064 426 11 1189 426
-0.24182779 0.65004528 0.11210511 819 19707648 400 11 1172 400
-0.23483612 0.65577132 0.112439 819 19902464 402 11 1193 402
-0.22677112 0.65860373 0.112439 796 20099072 392 11 1155 392
-0.21929489 0.6632244 0.11266159 787 20294144 389 11 1209 389
-0.21143946 0.66681302 0.11277288 827 20490240 410 11 1183 410
-0.20381714 0.67125964 0.11299548 809 20687616 403 11 1179 403
-0.19611745 0.6756193 0.11321807 807 20883200 405 11 1162 405
-0.18834135 0.67989081 0.11344066 800 21078784 404 11 1218 404
-0.18074289 0.68503398 0.11377455 834 21275136 425 11 1129 425
-0.17304645 0.69009262 0.11410843 740 21469952 380 11 1221 380
-0.16525297 0.69506508 0.11444232 840 21664512 435 11 1204 435
-0.1573634 0.6999498 0.1147762 817 21860608 427 11 1147 427
-0.14937875 0.70474505 0.11511009 797 22055168 419 11 1125 419
-0.1411064 0.70847458 0.11533268 787 22250496 416 11 1128 416
-0.13258332 0.7111299 0.11544397 858 22445824 455 11 1145 455
-0.12435555 0.71564096 0.11577787 785 22640896 420 11 1190 420
-0.11619454 0.72103792 0.11622304 791 22837504 428 11 1171 428
-0.1079197 0.72634184 0.11666822 759 23033088 415 11 1111 415
-0.099398643 0.73056585 0.11700211 799 23228928 440 11 1143 440
-0.0907901 0.73468965 0.117336 805 23422720 447 11 1073 447
-0.082204521 0.73969948 0.11778118 794 23618304 446 11 1122 446
-0.073703848 0.74658674 0.11844896 816 23814400 465 11 1116 465
-0.064961448 0.75238574 0.11900543 829 24010240 479 11 1093 479
-0.056014933 0.75709075 0.11945061 846 24205312 495 11 1061 495
-0.047205314 0.76565659 0.12034098 826 24400640 493 11 1079 493
-0.038145345 0.77312642 0.12112004 785 24596992 477 11 1092 477
-0.028909098 0.78048819 0.12189911 765 24790528 473 11 1103 473
-0.019449666 0.78575164 0.12245559 803 24986880 503 11 1040 503
-0.0098773008 0.79189348 0.12312336 814 25183232 518 11 1050 518
-0.00015655121 0.79990536 0.12401373 837 25377280 543 11 1079 543
0.0097843008 0.80978411 0.12512669 852 25571840 567 11 1103 567
0.019967567 0.81953788 0.12623964 859 25768960 585 11 1124 585
0.030207355 0.8241967 0.12679611 833 25963776 575 11 1095 575
0.040809684 0.83368969 0.12790906 857 26159360 605 11 1103 605
0.051527034 0.84106129 0.12879944 839 26353920 603 11 1149 603
0.062651545 0.85126746 0.13002369 891 26547968 658 11 1129 658
0.073948644 0.86033553 0.13113664 886 26743296 669 11 1134 669
0.085477598 0.86925304 0.13224959 913 26938112 706 11 1155 706
0.09723641 0.87801564 0.13336255 938 27132160 742 11 1140 742
0.10836948 0.87971514 0.13369644 825 27326976 657 11 1079 657
0.11996093 0.88422728 0.1343642 995 27518976 803 11 1224 803
0.13226369 0.89251852 0.13547717 1274 27713536 1052 11 1221 1052
0.14431337 0.89769608 0.13625623 1385 27907072 1161 11 1232 1161
0.15616949 0.90075308 0.13681272 1488 28102912 1262 11 1304 1262
0.1677579 0.90169966 0.13714659 1754 28297728 1494 11 1277 1494
0.17783974 0.89469993 0.13659012 1504 28492800 1269 11 1301 1269
0.18859959 0.891478 0.13647883 1971 28688896 1658 11 1359 1658
0.19908917 0.88715732 0.13625623 1437 28884992 1205 11 1291 1205
0.20973106 0.88368052 0.13614494 1459 29080832 1219 11 1274 1219
0.21572451 0.86176157 0.13391903 1189 29276928 951 11 1241 951
0.22476207 0.853284 0.13325125 1082 29472256 854 11 1233 854
0.23388962 0.84567302 0.13269478 1059 29667072 826 11 1240 826
0.24037087 0.82937777 0.13113664 996 29863168 753 11 1217 753
0.24879801 0.82066011 0.13046886 1011 30059520 754 11 1196 754
0.25584605 0.80807221 0.12935591 996 30255616 725 11 1197 725
0.26137507 0.79166216 0.12779778 926 30451200 652 11 1207 652
0.26815832 0.77993834 0.12679611 909 30646272 626 11 1190 626
0.27435854 0.76723289 0.12568316 933 30842368 628 11 1153 628
0.28098086 0.75635695 0.1247928 936 31038208 617 11 1164 617
0.28594631 0.74172682 0.12345725 853 31233792 546 11 1225 546
0.29207271 0.7307809 0.12256689 858 31429376 539 11 1160 539
0.29835457 0.72071546 0.12178782 831 31625216 513 11 1201 513
0.30404195 0.70969355 0.12089746 836 31820544 505 11 1183 505
0.3086983 0.69682491 0.1197845 804 32016384 473 11 1163 473
0.31060058 0.6785298 0.11800377 755 32211968 426 11 1139 426
0.3142271 0.6647864 0.11677952 740 32408320 405 11 1181 405
0.32018068 0.65641546 0.11622304 722 32602624 390 11 1104 390
0.32776472 0.65154934 0.11611175 730 32796928 393 11 1063 393
0.3247453 0.62631023 0.11344066 408 32990976 206 11 1022 206
0.34599942 0.64769095 0.11666822 105 33186048 57 11 854 57
0.38556424 0.70084864 0.12401373 70 33379328 45 11 823 45
0.41373894 0.73064613 0.12846555 52 33573120 37 11 825 37
0.42868179 0.73581547 0.12980109 54 33767168 40 11 878 40
0.46425891 0.77481669 0.13558847 32 33960960 26 11 825 26
0.50085384 0.81304896 0.14137582 18 34155008 17 11 861 17
0.5177083 0.81775439 0.14282267 19 34350336 18 11 904 18
0.52933097 0.8138383 0.14315656 27 34544640 26 11 869 26
0.54756343 0.81967354 0.14482598 25 34742016 25 11 865 25
0.56433028 0.82272404 0.14616153 28 34936832 28 11 847 28
0.58125341 0.82548499 0.14749707 26 35132672 27 11 895 27
0.58959246 0.81587422 0.1471632 57 35329024 59 11 882 59
0.56935662 0.76787704 0.14148712 94 35525888 87 11 843 87
0.57994074 0.7624138 0.14170972 82 35722496 77 11 859 77
0.5923112 0.75915599 0.14226618 140 35917568 132 11 880 132
0.64196044 0.80225146 0.1495004 208 36115200 223 11 958 223
0.66437036 0.80967379 0.15172631 273 36313088 304 11 942 304
0.69409776 0.82502717 0.15517646 351 36508672 414 11 952 414
0.71066314 0.82397062 0.15628941 311 36704256 374 11 958 374
0.73850083 0.83528358 0.1592944 303 36899584 382 11 899 382
0.76405013 0.84308982 0.16185419 269 37095680 354 11 947 354
0.80749094 0.86931789 0.16730767 197 37290496 282 11 886 282
0.85031468 0.89316225 0.17253856 128 37486592 198 11 871 198
0.8674593 0.88906014 0.17354022 99 37681408 156 11 919 156
1.0315392 1.0314963 0.19780263 38 37874944 83 11 891 83
1.2604097 1.2296861 0.23163646 15 38070784 50 11 865 50
0 0 0 5 38265856 0 11 883 0
0 0 0 6 38459904 0 11 848 0
2.7123394 2.4574378 0.44432214 90 38655744 1232 11 921 1232
2.7273984 2.4108062 0.44209623 387 38850816 5206 11 888 5206
2.7823687 2.3992181 0.44588026 325 39046656 4453 11 941 4453
2.7895441 2.3463445 0.4426527 328 39241472 4426 11 921 4426
2.8050647 2.3012218 0.44076067 339 39437312 4532 11 885 4532
2.8237803 2.2591772 0.43942514 309 39633408 4104 11 921 4104
2.8528585 2.2255771 0.43964773 321 39828224 4268 11 917 4268
2.8870745 2.1958144 0.44064939 344 40023040 4594 11 931 4594
2.903424 2.1525271 0.43920255 315 40217856 4179 11 913 4179
2.9304259 2.1173177 0.43931383 331 40413440 4395 11 864 4395
2.9513121 2.0777652 0.43864608 316 40609792 4182 11 880 4182
2.9815049 2.0447636 0.43931383 317 40804608 4205 11 961 4205
2.9923229 1.9986399 0.43742183 295 40998912 3878 11 982 3878
3.0216229 1.9650192 0.43808958 315 41194240 4154 11 978 4154
3.046349 1.9283228 0.43820089 295 41389312 3895 11 887 3895
3.0748603 1.8939208 0.43886867 285 41583360 3775 11 941 3775
3.09446 1.8540022 0.43842348 289 41777408 3820 11 923 3820
2.011771 1.1721745 0.29518619 480 41971968 2639 11 1028 2639
2.0242741 1.1464195 0.2949636 526 42167040 2887 11 994 2887
2.0408022 1.122929 0.29529747 556 42362368 3059 11 1011 3059
2.0553052 1.0982689 0.29540879 551 42557952 3035 11 1023 3035
2.0739214 1.075709 0.29607654 239 42752512 1326 11 925 1326
2.095844 1.0546435 0.2971895 545 42948096 3043 11 1018 3043
2.1095214 1.0292804 0.29730079 503 43144192 2810 11 1005 2810
2.1255875 1.0050144 0.29774597 484 43338496 2713 11 967 2713
2.1350496 0.97761381 0.2974121 319 43533312 1786 11 944 1786
2.1623325 0.9581818 0.29930413 58 43728640 333 11 947 333
2.1748416 0.93196577 0.29941541 90 43921664 515 11 893 515
2.1971335 0.90976751 0.30075097 462 44114944 2650 11 952 2650
2.2053638 0.88163054 0.30041707 123 44310016 707 11 889 707
2.2410538 0.86415064 0.30342206 46 44504064 274 11 875 274
2.2598739 0.83969831 0.30442372 72 44697600 424 11 854 424
2.2774944 0.81457919 0.30531406 87 44893184 515 11 837 515
2.2704024 0.7807551 0.30331075 489 45089024 2859 11 968 2859
2.3034053 0.76062161 0.30609316 127 45283840 762 11 906 762
2.3116186 0.73199815 0.30598184 41 45480960 249 11 870 249
2.3384976 0.70905191 0.30809647 348 45676032 2110 11 911 2110
2.3470228 0.68030155 0.30809647 521 45870848 3155 11 947 3155
2.358068 0.65224314 0.30843034 513 46065920 3114 11 972 3114
2.3735826 0.62528098 0.30932072 454 46261504 2775 11 961 2775
2.39361 0.59924191 0.31076756 455 46458368 2812 11 907 2812
2.4133539 0.57280505 0.3122144 495 46654208 3090 11 935 3090
2.427959 0.54488611 0.31310475 531 46850304 3336 11 944 3336
2.4908562 0.52697212 0.3195599 98 47045632 649 11 886 649
2.494211 0.49578497 0.319226 52 47241984 341 11 823 341
2.4942451 0.46405008 0.31855825 120 47437312 782 11 841 782
2.5017102 0.43374616 0.31878084 229 47633408 1500 11 945 1500
2.5451119 0.40915981 0.32312134 47 47828992 323 11 867 323
2.5578058 0.37906086 0.32401171 35 48024320 237 11 846 237
2.575067 0.34937918 0.32545856 160 48219392 1100 11 903 1100
2.5949421 0.31969476 0.32723927 344 48416000 2388 11 921 2388
2.6213884 0.29033968 0.32979909 57 48611840 408 11 866 408
2.6405785 0.25970337 0.3315798 168 48807680 1204 11 913 1204
2.6574285 0.22846964 0.33313796 424 49002240 3061 11 902 3061
2.6659789 0.19627866 0.33380571 383 49197824 2777 11 1008 2777
2.6979449 0.16536796 0.33714458 267 49392384 1982 11 876 1982
2.7265713 0.13355657 0.34014955 329 49586432 2489 11 888 2489
2.7528331 0.10099472 0.34293196 380 49779968 2928 11 882 2928
2.7677741 0.067543119 0.34449008 330 49974272 2567 11 973 2567
3.9817216 0.048119526 0.48038188 41 50167296 674 11 866 674
4.1907077 -0.00080513465 0.5037539 90 50362112 1600 11 853 1600
4.2519922 -0.053005084 0.51065427 254 50556928 4667 11 901 4667
4.2430739 -0.10498221 0.5097639 280 50751488 5125 11 918 5125
4.2424593 -0.15708022 0.50987518 289 50945024 5293 11 873 5293
4.2273083 -0.20849231 0.50842834 376 51140352 6836 11 917 6836
4.2184801 -0.25998485 0.50776058 379 51335680 6871 11 962 6871
4.2090259 -0.3112922 0.50709277 382 51530752 6907 11 938 6907
4.1999383 -0.36249226 0.5065363 404 51726080 7287 11 924 7287
4.2001185 -0.41449311 0.50709277 383 51920896 6921 11 980 6921
4.1650848 -0.46270928 0.5037539 443 52115968 7891 11 963 7891
4.1758599 -0.51585925 0.50564593 471 52311296 8460 11 906 8460
4.1701999 -0.56719863 0.50575727 510 52505600 9165 11 926 9165
4.1560445 -0.61730802 0.50497818 550 52701184 9850 11 867 9850
4.146194 -0.66794628 0.50475556 577 52895488 10322 11 945 10322
4.1376848 -0.71877617 0.50475556 584 53091072 10443 11 967 10443
4.1187835 -0.767676 0.50364262 458 53287168 8156 11 938 8156
5.3127294 -1.0579431 0.64109254 269 53483008 8017 11 948 8017
5.3304567 -1.129654 0.64465404 496 53678592 14929 11 1094 14929
5.3976374 -1.2132951 0.65400285 697 53874688 21621 11 1009 21621
5.4229488 -1.2890967 0.65867722 462 54069504 14560 11 994 14560
5.2168255 -1.307924 0.63675201 807 54263040 23659 11 1029 23659
5.1532989 -1.3594198 0.63129854 1346 54459136 38730 11 1054 38730
5.5815649 -1.5459336 0.68305093 476 54655232 16193 11 1019 16193
5.634707 -1.6353681 0.69150943 407 54850560 14217 11 948 14217
8.4089489 -2.5530305 1.0186068 542 55046656 42445 11 1378 42445
8.5986538 -2.7263224 1.04465 317 55242496 26186 11 935 26186
8.7400484 -2.8896677 1.0653509 106 55438080 9163 11 945 9163
8.7941351 -3.0277655 1.0760353 240 55633408 21053 11 1132 21053
5.5996046 -2.0049551 0.70052433 1445 55829248 51773 11 1254 51773
5.6015902 -2.0835688 0.70375192 1526 56025344 55210 11 1257 55210
5.5607667 -2.1464252 0.70197117 1650 56220416 59395 11 1373 59395
5.4768047 -2.191608 0.69507086 1943 56416768 2938 11 1178 2938
5.4109406 -2.2426679 0.69039643 2065 56611840 6219 11 1075 6219
5.3282146 -2.2853916 0.68371874 2067 56807936 4845 11 1165 4845
5.2534389 -2.3300529 0.67804265 1854 57004032 62021 11 1282 62021
5.1910238 -2.3790233 0.67392474 1708 57197824 56427 11 1343 56427
5.1219158 -2.4238393 0.66902775 1715 57393408 55771 11 1147 55771
5.0471373 -2.4647033 0.66346294 1546 57588992 49416 11 1026 49416
4.9836726 -2.5099125 0.65934503 1436 57784064 45304 11 1062 45304
4.9207449 -2.5543954 0.65533835 1346 57978112 41909 11 1093 41909
4.8601098 -2.5991204 0.65166563 1244 58172672 38271 11 1181 38271
4.789547 -2.6374707 0.64676863 1155 58368256 34984 11 1101 34984
4.7308841 -2.6813447 0.64342976 1051 58562560 31491 11 1079 31491
4.6589928 -2.7166686 0.63842148 1040 58756352 30660 11 941 30660
4.6057024 -2.7618806 0.63586169 1099 58952192 32120 11 966 32120
4.5274754 -2.79107 0.63007432 1226 59146240 35141 11 1036 35141
4.4626637 -2.82727 0.62606764 1428 59341568 40372 11 1151 40372
4.4043121 -2.8666401 0.62295139 1620 59535616 45305 11 1221 45305
4.3539319 -2.9105296 0.62094808 1727 59730688 47989 11 1342 47989
4.2801995 -2.9378672 0.61582845 2087 59925248 56965 11 1234 56965
4.2113314 -2.9672723 0.61137664 2173 60119552 58422 11 1098 58422
4.1641326 -3.0111573 0.6099298 2296 60311808 61411 11 1024 61411
4.1196852 -3.0567007 0.60892814 2222 60507648 59222 11 1084 59222
4.0415378 -3.0763249 0.60325211 2013 60702976 52597 11 1105 52597
3.9940829 -3.1183496 0.60191655 1486 60897024 38653 11 1010 38653
3.9089725 -3.1298563 0.5952388 280 61092608 7119 11 1122 7119
1.3234853 -1.0862886 0.22618298 351 61288192 1045 11 895 1045
1.306254 -1.0992477 0.22562651 413 61484544 1221 11 953 1221
1.289657 -1.1125973 0.22518133 409 61679104 1204 11 940 1204
1.2729294 -1.1257056 0.22473614 461 61874688 1351 11 917 1351
1.2590194 -1.1412417 0.22473614 553 62070272 1620 11 979 1620
1.2463757 -1.157959 0.22495873 578 62266368 1696 11 944 1696
0 -0 0 673 62461440 0 11 940 0
1.2154492 -1.186115 0.22462484 698 62658304 2042 11 991 2042
1.1993972 -1.1995354 0.22440226 767 62853632 2238 11 1018 2238
1.1845868 -1.2141635 0.22440226 689 63050496 2011 11 975 2011
1.1689129 -1.2278888 0.22429097 596 63247104 1738 11 926 1738
1.1544329 -1.242869 0.22440226 578 63443200 1687 11 977 1687
1.1390941 -1.2569422 0.22440226 501 63639808 1463 11 956 1463
1.1242418 -1.2715706 0.22451355 489 63837440 1429 11 980 1429
1.1098508 -1.2867764 0.22473614 447 64035072 1310 11 909 1310
1.0990934 -1.3063838 0.22562651 361 64232448 1068 11 970 1068
1.0848701 -1.3220782 0.22596039 332 64427776 985 11 919 985
1.0753927 -1.3438283 0.22718464 264 64624640 792 11 856 792
1.0594321 -1.3577075 0.22729594 256 64821504 772 11 873 772
1.0487064 -1.3785168 0.22840889 217 65018112 662 11 860 662
1.0370369 -1.3984677 0.22941056 201 65213952 620 11 898 620
1.0227071 -1.4151163 0.22996703 165 65410560 512 11 918 512
1.0069804 -1.429998 0.23030092 183 65605888 569 11 886 569
0.99160433 -1.445526 0.23074611 156 65800704 485 11 829 485
0.97544646 -1.460065 0.23107998 144 65995264 452 11 909 452
0.96016425 -1.4760913 0.23163646 135 66190848 423 11 851 423
0.94144666 -1.486923 0.23152517 147 66385920 463 11 928 463
0.92677653 -1.5042875 0.23230423 75 66578944 239 11 909 239
0.90671486 -1.5129896 0.23197035 90 66772992 286 11 859 286
0.88657933 -1.5214262 0.23163646 129 66967808 408 11 895 408
0.8663736 -1.5295969 0.23130257 131 67163392 412 11 911 412
0.8427484 -1.5314058 0.23018962 156 67357184 483 11 798 483
0.8182736 -1.5311134 0.22885408 205 67550464 628 11 884 628
0.80033773 -1.5428041 0.22907667 133 67745024 409 11 923 409
0.34683591 -0.68867826 0.12078616 28 67939840 17 11 932 17
0.3374874 -0.69109619 0.12056357 44 68134656 26 11 847 26
0.32770723 -0.69249016 0.12022968 54 68330496 32 11 846 32
0.32125255 -0.70097768 0.12078616 30 68523264 18 11 803 18
0.3126263 -0.70486712 0.12078616 28 68718080 17 11 909 17
0.30277911 -0.70590997 0.12045228 30 68913152 18 11 880 18
0.29143339 -0.70314461 0.11967321 74 69108480 43 11 922 43
0.29200149 -0.72973907 0.12245559 280 69305088 175 11 889 175
0.27980793 -0.72492176 0.12145393 625 69501440 382 11 978 382
0.27089095 -0.72830081 0.12145393 702 69697280 430 11 1055 430
0.26126412 -0.72969866 0.12123134 690 69893632 420 11 1024 420
0.25132084 -0.73003036 0.12089746 738 70089216 446 11 1001 446
0.24140893 -0.7302283 0.12056357 721 70285824 432 11 1006 432
0.23212987 -0.73218834 0.12045228 751 70480896 449 11 1016 449
0.22255088 -0.73307961 0.12022968 779 70676480 464 11 1064 464
0.21353811 -0.7357555 0.12022968 745 70872832 443 11 1074 443
0.20502275 -0.74023622 0.12045228 822 71068928 491 11 1035 491
0.19592348 -0.74269646 0.12045228 812 71264768 485 11 995 485
0.1867947 -0.74504483 0.12045228 787 71461376 470 11 990 470
0.17763779 -0.74728096 0.12045228 706 71655936 422 11 1038 422
0.16867159 -0.75037432 0.12056357 606 71852544 363 11 1044 363
0.15986174 -0.75433224 0.12078616 603 72048128 363 11 1015 363
0.15059288 -0.75623721 0.12078616 628 72241920 379 11 1079 379
0.1402116 -0.75216597 0.12011839 695 72436736 413 11 1007 413
0.13080119 -0.75285071 0.12000709 802 72630784 474 11 1076 474
0.12171029 -0.75538039 0.12011839 811 72825344 481 11 1052 481
0.11243144 -0.7568171 0.12011839 826 73019648 491 11 985 491
0.10313567 -0.75813979 0.12011839 746 73216000 442 11 1060 442
0.094067104 -0.76132107 0.12034098 624 73411072 372 11 1028 372
0.084608182 -0.76143032 0.12022968 539 73606912 321 11 1037 321
0.075160764 -0.76142222 0.12011839 599 73802240 356 11 1160 356
0.066406168 -0.76921827 0.12089746 705 73997312 426 11 1000 426
0.056888849 -0.76898414 0.12078616 804 74192640 485 11 1069 485
0.047326632 -0.76764047 0.12056357 748 74389760 449 11 980 449
0.037999898 -0.77014863 0.12078616 702 74583808 423 11 1007 423
0.028872803 -0.77949506 0.12178782 518 74780416 319 11 921 319
0.01894342 -0.76488829 0.12011839 396 74976256 235 11 979 235
0.0095198965 -0.76208198 0.1197845 206 75170304 121 11 903 121
0.00016472497 -0.7710855 0.12078616 49 75366144 30 11 894 30
-0.0092852162 -0.77003574 0.12067486 28 75560960 17 11 924 17
-0.018931404 -0.77781171 0.12156523 29 75753984 18 11 882 18
-0.028548645 -0.77950704 0.12178782 32 75949568 20 11 866 20
-0.038161289 -0.78009057 0.12189911 40 76144896 25 11 907 25
-0.047670107 -0.77857161 0.12178782 34 76340992 21 11 870 21
-0.057954676 -0.78783876 0.12290078 33 76536576 21 11 922 21
-0 -0 0 6 76730880 0 11 951 0
-1.6791708 -17.00338 1.9479241 58 76923904 17335 11 1009 17335
-1.9028568 -17.117796 1.9632829 122 77118208 36868 11 968 36868
-2.132406 -17.251947 1.9812015 86 77312512 26526 11 987 26526
-2.3674076 -17.396805 2.0006783 89 77508352 27980 11 1010 27980
-2.610811 -17.568939 2.0236051 109 77701632 35043 11 988 35043
-2.8508837 -17.688633 2.0409672 77 77897728 25192 11 1069 25192
-3.1029625 -17.854992 2.0640054 76 78093824 25481 11 1017 25481
-3.3562689 -18.000212 2.0850401 93 78289408 31757 11 1050 31757
-3.6260276 -18.204252 2.113198 100 78484992 35089 11 1038 35089
-1.3893405 -6.5554047 0.7848863 91 78680320 4166 11 1024 4166
-4.1676168 -18.536398 2.162168 83 78876160 30595 11 981 30595
-4.4458103 -18.698496 2.1868756 77 79073024 29075 11 972 29075
-4.7416563 -18.908577 2.2175932 80 79269632 31102 11 929 31102
-5.0349503 -19.082464 2.244638 68 79465728 27073 11 1007 27073
-5.3356047 -19.260584 2.2726843 64 79661824 26195 11 958 26195
-5.6627131 -19.50765 2.3093007 69 79858432 29104 11 1002 29104
-5.9761729 -19.682026 2.3380148 51 80055552 22188 11 945 22188
-6.2932525 -19.846874 2.3661726 57 80252416 25365 11 949 25365
-0.37556729 -1.1369981 0.16853192 362 80448512 526 11 990 526
-0.38204992 -1.1106919 0.16597213 501 80643840 701 11 967 701
-0.39297056 -1.0984352 0.16508177 557 80839424 768 11 1078 768
-0.40364832 -1.0860788 0.1641914 523 81035776 712 11 1027 712
-0.41372448 -1.0726997 0.16318974 597 81230336 800 11 1044 800
-0.42353356 -1.0592382 0.16218808 614 81425152 810 11 968 810
-0.43269449 -1.0447807 0.16107513 602 81620480 780 11 1019 780
-0.44038951 -1.0275195 0.15962829 648 81816832 821 11 957 821
-0.44893581 -1.0129536 0.15851533 607 82011904 755 11 998 755
-0.45677739 -0.9974308 0.15729108 709 82204416 866 11 931 866
-0.46600693 -0.98546255 0.15651201 633 82397952 763 11 974 763
-0.47675657 -0.97699082 0.15617813 669 82594304 801 11 961 801
-0.483345 -0.96041614 0.15484259 511 82789120 600 11 939 600
-0.51799077 -0.99851221 0.16040735 349 82981632 448 11 1019 448
-0.53207994 -0.99558574 0.16085254 371 83177216 479 11 936 479
-0.55240762 -1.0037796 0.16274455 300 83371520 399 11 1042 399
-0 -0 0 214 83565312 0 11 2997 0
-0 -0 0 83 83759360 0 11 6177 0
-0 -0 0 0 83954944 0 11 7109 0
-0 -0 0 0 84148736 0 11 6936 0
-0 -0 0 11 84343296 0 11 5002 0
-0 -0 0 10 84538368 0 11 4060 0
-0 -0 0 2 84733440 0 11 4325 0
-0 -0 0 0 84928000 0 11 3888 0
-0 -0 0 2 85121792 0 11 3325 0
-0 -0 0 1 85317888 0 11 3417 0
-0 -0 0 0 85513984 0 11 3947 0
-0 -0 0 0 85711872 0 11 4907 0
-0 -0 0 0 85906944 0 11 5009 0
-0 -0 0 0 86104320 0 11 5997 0
-0 -0 0 0 86300672 0 11 5451 0
-0 -0 0 0 86498560 0 11 6385 0
-0 -0 0 0 86694144 0 11 6368 0
-0 -0 0 0 86890496 0 11 5885 0
-0 -0 0 0 87085312 0 11 5768 0
-0 -0 0 0 87280640 0 11 5829 0
-0 -0 0 0 87475200 0 11 6075 0
-0 -0 0 0 87671296 0 11 5938 0
-0 -0 0 0 87866368 0 11 6155 0
-0 -0 0 0 88061952 0 11 6324 0
-0 -0 0 0 88256512 0 11 6281 0
-0 -0 0 0 88451584 0 11 6540 0
-0 -0 0 2 88647680 0 11 6520 0
-0 -0 0 2 88843264 0 11 5946 0
-0 -0 0 5 89037568 0 11 5199 0
-0 -0 0 2 89232384 0 11 6106 0
-0 -0 0 0 89430272 0 11 5627 0
-0 -0 0 0 89625600 0 11 6150 0
-0 -0 0 0 89821184 0 11 5235 0
-0 -0 0 0 90016512 0 11 5834 0
-0 -0 0 0 90212096 0 11 4754 0
-0 -0 0 0 90409216 0 11 4808 0
-0 -0 0 0 90604288 0 11 5355 0
-0 -0 0 0 90800384 0 11 4830 0
-0 -0 0 0 90994944 0 11 4586 0
-0 -0 0 0 91187712 0 11 4261 0
-0 -0 0 0 91380992 0 11 4059 0
-0 -0 0 0 91576064 0 11 4044 0
-0 -0 0 1 91769856 0 11 3763 0
-0 -0 0 0 91963136 0 11 3789 0
-0 -0 0 2 92157440 0 11 2621 0
-0 -0 0 1 92352000 0 11 2430 0
-0 -0 0 5 92545792 0 11 2097 0
-0 -0 0 3 92739840 0 11 2581 0
-0 -0 0 3 92934144 0 11 1906 0
-0 -0 0 4 93128704 0 11 1534 0
-0 -0 0 7 93322496 0 11 1080 0
-0 -0 0 13 93517312 0 11 989 0
-0 -0 0 5 93711616 0 11 933 0
-0 -0 0 4 93907200 0 11 923 0
-0 -0 0 5 94102016 0 11 910 0
-0 -0 0 5 94298880 0 11 927 0
-0 -0 0 14 94495488 0 11 837 0
-0 -0 0 16 94692096 0 11 880 0
-0.8775534 -0.31412008 0.13881603 38 94888448 33 11 841 33
-0.89261997 -0.30720377 0.14015158 30 95084032 27 11 905 27
-0.88877285 -0.29373509 0.13926122 17 95279872 15 11 851 15
-0.90368015 -0.2864047 0.14059676 30 95476480 28 11 902 28
-0.89000732 -0.27010578 0.13859344 244 95672832 214 11 1002 214
-0.89230037 -0.25888717 0.13848214 328 95869440 287 11 985 287
-0.89445227 -0.24765299 0.13837084 359 96064768 313 11 1032 313
-0.89934611 -0.23716407 0.13859344 405 96259840 355 11 1089 355
-0.90411687 -0.22659224 0.13881603 431 96455680 379 11 1014 379
-0.90779644 -0.21570961 0.13892733 394 96652032 348 11 1072 348
-0.91231453 -0.20498824 0.13914992 416 96847104 369 11 1051 369
-0.91962284 -0.19480506 0.13970639 396 97042176 355 11 1023 355
-0.93071687 -0.18524761 0.14070806 340 97236224 310 11 987 310
-0.94073647 -0.17526534 0.14159842 317 97430528 294 11 1035 294
-0.94967085 -0.16489522 0.14237748 293 97625600 276 11 1025 276
-0.95751011 -0.15417443 0.14304526 243 97820928 232 11 945 232
-0.9622792 -0.14284933 0.14337914 134 98015744 129 11 904 129
-0.96789891 -0.13156378 0.14382432 78 98208768 76 11 1014 76
-0 -0 0 18 98402560 0 11 878 0
-0 -0 0 5 98598144 0 11 938 0
-0 -0 0 5 98792448 0 11 935 0
-0 -0 0 5 98987776 0 11 1109 0
-0 -0 0 8 99181568 0 11 1210 0
-0 -0 0 5 99375360 0 11 1276 0
-0 -0 0 7 99569920 0 11 1084 0
-0 -0 0 6 99766272 0 11 1085 0
-0 -0 0 7 0 0 12 1993 0
-0 -0 0 6 196864 0 12 2785 0
-0 0 0 7 393728 0 12 2818 0
-0 0 0 6 587776 0 12 2291 0
-0 0 0 10 781824 0 12 2101 0
-0 0 0 17 976640 0 12 2057 0
-0 0 0 15 1171968 0 12 1821 0
-0 0 0 7 1365504 0 12 1806 0
-0 0 0 17 1561088 0 12 1622 0
-0 0 0 27 1757184 0 12 1665 0
-0 0 0 25 1951488 0 12 1626 0
-1.1861194 0.13149294 0.13921499 55 2146304 79 12 1520 79
-1.090493 0.13442715 0.13093521 176 2342400 214 12 1570 214
-1.043355 0.14161901 0.12692603 415 2535936 464 12 1541 464
-1.018875 0.15104353 0.12492146 560 2729984 600 12 1516 600
-1.0071098 0.16195001 0.12404989 592 2924032 621 12 1555 621
-0.99326879 0.17224951 0.12300403 599 3116544 614 12 1567 614
-0.97834915 0.18205141 0.121871 644 3311104 643 12 1613 643
-0.96529442 0.19190267 0.12091229 630 3505920 616 12 1548 616
-0.95214695 0.20146127 0.11995358 607 3700992 580 12 1589 580
-0.94085562 0.21116352 0.11916918 589 3895040 553 12 1550 553
-0.93044013 0.22084974 0.11847193 572 4090880 527 12 1648 527
-0.91992974 0.23031241 0.11777468 578 4287488 524 12 1607 524
-0.90643871 0.23878816 0.11681597 516 4481536 457 12 1544 457
-0.89191973 0.24670193 0.1157701 343 4677888 296 12 1501 296
-0.88404167 0.25623992 0.11533432 227 4872960 194 12 1571 194
-0.86557919 0.26243797 0.11393983 125 5067520 103 12 1487 103
-0.86704147 0.27454585 0.11437561 92 5262848 77 12 1462 77
-0.84279889 0.27828446 0.11245818 43 5459456 34 12 1476 34
-0.83649468 0.28763291 0.11219671 24 5655296 19 12 1486 19
-0.83665347 0.29921985 0.11254534 26 5851136 21 12 1551 21
-0.8142451 0.30251718 0.11080223 32 6048000 24 12 1410 24
-0.79653138 0.30710459 0.10949489 52 6243328 38 12 1400 38
-0.78345406 0.31315449 0.10862333 83 6439680 59 12 1538 59
-0.76574832 0.31702277 0.10731599 287 6635008 199 12 1495 199
-0.75356078 0.32286102 0.10653159 442 6830848 299 12 1528 299
-0.74134648 0.32844844 0.10574719 501 7026176 333 12 1417 333
-0.72458184 0.33170974 0.10452701 662 7220480 424 12 1527 424
-0.71955627 0.34015033 0.10443985 641 7416576 409 12 1535 409
-0.70995712 0.34633157 0.10391692 763 7610880 481 12 1557 481
-0.70209485 0.35322514 0.1035683 770 7805184 480 12 1495 480
-0.69063431 0.35814205 0.10287105 827 8000000 505 12 1543 505
-0.68267363 0.36471081 0.10252243 814 8192512 492 12 1572 492
-0.67378366 0.3706578 0.10208665 807 8386304 482 12 1539 482
-0.66571784 0.37693319 0.10173803 795 8579072 469 12 1592 469
-0.65759999 0.38306671 0.1013894 826 8771584 483 12 1617 483
-0.64943236 0.38905808 0.10104078 781 8966912 452 12 1580 452
-0.64206523 0.39542982 0.10077931 788 9160704 451 12 1619 451
-0.63379842 0.40114638 0.10043069 757 9356288 429 12 1647 429
-0.62548846 0.40671992 0.10008207 860 9551616 483 12 1603 483
-0.61879396 0.4132576 0.099907756 836 9748992 467 12 1642 467
-0.61121219 0.4191286 0.099646293 772 9945088 427 12 1652 427
-0 0 0 953 10141440 0 12 1954 0
-0.35696548 0.25769538 0.073325254 8214 10337280 1606 12 4988 1606
-0.37297589 0.2763043 0.07541699 10633 10533376 2311 12 6984 2311
-0.36955711 0.28086048 0.07541699 10338 10728448 2246 12 7117 2246
-0.34723857 0.27065966 0.073325254 9449 10924288 1847 12 6226 1847
-0 0 0 5462 11120384 0 12 2659 0
-0 0 0 4459 11313920 0 12 2014 0
-0 0 0 3150 11507200 0 12 2005 0
-0 0 0 2328 11700992 0 12 2024 0
-0.37400785 0.33038953 0.078467444 1500 11895296 377 12 2002 377
-0.37582883 0.34030801 0.079164691 973 12089856 252 12 1672 252
-0.44969955 0.41746372 0.088490352 540 12284160 205 12 1650 205
-0.45319831 0.43119624 0.08953622 586 12478720 231 12 1578 231
-0.48422608 0.47221717 0.093981169 724 12673280 335 12 1775 335
-0.48684537 0.48657921 0.095027037 1058 12868096 506 12 1806 506
-0.48570624 0.49750936 0.095637128 1096 13063680 535 12 1702 535
-0.46857709 0.49188527 0.094242632 2592 13259264 1206 12 1998 1206
-0.46860585 0.50416893 0.095027037 1488 13455616 711 12 1903 711
-0.43763825 0.48256359 0.091802269 6010 13651456 2574 12 3208 2574
-0.45807084 0.51775664 0.0952885 1954 13846784 941 12 1981 941
-0.41265428 0.4780682 0.090059154 3987 14043648 1603 12 2171 1603
-0.44202065 0.52503014 0.094852723 1675 14241280 797 12 1876 797
-0.43491268 0.52964467 0.094765566 1348 14437888 640 12 1834 640
-0.43273622 0.54038739 0.095375657 1085 14636288 525 12 1893 525
-0.42545956 0.54487157 0.0952885 1110 14833920 535 12 1869 535
-0.4169322 0.54767263 0.095027037 1119 15031040 536 12 1820 536
-0.40958679 0.55194747 0.09493988 1085 15226368 517 12 1823 517
-0.40219936 0.55612463 0.094852723 1071 15422208 509 12 1699 509
-0.39419782 0.55938905 0.094678409 1150 15618304 543 12 1835 543
-0.38674021 0.56336278 0.094591253 1167 15814144 550 12 1821 550
-0.37924454 0.56723779 0.094504103 1114 16010752 524 12 1758 524
-0.36899704 0.56683785 0.093981169 1218 16205824 562 12 1784 562
-0.36361146 0.57384866 0.094242632 1135 16399360 528 12 1784 528
-0.35497501 0.57572275 0.093981169 1169 16592896 540 12 1842 540
-0.34634757 0.57747167 0.093719698 1241 16788224 568 12 1693 568
-0.3397364 0.58253926 0.093806855 1179 16980992 541 12 1684 541
-0.33158061 0.5849306 0.093632542 1143 17174528 521 12 1736 521
-0.32533783 0.59070134 0.093806855 1106 17367296 508 12 1722 508
-0.31853387 0.59552795 0.093894012 1060 17561088 488 12 1722 488
-0.31120184 0.599392 0.093894012 1080 17755904 497 12 1784 497
-0.30471826 0.60494572 0.094068319 1012 17950720 468 12 1705 468
-0.29945517 0.61311638 0.094504103 926 18145024 436 12 1714 436
-0.29148304 0.61584437 0.094416946 943 18340608 442 12 1798 442
-0.28390375 0.61937493 0.094416946 951 18535936 445 12 1688 445
-0.27708858 0.62463391 0.094591253 886 18730496 418 12 1761 418
-0.27018696 0.62981862 0.094765566 909 18926080 431 12 1694 431
-0.26472357 0.63860965 0.0952885 837 19124480 403 12 1767 403
-0.25649726 0.64088506 0.095201343 856 19318528 412 12 1727 412
-0.25004634 0.64770257 0.095549971 840 19512064 408 12 1702 408
-0.24277288 0.65259004 0.095724277 836 19707648 409 12 1765 409
-0.23541699 0.6573962 0.095898591 768 19902464 378 12 1788 378
-0.22797962 0.66211981 0.096072905 871 20099072 430 12 1675 430
-0.21983722 0.66486764 0.096072905 798 20294144 395 12 1723 395
-0.21196231 0.66846508 0.096160062 797 20490240 396 12 1772 396
-0.20432107 0.67292261 0.096334368 782 20687616 390 12 1644 390
-0.19660227 0.67729294 0.096508682 742 20883200 372 12 1694 372
-0.18880689 0.68157494 0.096682996 721 21078784 364 12 1730 364
-0.18093595 0.68576729 0.096857302 767 21275136 389 12 1732 389
-0.17274868 0.68890244 0.096944459 761 21469952 387 12 1699 387
-0.16474159 0.69290906 0.097118773 785 21664512 402 12 1740 402
-0.1568801 0.69779468 0.097380243 842 21860608 435 12 1692 435
-0.14912947 0.7035659 0.097728863 743 22055168 388 12 1636 388
-0.14106661 0.7082743 0.097990327 795 22250496 418 12 1667 418
-0.1327285 0.7119109 0.09816464 748 22445824 396 12 1713 396
-0.12449237 0.71643084 0.098426111 765 22640896 408 12 1716 408
-0.11600723 0.71987176 0.098600417 776 22837504 416 12 1681 416
-0.10774814 0.72518295 0.098949045 759 23033088 412 12 1668 412
-0.099509858 0.73138642 0.099384822 747 23228928 410 12 1694 410
-0.09125711 0.73848492 0.099907756 798 23422720 445 12 1640 445
-0.082625985 0.74350983 0.10025638 775 23618304 438 12 1646 438
-0.073885202 0.74843347 0.100605 748 23814400 427 12 1632 427
-0.065121159 0.75424653 0.10104078 775 24010240 447 12 1649 447
-0.056079496 0.75796944 0.10130225 775 24205312 452 12 1685 452
-0.047138657 0.76456654 0.10182519 807 24400640 478 12 1627 478
-0.038141489 0.77304751 0.10252243 802 24596992 484 12 1542 484
-0.028834058 0.77843499 0.10295821 771 24790528 472 12 1664 472
-0.01940012 0.78370976 0.10339399 753 24986880 467 12 1683 467
-0.0098768733 0.79185778 0.10409123 836 25183232 529 12 1595 529
-0.0001568384 0.79889274 0.10470133 751 25377280 484 12 1708 484
0.0097593823 0.80779952 0.10548572 793 25571840 521 12 1615 521
0.019770512 0.81160253 0.10583435 779 25768960 518 12 1601 518
0.029913383 0.81627631 0.10627013 784 25963776 528 12 1675 528
0.040518053 0.82778758 0.10731599 869 26159360 601 12 1660 601
0.051409662 0.83915961 0.10836186 910 26353920 648 12 1661 648
0.062586367 0.85038728 0.10940773 838 26547968 614 12 1660 614
0.073960491 0.86047268 0.11036645 828 26743296 623 12 1594 623
0.085493498 0.86941397 0.111238 861 26938112 662 12 1709 662
0.097256944 0.87820029 0.11210956 859 27132160 677 12 1637 677
0.10924874 0.88682735 0.11298112 907 27326976 731 12 1732 731
0.12039195 0.88739413 0.11315543 951 27518976 769 12 1647 769
0.13288353 0.896689 0.11411414 1192 27713536 989 12 1773 989
0.14419435 0.89695781 0.11428846 1469 27907072 1223 12 1794 1223
0.15587291 0.89904666 0.11463708 1448 28102912 1216 12 1786 1216
0.16579813 0.89119029 0.11411414 1737 28297728 1439 12 1830 1439
0.17847355 0.89788157 0.11489855 1536 28492800 1298 12 1844 1298
0.1900983 0.89854741 0.11516001 2148 28688896 1827 12 1866 1827
0.20023637 0.8922593 0.11481139 1504 28884992 1269 12 1873 1269
0.21070978 0.88779652 0.11463708 1599 29080832 1342 12 1810 1342
0.21722661 0.86775106 0.11306828 1149 29276928 926 12 1702 926
