# .PCD v0.7 - Point Cloud Data file format
VERSION 0.7
FIELDS x y z intensity t reflectivity ring noise range
SIZE 4 4 4 4 4 2 2 2 4
TYPE F F F F U U U U U
COUNT 1 1 1 1 1 1 1 1 1
WIDTH 818
HEIGHT 1
VIEWPOINT 0 0 0 1 0 0 0
POINTS 818
DATA ascii
-0 0 0 5 587264 0 12 2199 0
-0 0 0 10 782336 0 12 1822 0
-0 0 0 15 978176 0 12 1814 0
-0 0 0 14 1173760 0 12 1681 0
-0 0 0 7 1367296 0 12 1614 0
-0 0 0 12 1563392 0 12 1506 0
-0 0 0 24 1759488 0 12 1391 0
-0 0 0 23 1954048 0 12 1337 0
-1.1772085 0.13050218 0.1384306 54 2148096 77 12 1401 77
-1.0944477 0.13491605 0.13128382 170 2343936 209 12 1318 209
-1.043355 0.14161901 0.12692603 432 2537728 483 12 1326 483
-1.0178896 0.15089709 0.1248343 543 2732032 580 12 1308 580
-1.0061263 0.16179147 0.12396274 585 2926848 613 12 1299 613
-0.99326879 0.17224951 0.12300403 586 3120128 601 12 1335 601
-0.98030776 0.18241665 0.12204532 588 3314688 590 12 1301 590
-0.96822542 0.19248655 0.12117375 643 3509760 632 12 1404 632
-0.95507056 0.20208107 0.12021504 618 3705088 595 12 1428 595
-0.94279951 0.21160062 0.11934349 584 3899392 551 12 1384 551
-0.9314093 0.2210802 0.11855908 608 4094464 563 12 1378 563
-0.91992974 0.23031241 0.11777468 547 4289536 496 12 1467 496
-0.90836513 0.2392965 0.11699028 509 4483840 453 12 1394 453
-0.89479983 0.24749984 0.11603157 368 4680192 320 12 1352 320
-0.87925822 0.25485128 0.11489855 202 4875776 171 12 1298 171
-0.87987745 0.26677972 0.11524717 102 5071360 87 12 1242 87
-0.87558782 0.27725598 0.11516001 92 5266944 78 12 1276 78
-0.87590283 0.28923091 0.11550863 66 5463808 56 12 1283 56
-0.88830012 0.3054716 0.11699028 29 5659648 25 12 1214 25
-0 0 0 16 5855744 0 12 1306 0
-0.87773496 0.32613748 0.11672881 32 6052608 28 12 1253 28
-0.85786784 0.33078468 0.11524717 44 6247424 37 12 1251 37
-0.79825193 0.31907713 0.11001782 86 6443776 64 12 1322 64
-0.76666862 0.31740424 0.10740315 308 6639360 214 12 1297 214
-0.76729333 0.32875231 0.10783893 408 6835200 287 12 1351 287
-0.73861462 0.32723656 0.10548572 512 7031296 338 12 1287 338
-0.73182654 0.33503056 0.10522426 597 7226112 391 12 1363 391
-0.72045666 0.3405765 0.10452701 736 7422720 472 12 1368 472
-0.71264249 0.34764317 0.10417838 728 7616768 461 12 1395 461
-0.70565361 0.35501775 0.10391692 729 7811328 459 12 1401 459
-0.69505495 0.36043721 0.10330683 828 8007168 512 12 1370 512
-0.68530893 0.36612037 0.1027839 858 8200704 523 12 1437 523
-0.67814666 0.37306079 0.10252243 762 8393728 460 12 1443 460
-0.67005104 0.37938952 0.10217381 788 8586752 472 12 1361 472
-0.66276324 0.38607794 0.10191233 782 8779520 464 12 1394 464
-0.6545583 0.39213243 0.10156371 821 8975360 483 12 1331 483
-0.64630508 0.39804399 0.10121509 763 9170432 443 12 1388 443
-0.63716435 0.40327919 0.10077931 843 9366272 484 12 1443 484
-0.62882799 0.40889385 0.10043069 773 9561856 439 12 1413 439
-0.61962211 0.4138113 0.099994913 808 9759232 453 12 1437 453
-0.61203349 0.41969243 0.099733442 812 9955584 451 12 1460 451
-0 0 0 973 10151936 0 12 1937 0
-0.34727901 0.2506898 0.072279386 7965 10347264 1474 12 4739 1474
-0.36337608 0.26918039 0.074371122 10061 10543104 2075 12 6839 2075
-0.35053381 0.26637813 0.073325254 9676 10738432 1892 12 6883 1892
-0.35666063 0.27801701 0.074371122 10019 10934528 2073 12 5939 2073
-0 0 0 5980 11131648 0 12 2320 0
-0 0 0 4922 11325952 0 12 1991 0
-0 0 0 3123 11519488 0 12 1857 0
-0 0 0 2252 11713536 0 12 1829 0
-0.37027737 0.32708901 0.078031667 1565 11908096 385 12 1745 385
-0.40460858 0.36640731 0.082563765 953 12101888 287 12 1508 287
-0.44240281 0.41068155 0.087618798 603 12294400 221 12 1456 221
-0.46113259 0.43875459 0.090494938 541 12487936 221 12 1460 221
-0.47994921 0.46804166 0.093458228 718 12682496 326 12 1588 326
-0.48684537 0.48657921 0.095027037 1042 12877824 497 12 1704 497
-0.47388247 0.48538488 0.094155475 1193 13073664 554 12 1656 554
-0.47681764 0.5005455 0.0952885 2612 13270272 1259 12 1920 1259
-0.46860585 0.50416893 0.095027037 1469 13466624 703 12 1716 703
-0.44031343 0.48551688 0.092150897 6942 13662464 3007 12 2855 3007
-0.45807084 0.51775664 0.0952885 1902 13858304 917 12 1763 917
-0.42826563 0.49617648 0.092150897 4695 14055168 2034 12 1985 2034
-0.44522649 0.52884233 0.0952885 1534 14252800 740 12 1630 740
-0.43680796 0.53195542 0.095027037 1342 14448896 642 12 1658 642
-0.43522525 0.54349917 0.095724277 1089 14647040 533 12 1734 533
-0.42913559 0.54958469 0.095811434 1056 14844928 517 12 1617 517
-0.42055008 0.55243051 0.095549971 1023 15042304 497 12 1634 497
-0.40958679 0.55194747 0.09493988 1179 15238400 562 12 1594 562
-0.40219936 0.55612463 0.094852723 1078 15434752 512 12 1580 512
-0.39305103 0.55775982 0.094504103 1131 15631104 532 12 1625 532
-0.38617688 0.56254113 0.094504103 1156 15826944 542 12 1656 542
-0.37869132 0.56640929 0.094416946 1157 16024064 542 12 1589 542
-0.37062606 0.56934339 0.094242632 1222 16219136 570 12 1652 570
-0.36414418 0.57469046 0.094329789 1145 16413440 535 12 1595 535
-0.35654205 0.57826757 0.094242632 1116 16607488 520 12 1632 520
-0.34737137 0.5791809 0.093894012 1166 16803840 536 12 1530 536
-0.33923501 0.58167839 0.093719698 1146 16997376 524 12 1569 524
-0.33207139 0.58579755 0.093719698 1139 17191424 520 12 1617 520
-0.32581794 0.59157419 0.093894012 1123 17385216 517 12 1614 517
-0.31900322 0.59640664 0.093981169 1123 17579008 518 12 1606 518
-0.31257746 0.60204518 0.094155475 1031 17774080 478 12 1666 478
-0.3042706 0.60405576 0.093981169 1027 17969152 475 12 1534 475
-0.29814509 0.61043024 0.094242632 979 18163456 456 12 1518 456
-0.29318574 0.61944705 0.094765566 883 18359296 418 12 1533 418
-0.2855621 0.62299824 0.094765566 913 18553856 432 12 1502 432
-0.27829888 0.62736642 0.094852723 886 18748160 421 12 1531 421
-0.26979473 0.62890291 0.094678409 927 18944000 438 12 1509 438
-0.26281872 0.63400728 0.094852723 943 19142400 448 12 1572 448
-0.25649726 0.64088506 0.095201343 875 19337728 420 12 1593 420
-0.24968809 0.64677304 0.095462814 855 19531776 414 12 1584 414
-0.24207923 0.65072227 0.095549971 812 19727616 395 12 1529 395
-0.23508166 0.65645814 0.095811434 770 19922688 378 12 1528 378
-0.22765581 0.66117769 0.095985748 787 20119552 388 12 1508 388
-0.22014944 0.66581362 0.096160062 799 20314624 396 12 1560 396
-0.2122629 0.66941482 0.096247219 748 20509440 372 12 1481 372
-0.20432107 0.67292261 0.096334368 765 20705536 382 12 1539 382
-0.19660227 0.67729294 0.096508682 831 20900352 417 12 1564 417
-0.18907231 0.68253511 0.096770152 752 21095168 380 12 1578 380
-0.18169682 0.6886574 0.097118773 760 21291264 388 12 1531 388
-0.17395759 0.69373447 0.097380243 744 21486848 383 12 1575 383
-0.16589111 0.69775558 0.09755455 751 21681664 390 12 1455 390
-0.15753408 0.70071083 0.097641706 786 21877760 409 12 1522 409
-0.14954156 0.70551521 0.097903177 785 22072576 411 12 1492 411
-0.14145476 0.7102285 0.09816464 777 22267904 411 12 1437 411
-0.1332747 0.71484917 0.098426111 756 22463232 403 12 1540 403
-0.12500247 0.71937555 0.098687574 738 22657792 397 12 1460 397
-0.1167971 0.72478968 0.099036202 794 22854144 432 12 1486 432
-0.1084776 0.73011023 0.099384822 740 23049984 407 12 1450 407
-0.09977743 0.73336077 0.099559136 838 23246080 463 12 1446 463
-0.09113545 0.7374962 0.099820599 781 23440640 435 12 1496 435
-0.082625985 0.74350983 0.10025638 789 23636736 445 12 1531 445
-0.073885202 0.74843347 0.100605 748 23832832 427 12 1513 427
-0.065121159 0.75424653 0.10104078 775 24028928 448 12 1535 448
-0.0561525 0.75896293 0.1013894 731 24224256 427 12 1535 427
-0.047199462 0.76556087 0.10191233 825 24420608 490 12 1511 490
-0.038092889 0.77205253 0.10243528 780 24617472 470 12 1447 470
-0.028870443 0.77943057 0.10304536 715 24811520 439 12 1441 439
-0.01944845 0.78570157 0.1035683 764 25008640 476 12 1531 476
-0.0098768733 0.79185778 0.10409123 822 25205760 520 12 1466 520
-0.0001568384 0.79889274 0.10470133 799 25401088 515 12 1391 515
0.00977189 0.80879563 0.10557288 793 25596672 524 12 1452 524
0.019943623 0.81857371 0.10644443 830 25794048 561 12 1442 561
0.030319827 0.82722694 0.10722884 862 25988864 596 12 1450 596
0.041009683 0.83773738 0.10818755 836 26184704 594 12 1401 594
0.051839247 0.84611976 0.10897195 827 26379264 600 12 1461 600
0.062954202 0.85535461 0.10984351 897 26573568 665 12 1525 665
0.0743035 0.86444265 0.11071507 852 26767872 647 12 1451 647
0.08608105 0.87536216 0.11176094 886 26962688 691 12 1515 691
0.09813761 0.88612103 0.1128068 805 27156992 645 12 1531 645
0.10985987 0.89177072 0.1134169 866 27351808 705 12 1605 705
0.12106369 0.89232957 0.11359121 1002 27544832 820 12 1643 820
0.13200483 0.89077675 0.11359121 1151 27739904 942 12 1570 942
0.14514555 0.90285879 0.11481139 1432 27933696 1208 12 1568 1208
0.1560435 0.90002817 0.11472423 1515 28129792 1276 12 1627 1276
0.16671124 0.89608687 0.11454992 1694 28324608 1419 12 1665 1419
0.17827892 0.89690459 0.11481139 1558 28519424 1314 12 1660 1314
0.1900983 0.89854741 0.11516001 2098 28714240 1784 12 1712 1784
0.19979928 0.89031541 0.11463708 1472 28908800 1237 12 1708 1237
0.21047932 0.88682735 0.11454992 1529 29103872 1281 12 1699 1281
0.21868058 0.87354869 0.11359121 1139 29299456 931 12 1541 931
0.22633387 0.85924065 0.11254534 1015 29494272 809 12 1694 809
0.23393537 0.84583813 0.11158662 1006 29689856 782 12 1582 782
0.24152018 0.83333671 0.11071507 945 29886208 717 12 1557 717
0.24912326 0.82173121 0.10993066 967 30082560 719 12 1565 719
0.2567794 0.81101549 0.10923342 1029 30278656 752 12 1517 752
0.26170838 0.79267013 0.10783893 1010 30474496 711 12 1546 711
0.26784819 0.77903777 0.10688022 912 30669824 625 12 1507 625
0.27302167 0.76349992 0.10574719 875 30865152 581 12 1479 581
0.28132835 0.75729102 0.10548572 924 31060736 608 12 1558 608
0.28557727 0.74077088 0.10426554 832 31256576 529 12 1545 529
0.29131466 0.72888684 0.10348114 845 31452160 525 12 1588 525
0.29756686 0.71881527 0.10287105 803 31649024 490 12 1606 490
0.3024379 0.70595449 0.10199949 819 31844864 487 12 1545 487
0.30663475 0.69217318 0.10104078 789 32040960 457 12 1485 457
0.31012446 0.67749113 0.099994913 753 32236800 422 12 1503 422
0.31585786 0.66823184 0.099471979 823 32433152 453 12 1542 453
0.3200995 0.65624928 0.098687574 759 32628224 408 12 1574 408
0.32543966 0.64693356 0.09816464 748 32823296 396 12 1481 396
0.32371426 0.62432444 0.096334368 486 33017856 242 12 1421 242
0.35672331 0.66774029 0.10104078 95 33214208 55 12 1238 55
0.38026974 0.69123566 0.10382976 86 33409024 54 12 1183 54
0.42016482 0.74198186 0.10940773 33 33604352 24 12 1187 24
0.44128323 0.75742292 0.11149947 32 33799936 24 12 1173 24
0.45925534 0.76647413 0.11298112 34 33993728 27 12 1252 27
0.47019508 0.76332456 0.11324258 67 34188032 54 12 1277 54
0.49712247 0.78526616 0.11611872 42 34383616 36 12 1259 36
0.51052588 0.78495073 0.11672881 28 34578176 24 12 1213 24
0.53562331 0.80181485 0.11916918 40 34775552 37 12 1258 37
0.55669874 0.81160736 0.12091229 51 34969856 49 12 1262 49
0.57292879 0.81367213 0.121871 69 35165440 68 12 1283 68
0.58345449 0.80738735 0.12195816 45 35362048 45 12 1245 45
0.56363547 0.76016754 0.11760037 137 35558912 123 12 1227 123
0.57050771 0.75002307 0.11725175 117 35756800 104 12 1214 104
0.59622276 0.76416522 0.11960495 197 35952384 186 12 1250 186
0.63918126 0.79878098 0.12431137 306 36150272 324 12 1313 324
0.66663694 0.81243402 0.12675172 372 36348160 415 12 1296 415
0.68553895 0.81486118 0.1279719 335 36544000 383 12 1268 383
0.71110851 0.82448667 0.13006364 329 36739840 393 12 1260 393
0.73107433 0.82688963 0.13137098 390 36934912 479 12 1262 479
0.7672658 0.8466357 0.13477005 348 37130240 458 12 1400 458
0.80676091 0.86853242 0.13851775 274 37324032 388 12 1253 388
0.82216823 0.86361587 0.13912784 297 37519616 427 12 1356 427
0.8354879 0.85631281 0.13947646 323 37713920 468 12 1305 468
0.85861635 0.85867155 0.14104527 236 37907200 352 12 1324 352
0.9018963 0.88006407 0.14505443 129 38102272 206 12 1223 206
0.90757632 0.86412317 0.14444435 17 38296320 27 12 1213 27
0 0 0 9 38490112 0 12 1191 0
0 0 0 8 38685952 0 12 1236 0
0 0 0 9 38881536 0 12 1231 0
2.8698711 2.4746549 0.36634287 10 39076608 145 12 1255 145
2.8458898 2.393728 0.36015481 46 39271168 642 12 1227 642
2.8149707 2.3093469 0.35335666 356 39467008 4759 12 1258 4759
2.8360965 2.2690287 0.35257226 363 39663360 4840 12 1302 4840
2.8637276 2.2340546 0.35257226 326 39858944 4347 12 1342 4347
2.8814116 2.1915083 0.35152638 353 40054528 4676 12 1308 4676
2.9056866 2.1542044 0.35126492 376 40249344 4970 12 1376 4970
2.9415936 2.1253848 0.35231078 348 40444928 4631 12 1308 4631
2.9544199 2.0799527 0.3509163 405 40641536 5340 12 1359 5340
2.9789 2.0429776 0.35082915 395 40836864 5195 12 1278 5195
3.0095453 2.0101407 0.35143924 364 41031936 4817 12 1336 4817
3.0298104 1.9703424 0.35100344 367 41227776 4833 12 1283 4833
3.0537612 1.9330136 0.35100344 389 41423872 5135 12 1290 5135
3.0797973 1.8969607 0.35126492 341 41619200 4507 12 1362 4507
3.0968616 1.8554407 0.35065484 355 41814784 4674 12 1351 4674
3.1228409 1.8193033 0.35100344 383 42011136 5056 12 1288 5056
3.1449313 1.7808442 0.35100344 387 42207232 5109 12 1294 5109
3.1717856 1.7449976 0.35152638 405 42403328 5359 12 1357 5359
3.1964753 1.7078209 0.35187501 353 42599168 4686 12 1313 4686
3.2242672 1.672135 0.35257226 326 42794240 4346 12 1377 4346
3.2053864 1.6127458 0.34873739 256 42989824 3334 12 1315 3334
3.2392619 1.5802765 0.3501319 185 43185152 2423 12 1257 2423
3.2791259 1.5501972 0.35213646 238 43379200 3157 12 1255 3157
3.2969964 1.509426 0.35204932 263 43574016 3485 12 1268 3485
3.2852132 1.4555396 0.34917319 194 43769344 2525 12 1268 2525
3.2909231 1.4100163 0.34804016 203 43963648 2634 12 1317 2634
3.3135011 1.3718113 0.3485631 181 44157440 2347 12 1256 2347
3.3587635 1.3425051 0.35126492 188 44352512 2479 12 1276 2479
3.397294 1.3097851 0.35335666 211 44547072 2819 12 1275 2819
3.4607387 1.2856847 0.35780159 236 44740352 3242 12 1262 3242
3.4565563 1.2360771 0.35597134 245 44935168 3328 12 1261 3328
3.4799435 1.196481 0.35675573 242 45130240 3303 12 1249 3303
3.4943643 1.1536866 0.35675573 121 45322752 1664 12 1324 1664
6.6842685 2.1158826 0.64820451 212 45519616 10551 12 1292 10551
6.7755136 2.0536318 0.65421826 155 45713664 7838 12 1209 7838
3.6665063 1.0625391 0.36878324 127 45908224 1876 12 1365 1876
3.6495035 1.0092372 0.36608139 149 46103040 2154 12 1254 2154
3.4130645 0.89894152 0.34359521 78 46297856 981 12 1209 981
3.4364021 0.86013347 0.34472823 57 46494464 721 12 1260 721
3.4631767 0.82180709 0.34620988 48 46690304 614 12 1241 614
3.4817493 0.78120863 0.34699428 46 46886400 591 12 1253 591
3.512516 0.74295646 0.3489117 38 47081984 494 12 1255 494
3.5399337 0.70348388 0.35056767 47 47277568 618 12 1236 618
3.5590737 0.66199321 0.35152638 49 47472896 649 12 1203 649
3.5904872 0.62234885 0.35361812 44 47668992 601 12 1311 601
3.6263781 0.58282244 0.35614565 51 47864576 697 12 1165 697
3.654937 0.54148692 0.35806307 44 48060672 619 12 1285 619
3.7027678 0.5022136 0.3617236 45 48256512 635 12 1220 635
3.7343593 0.45990038 0.36398965 50 48453376 713 12 1280 713
3.7486331 0.41502512 0.36477405 34 48648960 488 12 1251 488
3.7633581 0.369966 0.36564562 57 48845056 823 12 1222 823
3.7894509 0.32563013 0.36756304 37 49040896 541 12 1217 541
3.8030965 0.27983326 0.36843461 40 49236992 589 12 1203 589
2.499685 0.15324405 0.25391194 173 49432064 1094 12 1239 1094
2.4964023 0.12231454 0.25347617 249 49627136 1574 12 1300 1574
2.5026929 0.091852553 0.25391194 57 49822208 360 12 1256 360
2.4896891 0.06079543 0.25269178 58 50018048 363 12 1213 363
2.4603641 0.029880268 0.2500771 196 50213120 1196 12 1279 1196
2.4665227 -0.00031612813 0.25060004 52 50409216 319 12 1204 319
2.449399 -0.030371506 0.24911839 77 50605056 467 12 1184 467
2.4169734 -0.059635743 0.2463294 267 50799616 1578 12 1330 1578
2.4170551 -0.089328185 0.24641655 572 50993408 3378 12 1417 3378
2.4078171 -0.11858914 0.24571931 562 51188992 3298 12 1331 3298
2.388283 -0.14702319 0.2441505 474 51383552 2741 12 1349 2741
2.3793447 -0.17580505 0.24354042 275 51578368 1578 12 1283 1578
2.3650982 -0.203961 0.24249455 552 51773696 3142 12 1303 3142
2.3564689 -0.23238149 0.24197161 612 51968768 3465 12 1373 3465
2.3415587 -0.25996047 0.24092574 86 52164864 481 12 1254 481
2.3332491 -0.2880643 0.24048997 76 52360960 423 12 1255 423
2.3246028 -0.31600344 0.24005419 83 52555264 460 12 1254 460
2.2949302 -0.34069836 0.23778814 445 52751104 2415 12 1275 2415
2.2905767 -0.36883503 0.23778814 677 52944640 3679 12 1376 3679
2.2662485 -0.39350435 0.23604503 442 53139712 2363 12 1289 2363
2.2348073 -0.4163543 0.23369183 109 53334784 568 12 1220 568
2.2373457 -0.44530448 0.23438907 677 53528832 3557 12 1370 3557
2.2278147 -0.47190022 0.23404044 764 53723648 3994 12 1257 3994
2.2179682 -0.49832922 0.23369183 720 53918976 3752 12 1259 3752
2.1961792 -0.52182233 0.23229733 423 54113536 2177 12 1297 2177
2.1896102 -0.54873353 0.23229733 102 54306560 528 12 1294 528
2.1807852 -0.57505375 0.23212302 114 54501888 585 12 1223 585
2.1706839 -0.60097414 0.23186155 119 54697472 608 12 1261 608
2.1478386 -0.62312281 0.23046707 206 54892800 1038 12 1270 1038
2.1333575 -0.64740705 0.22985697 135 55088896 676 12 1245 676
2.1176555 -0.67112887 0.22915973 158 55284736 786 12 1256 786
2.0979104 -0.69331211 0.22811386 243 55479808 1200 12 1335 1200
2.1033731 -0.72386962 0.22942118 849 55675136 4238 12 1317 4238
2.0924561 -0.74895495 0.22924688 810 55870976 4038 12 1349 4038
2.0821741 -0.77422887 0.22915973 845 56067072 4210 12 1332 4210
2.0669401 -0.79756933 0.22863679 632 56262912 3133 12 1293 3133
2.0560722 -0.82250363 0.22854963 361 56460032 1785 12 1237 1785
2.0504253 -0.84958029 0.22898541 775 56655104 3853 12 1390 3853
2.0389297 -0.87428546 0.22889826 870 56851712 4319 12 1413 4319
2.0189412 -0.89520085 0.2280267 546 57048576 2689 12 1324 2689
2.0059927 -0.91907877 0.22785239 523 57243648 2572 12 1341 2572
1.9954635 -0.94405234 0.22793955 612 57440000 3011 12 1298 3011
1.982833 -0.96803147 0.22785239 602 57635840 2958 12 1291 2958
1.9805912 -0.9972207 0.2288111 799 57831936 3965 12 1334 3965
4.9105949 -2.5491257 0.51886541 807 58027264 24920 12 1368 24920
4.8596182 -2.5988574 0.51694798 1270 58223360 38884 12 1538 38884
4.7880931 -2.6366699 0.513026 1121 58420736 33770 12 1498 33770
4.7259111 -2.6785254 0.51006269 1210 58616064 36008 12 1427 36008
4.6754746 -2.7262807 0.50831956 828 58811392 24467 12 1384 24467
4.6049314 -2.7614181 0.50457186 938 59008000 27275 12 1455 27275
4.5376267 -2.7973292 0.50117278 1156 59202816 33133 12 1344 33133
4.4718227 -2.8330739 0.49794802 1445 59398400 40818 12 1548 40818
4.4100037 -2.8703449 0.49515906 1468 59591936 40971 12 1654 40971
4.3487754 -2.9070818 0.49245721 1781 59786496 49111 12 1711 49111
4.2774582 -2.9359853 0.48870954 2024 59981056 54917 12 1549 54917
4.2321496 -2.9819429 0.4877508 2124 60175616 57399 12 1529 57399
4.1742501 -3.0184746 0.48548475 2299 60369152 61507 12 1436 61507
4.1168952 -3.0546303 0.48330587 2251 60565760 59649 12 1428 59649
4.0505652 -3.0831974 0.48016825 1988 60761344 51929 12 1469 51929
3.9935803 -3.1179571 0.47807652 1461 60954880 37810 12 1464 37810
0 -0 0 273 61149696 0 12 1590 0
1.3182515 -1.0819907 0.18401305 544 61344768 1597 12 1392 1597
1.3025883 -1.0961615 0.18375158 637 61540096 1864 12 1362 1864
1.2897928 -1.1127146 0.18383874 767 61732864 2246 12 1400 2246
1.276787 -1.1291187 0.1839259 808 61927680 2368 12 1349 2368
1.261359 -1.1433634 0.18375158 903 62122496 2641 12 1477 2641
1.2443146 -1.1560432 0.18340296 1184 62318336 3447 12 1454 3447
0 -0 0 1443 62513152 0 12 1429 0
1.2184203 -1.1890157 0.18375158 1580 62710016 4619 12 1488 4619
1.2037375 -1.203878 0.18375158 1484 62904320 4339 12 1493 4339
1.1805272 -1.2100006 0.18270572 1285 63100672 3704 12 1516 3704
1.1655897 -1.2243965 0.18270572 1249 63296768 3601 12 1534 3601
1.1511545 -1.2393379 0.18279287 1021 63492864 2947 12 1366 2947
1.1412096 -1.2592776 0.18349011 876 63688960 2553 12 1450 2553
1.1269898 -1.2746801 0.18366443 817 63886336 2385 12 1442 2385
1.1132141 -1.2906775 0.1839259 746 64084224 2188 12 1386 2188
1.1004975 -1.3080534 0.18436167 648 64281856 1912 12 1291 1912
1.0906804 -1.3291622 0.18523324 476 64478208 1420 12 1350 1420
1.075532 -1.3440024 0.18540753 357 64675584 1066 12 1277 1066
1.0614086 -1.3602417 0.18575616 309 64872448 930 12 1297 930
1.0482544 -1.3779222 0.1862791 262 65069312 795 12 1305 795
1.0342323 -1.3946837 0.18671487 225 65265152 686 12 1286 686
1.0176227 -1.4080778 0.18680203 216 65462016 660 12 1306 660
1.001987 -1.4229035 0.1870635 205 65657856 625 12 1273 625
0.99121052 -1.4449517 0.18810937 148 65852928 461 12 1288 461
0.97506374 -1.459492 0.18837084 163 66048768 509 12 1287 509
0.96033818 -1.4763588 0.18889377 114 66245376 356 12 1263 356
0.94214869 -1.4880323 0.18889377 130 66441728 409 12 1303 409
0.92381734 -1.4994819 0.18889377 70 66636800 219 12 1165 219
0.90483487 -1.5098511 0.18880661 89 66832128 278 12 1241 278
0.87921929 -1.5087895 0.18758643 149 67027968 458 12 1261 458
0.85769325 -1.5142637 0.1870635 183 67224576 559 12 1211 559
0.83760601 -1.5220563 0.18680203 219 67419904 667 12 1221 667
0.81886494 -1.5322205 0.18680203 214 67614464 651 12 1202 651
0.79449821 -1.5315411 0.18575616 126 67809280 379 12 1194 379
0.34545422 -0.68593138 0.10199949 42 68004608 25 12 1237 25
0.33613738 -0.68832821 0.10182519 43 68199680 25 12 1131 25
0.32723957 -0.6915006 0.10173803 32 68395776 18 12 1218 18
0.31789997 -0.69365263 0.10156371 28 68589568 16 12 1244 16
0.30936384 -0.69750154 0.10156371 37 68784896 21 12 1252 21
0.29921222 -0.69758248 0.10121509 59 68979968 34 12 1271 34
0.30129632 -0.72697496 0.10365545 223 69175552 139 12 1296 139
0.29013467 -0.72506714 0.10313252 541 69372416 333 12 1359 333
0.2787073 -0.7220661 0.10252243 683 69569024 413 12 1471 413
0.2701723 -0.7263658 0.10260958 681 69763840 412 12 1475 412
0.26123831 -0.72962654 0.10260958 675 69958400 409 12 1561 409
0.25258881 -0.73371947 0.10269674 689 70153216 419 12 1490 419
0.24419037 -0.73865587 0.10287105 762 70349312 465 12 1499 465
0.23510754 -0.74159688 0.10287105 756 70543872 462 12 1429 462
0.22570039 -0.74347275 0.1027839 699 70739712 426 12 1335 426
0.21545109 -0.74235904 0.10243528 781 70935296 471 12 1338 471
0.20526327 -0.74110633 0.10208665 768 71130624 458 12 1357 458
0.19539243 -0.74067932 0.10182519 782 71325696 464 12 1330 464
0.18628845 -0.74302131 0.10182519 830 71521792 491 12 1352 491
0.1771564 -0.74525142 0.10182519 863 71715328 510 12 1438 510
0.16799769 -0.74736929 0.10182519 808 71910400 478 12 1405 478
0.15881367 -0.74937463 0.10182519 765 72104704 453 12 1375 453
0.15135236 -0.76006103 0.10260958 599 72297472 363 12 1365 363
0.14219591 -0.76284057 0.10269674 580 72492288 353 12 1420 353
0.13316405 -0.76649123 0.10287105 705 72687360 431 12 1464 431
0.12280015 -0.76216608 0.10234812 824 72882432 496 12 1376 496
0.11343795 -0.76361567 0.10234812 878 73076992 528 12 1358 528
0.10405867 -0.76495022 0.10234812 866 73273344 521 12 1396 521
0.095028713 -0.76913577 0.10260958 766 73468672 465 12 1358 465
0.085911639 -0.77321452 0.10287105 754 73665280 460 12 1483 460
0.076416641 -0.77421051 0.10287105 749 73861120 458 12 1399 458
0.067165703 -0.77806765 0.10313252 688 74056448 423 12 1456 423
0.057393547 -0.77585274 0.10287105 745 74252800 456 12 1325 456
0.047685903 -0.77351558 0.10260958 801 74450432 485 12 1414 485
0.038335882 -0.77702755 0.10287105 738 74646016 450 12 1323 450
0.029015983 -0.78341264 0.10339399 642 74844160 398 12 1346 398
0.019472616 -0.78669745 0.10365545 554 75040768 346 12 1366 346
0.0098171616 -0.78687716 0.10365545 461 75236096 287 12 1268 287
0.00016559704 -0.76801068 0.10199949 79 75432960 47 12 1306 47
-0.0091965515 -0.76297432 0.10156371 55 75628800 32 12 1305 32
-0.018558728 -0.76280403 0.10156371 32 75823360 18 12 1249 18
-0.028028958 -0.76550537 0.10182519 41 76019200 24 12 1187 24
-0.037568264 -0.7680887 0.10208665 24 76215040 14 12 1208 14
-0.047175173 -0.77055275 0.10234812 28 76412160 16 12 1212 16
-0.056848187 -0.77289623 0.10260958 42 76608768 25 12 1220 25
-0 -0 0 8 76804352 0 12 1309 0
-1.6724714 -16.935556 1.523684 17 76997888 5217 12 1337 5217
-1.8896379 -16.998905 1.5311793 31 77192448 9172 12 1234 9172
-2.1145988 -17.107906 1.5429454 42 77387008 12607 12 1240 12607
-2.3508465 -17.275127 1.5601151 31 77583104 9758 12 1345 9758
-2.5866799 -17.406578 1.5744087 31 77776640 9714 12 1230 9714
-2.8295777 -17.556456 1.5906196 31 77971456 9899 12 1256 9899
-3.0785861 -17.714745 1.6078764 46 78166016 15041 12 1212 15041
-3.3406663 -17.916542 1.6293167 19 78360832 6389 12 1247 6389
-3.5972571 -18.059828 1.6458763 27 78555648 9252 12 1251 9252
-3.8617873 -18.218002 1.6640918 20 78750464 7016 12 1252 7016
-4.1276755 -18.358765 1.6810873 23 78946560 8257 12 1224 8257
-4.3948278 -18.484089 1.6970367 26 79142912 9459 12 1283 9459
-4.7201958 -18.823004 1.7325963 28 79338752 10637 12 1271 10637
-5.0392785 -19.098866 1.7629265 64 79534336 25213 12 1230 25213
-5.330987 -19.243916 1.7818393 56 79729664 22894 12 1294 22894
-5.6603332 -19.499453 1.8112108 63 79925760 26198 12 1258 26198
-5.9715581 -19.666828 1.8329997 47 80121600 20416 12 1301 20416
-6.3064017 -19.88834 1.8601923 46 80317440 20591 12 1309 20591
-0.37617719 -1.1388425 0.13973793 328 80512768 476 12 1355 476
-0.38558346 -1.1209537 0.13851775 483 80707584 686 12 1300 686
-0.39595151 -1.1067588 0.1376462 519 80903168 725 12 1314 725
-0.40394562 -1.0868778 0.1362517 604 81099264 820 12 1312 820
-0.41294739 -1.0706868 0.13520584 622 81293824 827 12 1368 827
-0.42383426 -1.0599896 0.13468289 606 81488640 797 12 1349 797
-0.4326137 -1.0445858 0.13372418 658 81684480 848 12 1386 848
-0.44107953 -1.0291277 0.13276547 638 81880832 808 12 1351 808
-0.44923174 -1.0136207 0.13180676 684 82075648 849 12 1327 849
-0.45831579 -1.000787 0.13110951 692 82268928 846 12 1315 846
-0.46672684 -0.98698354 0.13032511 662 82463744 797 12 1318 797
-0.47618029 -0.97581095 0.12980218 703 82661120 837 12 1380 837
-0.48632652 -0.96633524 0.12945355 571 82857216 675 12 1320 675
-0.52201825 -1.0062693 0.13398565 381 83052032 493 12 1244 493
-0.53808624 -1.0068151 0.13468289 357 83248640 470 12 1351 470
-0.55472624 -1.0079895 0.13546731 352 83444224 471 12 1285 471
-0 -0 0 290 83639296 0 12 2605 0
-0 -0 0 120 83834368 0 12 6380 0
-0 -0 0 19 84030976 0 12 9333 0
-0 -0 0 0 84225280 0 12 10240 0
-0 -0 0 8 84420864 0 12 8513 0
-0 -0 0 12 84616960 0 12 5625 0
-0 -0 0 4 84813056 0 12 4424 0
-0 -0 0 0 85009408 0 12 5636 0
-0 -0 0 0 85203968 0 12 6174 0
-0 -0 0 0 85400320 0 12 5482 0
-0 -0 0 0 85596672 0 12 4428 0
-0 -0 0 1 85794816 0 12 4636 0
-0 -0 0 1 85990144 0 12 6250 0
-0 -0 0 0 86187264 0 12 7857 0
-0 -0 0 0 86382336 0 12 9475 0
-0 -0 0 0 86580224 0 12 8361 0
-0 -0 0 0 86775040 0 12 7642 0
-0 -0 0 0 86971392 0 12 7542 0
-0 -0 0 0 87165952 0 12 7405 0
-0 -0 0 0 87360256 0 12 7609 0
-0 -0 0 0 87554048 0 12 9419 0
-0 -0 0 0 87749376 0 12 10633 0
-0 -0 0 0 87943424 0 12 10444 0
-0 -0 0 0 88138240 0 12 8939 0
-0 -0 0 0 88331264 0 12 9393 0
-0 -0 0 0 88524800 0 12 10022 0
-0 -0 0 0 88720128 0 12 10255 0
-0 -0 0 0 88915200 0 12 10089 0
-0 -0 0 1 89109248 0 12 9740 0
-0 -0 0 0 89303296 0 12 9833 0
-0 -0 0 0 89500928 0 12 9633 0
-0 -0 0 0 89696256 0 12 9090 0
-0 -0 0 0 89891840 0 12 9010 0
-0 -0 0 0 90087424 0 12 7614 0
-0 -0 0 0 90282752 0 12 6972 0
-0 -0 0 0 90479872 0 12 6218 0
-0 -0 0 0 90675968 0 12 5473 0
-0 -0 0 0 90872832 0 12 5629 0
-0 -0 0 1 91068928 0 12 5253 0
-0 -0 0 0 91264000 0 12 4930 0
-0 -0 0 0 91458560 0 12 4906 0
-0 -0 0 2 91654912 0 12 4498 0
-0 -0 0 1 91849984 0 12 4026 0
-0 -0 0 2 92044544 0 12 3767 0
-0 -0 0 0 92240128 0 12 4152 0
-0 -0 0 1 92434944 0 12 4126 0
-0 -0 0 2 92629760 0 12 4147 0
-0 -0 0 5 92825088 0 12 2925 0
-0 -0 0 6 93020672 0 12 2362 0
-0 -0 0 5 93216768 0 12 1961 0
-0 -0 0 5 93412352 0 12 1671 0
-0 -0 0 6 93607936 0 12 1899 0
-0 -0 0 7 93802496 0 12 1406 0
-0 -0 0 6 93998336 0 12 1394 0
-0 -0 0 7 94193152 0 12 1606 0
-0 -0 0 10 94388992 0 12 1264 0
-0 -0 0 10 94584064 0 12 1244 0
-0.85897541 -0.31942186 0.1149857 27 94779904 22 12 1247 22
-0.88252968 -0.31589904 0.11681597 36 94975744 32 12 1215 32
-0.8825714 -0.30375004 0.11646735 12 95171072 10 12 1224 10
-0.89474648 -0.29570663 0.11725175 25 95367168 22 12 1276 22
-0.87171447 -0.276288 0.11481139 81 95563008 68 12 1210 68
-0.88171297 -0.26759228 0.11542148 299 95758592 256 12 1315 256
-0.89067149 -0.25841531 0.11594442 366 95954432 318 12 1339 318
-0.89953667 -0.24905849 0.11646735 378 96148992 333 12 1347 333
-0.90445203 -0.23850828 0.11664166 436 96343296 385 12 1408 385
-0.90924358 -0.22787486 0.11681597 415 96537600 368 12 1448 368
-0.91487944 -0.2173896 0.11707744 420 96732672 375 12 1443 375
-0.92039442 -0.20680022 0.1173389 413 96926720 371 12 1403 371
-0.9277361 -0.19652024 0.11777468 377 97120768 342 12 1345 342
-0.93496341 -0.18609104 0.11821046 381 97314816 350 12 1367 350
-0.94599134 -0.17624219 0.11899486 344 97508352 322 12 1324 322
-0.95691711 -0.16615044 0.11977927 317 97702656 302 12 1297 302
-0.96871984 -0.15597484 0.12065082 262 97897472 255 12 1391 255
-0.96169186 -0.14276236 0.11986642 192 98092544 184 12 1320 184
-0.9752174 -0.13255565 0.12091229 85 98286336 83 12 1236 83
-0 -0 0 26 98481152 0 12 1284 0
-0 -0 0 7 98676736 0 12 1416 0
-0 -0 0 6 98872320 0 12 1461 0
-0 -0 0 7 99068672 0 12 1603 0
-0 -0 0 5 99264000 0 12 1866 0
-0 -0 0 6 99459840 0 12 2018 0
-0 -0 0 5 99655424 0 12 2166 0
-0 -0 0 6 99852800 0 12 1892 0
-0 -0 0 6 0 0 13 1520 0
-0 -0 0 0 196096 0 13 2165 0
-0 0 0 2 393216 0 13 2309 0
-0 0 0 4 587264 0 13 1917 0
-0 0 0 5 782336 0 13 1404 0
-0 0 0 37 978176 0 13 1281 0
-0 0 0 16 1173760 0 13 1234 0
-0 0 0 10 1367296 0 13 1146 0
-0 0 0 14 1563392 0 13 1028 0
-0 0 0 19 1759488 0 13 915 0
-0 0 0 29 1954048 0 13 867 0
-1.1407176 0.12644494 0.10739663 69 2148096 92 13 884 92
-1.0816319 0.13333167 0.10375478 269 2343936 320 13 835 320
-1.0344244 0.14040352 0.10086641 515 2537728 564 13 824 564
-1.0247262 0.15191317 0.10036409 591 2732032 638 13 804 638
-1.0129316 0.16288845 0.099736184 594 2926848 629 13 874 629
-0.99414062 0.17240106 0.098668747 631 3120128 646 13 843 646
-0.9811579 0.18257518 0.097978055 612 3314688 613 13 874 613
-0.96611923 0.19206697 0.097161777 625 3509760 609 13 834 609
-0.95197356 0.20142452 0.096408293 657 3705088 626 13 894 626
-0.94066668 0.21112104 0.095843174 603 3899392 564 13 904 564
-0.93023741 0.22080155 0.095340848 586 4094464 539 13 924 539
-0.91971344 0.23025815 0.09483853 588 4289536 531 13 926 531
-0.90813357 0.23923539 0.094273411 516 4483840 458 13 878 458
-0.88204622 0.24396655 0.092766441 342 4680192 287 13 823 287
-0.87227678 0.25282454 0.092326909 304 4875776 252 13 800 252
-0.87961322 0.26669949 0.0930176 145 5071360 123 13 811 123
-0.87817687 0.27807698 0.09314318 95 5266944 81 13 738 81
-0.87280315 0.28820595 0.0930176 50 5463808 42 13 745 42
-0.84372216 0.29012161 0.091322258 18 5659648 14 13 718 14
-0.84855473 0.30348197 0.09188737 21 5855744 17 13 781 17
-0.8391543 0.31178421 0.091510631 25 6052608 20 13 724 20
-0.82781667 0.31918287 0.091008306 39 6247424 31 13 755 31
-0.78214186 0.31262928 0.088182732 89 6443776 63 13 774 63
-0.75335389 0.3118847 0.08648739 277 6639360 185 13 813 185
-0.74671835 0.31992561 0.086299017 379 6835200 251 13 826 251
-0.73635006 0.32623199 0.085859485 462 7031296 301 13 819 301
-0.74136382 0.33940223 0.08648739 605 7226112 404 13 814 404
-0.72270966 0.34164289 0.085482739 710 7422720 455 13 827 455
-0.71487564 0.3487339 0.08523158 747 7616768 475 13 873 475
-0.70341164 0.35388845 0.084729254 800 7811328 499 13 870 499
-0.6954729 0.36065421 0.084478088 839 8007168 517 13 828 517
-0.68659449 0.366808 0.084164135 833 8200704 507 13 851 507
-0.67679626 0.37231708 0.083787397 861 8393728 516 13 907 516
-0.66609877 0.37714916 0.083347864 793 8586752 467 13 859 467
-0.6571098 0.38278088 0.083033912 872 8779520 507 13 928 507
-0.64808357 0.38824913 0.082719959 883 8975360 507 13 897 507
-0.6407218 0.39460149 0.082531586 856 9170432 488 13 899 488
-0.63245904 0.4002977 0.08228042 800 9366272 451 13 910 451
-0.62498987 0.40639535 0.082092054 836 9561856 468 13 954 468
-0.61746675 0.4123702 0.081903681 805 9759232 447 13 949 447
-0.61153698 0.41935158 0.081840888 884 9955584 489 13 947 489
-0 0 0 1061 10151936 0 13 1395 0
-0.34874949 0.2517533 0.062250245 8244 10347264 1535 13 4160 1535
-0.36086145 0.26731431 0.063443266 9846 10543104 2002 13 6195 2002
-0.35517162 0.26990888 0.063254893 9886 10738432 1977 13 6235 1977
-0.35183269 0.27424705 0.063254893 9080 10934528 1822 13 5427 1822
-0 0 0 6096 11131648 0 13 2007 0
-0 0 0 5253 11325952 0 13 1358 0
-0 0 0 3261 11519488 0 13 1372 0
-0 0 0 2497 11713536 0 13 1362 0
-0.37546444 0.33167824 0.066708371 1630 11908096 412 13 1311 412
-0.38984844 0.35302186 0.068278134 1063 12101888 295 13 1060 295
-0.44616127 0.41417494 0.073489748 629 12294400 234 13 960 234
-0.46850479 0.44577748 0.075875789 548 12487936 231 13 971 231
-0.47371092 0.4619512 0.076817647 702 12682496 309 13 1051 309
-0.48423317 0.48396555 0.07826183 1109 12877824 522 13 1091 522
-0.48034811 0.49201494 0.078450203 1159 13073664 551 13 1130 551
-0.4701463 0.49353442 0.078073457 2880 13270272 1345 13 1394 1345
-0.47152403 0.50731206 0.078764156 1596 13466624 770 13 1243 770
-0.43377191 0.4782953 0.075813003 6404 13662464 2685 13 2745 2685
-0.45166209 0.51050478 0.078073457 2059 13858304 961 13 1201 961
-0.42972332 0.49786732 0.076566488 5115 14055168 2224 13 1540 2224
-0.44670579 0.53060144 0.078826942 1652 14252800 799 13 1182 799
-0.44459131 0.5414449 0.079266481 1437 14448896 708 13 1100 708
-0.43230283 0.53984559 0.078701362 1174 14647040 564 13 1174 564
-0.42441794 0.54353601 0.078575782 1142 14844928 546 13 1064 546
-0.41711187 0.5479089 0.078512989 1197 15042304 570 13 1099 570
-0.40797958 0.54977912 0.07826183 1259 15238400 593 13 1125 593
-0.40003341 0.55312622 0.07813625 1195 15434752 560 13 1101 560
-0.39149225 0.55554515 0.077947877 1304 15631104 606 13 1153 606
-0.38464537 0.56030756 0.077947877 1366 15826944 634 13 1138 634
-0.37774059 0.56498557 0.077947877 1307 16024064 606 13 1137 606
-0.36969087 0.56790501 0.077822298 1316 16219136 608 13 1144 608
-0.36055917 0.56902558 0.077571131 1383 16413440 632 13 1020 632
-0.35511914 0.57595682 0.077759504 1318 16607488 606 13 1087 606
-0.34699884 0.57855892 0.077633925 1385 16803840 634 13 1139 634
-0.3398729 0.58277357 0.077633925 1391 16997376 637 13 1081 637
-0.33171242 0.58516347 0.077508345 1358 17191424 618 13 1104 618
-0.32498756 0.59006447 0.077571131 1248 17385216 570 13 1083 570
-0.31678167 0.59224755 0.077445552 1261 17579008 572 13 1110 572
-0.30949003 0.59609032 0.077445552 1186 17774080 538 13 1065 538
-0.30215177 0.59984338 0.077445552 1171 17969152 531 13 1013 531
-0.2969555 0.60799122 0.077759504 1082 18163456 499 13 1048 499
-0.29160443 0.61610115 0.078073457 1036 18359296 484 13 1024 484
-0.2844373 0.62054068 0.07813625 981 18553856 460 13 1041 460
-0.2768009 0.62398446 0.07813625 1012 18748160 474 13 1093 474
-0.27030167 0.63008648 0.078324623 940 18944000 444 13 1015 444
-0.26293087 0.63427818 0.078387409 944 19142400 448 13 1014 448
-0.25660878 0.64116412 0.078638576 914 19337728 438 13 1010 438
-0.25015706 0.64798987 0.078889735 891 19531776 432 13 1016 432
-0.24253386 0.65194643 0.078952529 839 19727616 408 13 992 408
-0.23518714 0.65675318 0.079078108 825 19922688 403 13 1007 403
-0.22711006 0.65958983 0.079078108 850 20119552 416 13 1028 416
-0.21993716 0.66517037 0.079266481 800 20314624 395 13 1065 395
-0.21266136 0.67067379 0.079454847 764 20509440 380 13 1075 380
-0.20470458 0.67418814 0.07951764 748 20705536 373 13 1057 373
-0.19697124 0.67856663 0.07964322 819 20900352 411 13 992 411
-0.18916118 0.68285656 0.079768799 814 21095168 411 13 1065 411
-0.18127541 0.68705672 0.079894386 748 21291264 380 13 985 380
-0.17331497 0.69116592 0.080019966 781 21486848 399 13 1053 399
-0.16551124 0.69615394 0.080208339 775 21681664 398 13 1074 398
-0.15695588 0.69813263 0.080208339 784 21877760 404 13 978 404
-0.14899619 0.70293546 0.080396704 737 22072576 383 13 1028 383
-0.1405533 0.70568985 0.080459498 802 22267904 418 13 966 418
-0.13243002 0.71030515 0.080647871 809 22463232 425 13 1011 425
-0.12455523 0.71679372 0.080961823 744 22657792 396 13 1008 396
-0.11638276 0.72220981 0.081212983 804 22854144 433 13 1041 433
-0.10824217 0.72851998 0.081526935 763 23049984 416 13 931 416
-0.099830098 0.73374933 0.081778102 762 23246080 420 13 967 420
-0.091305897 0.73888141 0.082029261 806 23440640 449 13 921 449
-0.082670704 0.74391413 0.08228042 782 23636736 441 13 984 441
-0.073925674 0.74884558 0.082531586 785 23832832 447 13 927 447
-0.065157354 0.75466824 0.082845539 744 24028928 429 13 921 429
-0.056184053 0.75939238 0.083096698 750 24224256 437 13 985 437
-0.047165498 0.76500547 0.08341065 726 24420608 428 13 938 428
-0.038017593 0.77051085 0.083724603 777 24617472 465 13 914 465
-0.028741635 0.77590621 0.084038556 685 24811520 415 13 1000 415
-0.019387377 0.78318459 0.084478088 820 25008640 506 13 976 506
-0.0098468233 0.78935128 0.084854834 775 25205760 485 13 969 485
-0.00015697959 0.79839492 0.085419945 801 25401088 513 13 911 513
0.0097658699 0.80831623 0.086047851 808 25596672 530 13 974 530
0.019956952 0.81911039 0.086738549 842 25794048 568 13 927 568
0.030414386 0.82977456 0.087429248 764 25988864 530 13 958 530
0.041136496 0.84030378 0.088119939 828 26184704 589 13 946 589
0.051998556 0.84870088 0.088685058 831 26379264 604 13 997 604
0.06285172 0.85397071 0.089061797 859 26573568 634 13 1038 634
0.074185617 0.8630783 0.089689702 839 26767872 633 13 973 633
0.085261859 0.86706895 0.090003654 931 26962688 711 13 958 711
0.09810143 0.88579565 0.091259465 798 27156992 637 13 1012 637
0.10920902 0.88650602 0.091385052 909 27351808 729 13 1034 729
0.12075257 0.89004368 0.091699004 1072 27544832 870 13 1100 870
0.13254601 0.89441794 0.092075743 1171 27739904 963 13 1026 963
0.14446485 0.89863586 0.092452489 1341 27933696 1118 13 1054 1118
0.15701975 0.90564501 0.0930176 1517 28129792 1287 13 1145 1287
0.16610906 0.89285767 0.092326909 1780 28324608 1476 13 1103 1476
0.17900312 0.90053999 0.092954814 1414 28519424 1198 13 1089 1198
0.19066158 0.90120453 0.09314318 2218 28714240 1891 13 1275 1891
0.19995484 0.89100724 0.092640862 1588 28908800 1332 13 1214 1332
0.21110469 0.88945735 0.092703648 1561 29103872 1312 13 1173 1312
0.21860495 0.87324709 0.091824584 1183 29299456 964 13 1044 964
0.22624893 0.85891879 0.091071099 981 29494272 778 13 1026 778
0.23410755 0.84645969 0.090443194 1018 29689856 789 13 1116 789
0.24113838 0.83202159 0.089689702 957 29886208 722 13 1105 722
0.24843059 0.81945014 0.089061797 946 30082560 697 13 1036 697
0.2551493 0.80587506 0.088371105 973 30278656 699 13 1035 699
0.26188612 0.79320765 0.0877432 983 30474496 689 13 1048 689
0.26867586 0.78144133 0.087178081 970 30669824 665 13 1079 665
0.27588966 0.77150828 0.086738549 965 30865152 651 13 966 651
0.27872455 0.75029218 0.085545532 840 31060736 541 13 1086 541
0.28575411 0.741229 0.085168786 860 31256576 546 13 981 546
0.29186183 0.73025399 0.084666461 872 31452160 542 13 1028 542
0.29583272 0.71463209 0.083850183 822 31649024 495 13 990 495
0.30182576 0.70452762 0.08341065 857 31844864 507 13 1031 507
0.30640167 0.69164783 0.082782745 867 32040960 499 13 1046 499
0.31029168 0.67785591 0.082092054 794 32236800 443 13 978 443
0.31517091 0.66678041 0.081589729 841 32433152 460 13 1036 460
0.32026356 0.65658516 0.081150196 784 32628224 420 13 1023 420
0.32560289 0.64725757 0.08077345 789 32823296 416 13 1061 416
0.32524335 0.62726957 0.07964322 512 33017856 257 13 951 257
0.35127437 0.65755296 0.082092054 104 33214208 58 13 737 58
0.3737615 0.67941892 0.08397577 70 33409024 42 13 744 42
0.41258553 0.72861141 0.08786878 25 33604352 17 13 709 17
0.43155143 0.74073601 0.08912459 11 33799936 8 13 710 8
0.45754883 0.76362878 0.091196679 17 33993728 13 13 697 13
0 0 0 12 34188032 0 13 672 0
0 0 0 11 34383616 0 13 810 0
0.78753567 1.2104813 0.12604542 13 34578176 27 13 717 27
0.80565906 1.2057039 0.12642215 22 34775552 47 13 735 47
0.8254779 1.2031317 0.12698728 12 34969856 26 13 730 26
0.85800201 1.2182013 0.12893377 23 35165440 51 13 727 51
0.76059133 1.0523117 0.116878 18 35362048 30 13 730 30
0.55517387 0.74876517 0.093833879 109 35558912 95 13 700 95
0.56371599 0.74110186 0.093771085 107 35756800 93 13 741 93
0.58321011 0.74750084 0.09483853 159 35952384 143 13 739 143
0.61791694 0.77222747 0.097412936 266 36150272 261 13 771 261
0.646981 0.78849703 0.099359445 316 36348160 330 13 841 330
0.6758917 0.80340248 0.10124316 375 36544000 415 13 769 415
0.70200223 0.813936 0.10281292 367 36739840 426 13 724 426
0.72450268 0.819462 0.10400594 444 36934912 533 13 779 533
0.75864017 0.83712429 0.1062664 346 37130240 443 13 803 443
0.79263717 0.85333711 0.10846407 322 37324032 438 13 847 438
0.82370079 0.86522466 0.11034779 278 37519616 398 13 806 398
0.83843958 0.85933614 0.11072453 351 37713920 509 13 791 509
0.86162823 0.8616817 0.11185475 324 37907200 483 13 818 483
0.88214076 0.86079848 0.11273383 333 38102272 508 13 802 508
0.92445022 0.88017935 0.11549661 120 38296320 196 13 738 196
0.90300012 0.83889037 0.11273383 19 38490112 29 13 698 29
2.0819197 1.886384 0.21194285 15 38685952 121 13 743 121
2.1363211 1.8884512 0.21458004 11 38881536 92 13 697 92
2.9182577 2.5163693 0.27762172 9 39076608 139 13 706 139
2.8824635 2.4244845 0.27215895 14 39271168 204 13 717 204
2.8170838 2.3110802 0.26443571 428 39467008 5708 13 789 5708
2.8397768 2.2719724 0.26399618 417 39663360 5551 13 872 5551
2.8619347 2.2326562 0.26355666 425 39858944 5624 13 829 5624
2.8938839 2.2009923 0.26393339 441 40054528 5856 13 803 5856
2.9070451 2.1552112 0.26286596 413 40249344 5434 13 767 5434
2.9365101 2.1217127 0.2631171 397 40444928 5233 13 801 5233
2.9598773 2.0837941 0.26292875 501 40641536 6592 13 843 6592
2.9786408 2.0427997 0.26242644 481 40836864 6300 13 843 6300
3.0018249 2.0049851 0.26230085 485 41031936 6347 13 844 6347
3.0270398 1.968541 0.26236364 516 41227776 6755 13 852 6755
3.0467522 1.9285779 0.26204967 494 41423872 6448 13 856 6448
3.0718889 1.8920909 0.26217526 500 41619200 6550 13 877 6550
3.1051507 1.8604058 0.26292875 436 41814784 5740 13 808 5740
3.1208477 1.8181424 0.26242644 455 42011136 5959 13 850 5959
3.1463981 1.7816746 0.26267758 467 42207232 6133 13 805 6133
3.1750209 1.7467772 0.2631799 450 42403328 5933 13 823 5933
3.2067814 1.7133259 0.26393339 443 42599168 5883 13 804 5883
3.2169328 1.6683321 0.2631799 429 42794240 5668 13 870 5668
3.2148738 1.6175181 0.26161015 278 42989824 3617 13 822 3617
3.2353783 1.5783823 0.26167294 236 43185152 3074 13 775 3074
3.2752573 1.5483688 0.2631171 265 43379200 3493 13 810 3493
3.2976415 1.5097212 0.26336828 269 43574016 3555 13 818 3555
3.3095322 1.4663111 0.26292875 225 43769344 2963 13 752 2963
3.3144331 1.4200863 0.26204967 230 43963648 3004 13 788 3004
3.336221 1.3812145 0.26236364 209 44157440 2737 13 821 2737
3.3686745 1.3464653 0.26343107 266 44352512 3518 13 774 3518
3.4007754 1.3111268 0.2644985 215 44547072 2871 13 750 2871
3.4456122 1.2800668 0.26644501 249 44740352 3382 13 729 3382
3.477977 1.2437347 0.26757523 291 44935168 3989 13 770 3989
3.4797642 1.1964194 0.26669618 262 45130240 3567 13 739 3567
3.5102956 1.1589447 0.26776361 164 45322752 2253 13 755 2253
6.7184734 2.1267083 0.47855139 67 45519616 3353 13 747 3353
6.7813158 2.0553904 0.48100021 41 45713664 2079 13 750 2079
3.6723185 1.0642228 0.275738 119 45908224 1752 13 709 1752
3.6456618 1.0081753 0.27316362 192 46103040 2762 13 731 2762
3.4309511 0.90365052 0.25840783 61 46297856 773 13 779 773
3.4543684 0.86462837 0.25922412 74 46494464 945 13 747 945
3.4705451 0.82355481 0.25960085 52 46690304 668 13 709 668
3.4930499 0.78374296 0.26041713 51 46886400 659 13 766 659
3.5297451 0.74659878 0.26217526 54 47081984 708 13 768 708
3.5650716 0.70847672 0.2638706 51 47277568 680 13 728 680
3.5950842 0.66868722 0.26525199 39 47472896 527 13 742 527
3.6197367 0.62741554 0.26631942 55 47668992 750 13 695 750
3.6232219 0.5823155 0.26606828 53 47864576 722 13 677 722
3.6458912 0.54014772 0.26707292 56 48060672 769 13 690 769
3.6888375 0.50032568 0.26939616 44 48256512 616 13 726 616
3.711539 0.45709237 0.27046362 44 48453376 621 13 734 621
3.7307565 0.41304779 0.27134266 52 48648960 740 13 714 740
3.7593822 0.36957556 0.27284965 38 48845056 549 13 716 549
3.7835219 0.32512125 0.27410546 32 49040896 467 13 738 467
3.8041475 0.27991048 0.27517289 53 49236992 778 13 735 778
3.8262231 0.23436408 0.27636591 58 49432064 857 13 808 857
2.4990287 0.12244282 0.19260336 399 49627136 2509 13 774 2509
2.4903696 0.091402151 0.19197546 635 49822208 3962 13 792 3962
2.4883103 0.060761977 0.19178709 623 50018048 3878 13 803 3878
2.480885 0.03012629 0.19128476 587 50213120 3629 13 819 3629
2.4571152 -0.00031346007 0.18977779 118 50409216 717 13 746 717
2.4459491 -0.030328186 0.18908709 64 50605056 386 13 685 386
2.4254382 -0.059845943 0.18783128 502 50799616 2969 13 791 2969
2.4105585 -0.089087054 0.18695222 159 50993408 930 13 740 930
2.3883507 -0.11762728 0.18563361 59 51188992 340 13 705 340
2.3757699 -0.14625086 0.18494292 73 51383552 416 13 761 416
2.3777776 -0.175689 0.18519409 306 51578368 1746 13 826 1746
2.3625164 -0.20373793 0.1843778 596 51773696 3370 13 881 3370
2.3548722 -0.23222376 0.18406385 651 51968768 3667 13 880 3667
2.3429179 -0.26011163 0.18349874 607 52164864 3386 13 820 3386
2.3246922 -0.2870065 0.18255688 647 52360960 3566 13 827 3566
2.3071506 -0.31362808 0.18167782 727 52555264 3958 13 841 3958
2.2962179 -0.34088972 0.18123828 704 52751104 3811 13 850 3811
2.2948177 -0.36951864 0.18142666 189 52944640 1026 13 764 1026
2.2645447 -0.39320827 0.1797941 88 53139712 468 13 765 468
2.2546434 -0.42005333 0.17948015 102 53334784 540 13 705 540
2.2287643 -0.44359499 0.17816155 290 53528832 1505 13 742 1505
2.2436559 -0.47525853 0.17948015 764 53723648 4035 13 810 4035
2.1996799 -0.49421701 0.17703132 282 53918976 1441 13 720 1441
2.181798 -0.5184027 0.17627783 110 54113536 557 13 728 557
2.195601 -0.55023599 0.17759643 720 54306560 3705 13 777 3705
2.1838586 -0.57586479 0.17728248 874 54501888 4476 13 841 4476
2.1708565 -0.60102195 0.17690574 835 54697472 4257 13 786 4257
2.1594839 -0.62650347 0.17665458 846 54892800 4295 13 833 4295
2.1306236 -0.64657688 0.17527318 157 55088896 782 13 760 782
2.1253829 -0.67357928 0.17546156 184 55284736 919 13 754 919
2.1226423 -0.70149022 0.17583829 219 55479808 1100 13 779 1100
2.0742409 -0.71383822 0.1732011 431 55675136 2083 13 794 2083
2.0869353 -0.74697787 0.17464527 253 55870976 1249 13 800 1249
2.0794823 -0.77322751 0.17477086 334 56067072 1652 13 757 1652
2.067975 -0.79796886 0.17464527 357 56262912 1763 13 776 1763
2.0663662 -0.82662362 0.17521039 840 56460032 4180 13 839 4180
2.050535 -0.84962577 0.17483366 900 56655104 4458 13 916 4458
2.0362856 -0.87315106 0.17458248 893 56851712 4405 13 849 4405
2.0235927 -0.8972643 0.17445691 858 57048576 4228 13 884 4228
2.0115223 -0.92161345 0.17439412 894 57243648 4395 13 823 4395
1.9991591 -0.94580156 0.17433132 934 57440000 4593 13 897 4593
1.9882989 -0.9707011 0.17439412 884 57635840 4350 13 899 4350
1.9762372 -0.99502748 0.17439412 958 57831936 4714 13 897 4714
1.9550203 -1.0146053 0.17376621 693 58027264 3377 13 837 3377
4.6318474 -2.4770286 0.36565405 87 58223360 2416 13 749 2416
4.1806092 -2.3020899 0.33545181 25 58420736 580 13 684 580
4.1346798 -2.3433757 0.334196 20 58616064 458 13 759 458
4.0875068 -2.3833795 0.3328774 33 58811392 748 13 727 748
4.0844841 -2.4492733 0.33482391 10 59008000 235 13 707 235
4.0999947 -2.5274968 0.33821458 18 59202816 424 13 765 424
4.4404478 -2.8131936 0.3659052 142 59398400 3945 13 776 3945
4.3855176 -2.8544052 0.36439824 563 59591936 15504 13 891 15504
4.355967 -2.9118903 0.36483777 1153 59786496 31794 13 1092 31794
4.156168 -2.8527205 0.35234246 326 59981056 8340 13 917 8340
4.1697965 -2.9380023 0.35610989 577 60175616 15093 13 987 15093
