# .PCD v0.7 - Point Cloud Data file format
VERSION 0.7
FIELDS x y z intensity t reflectivity ring noise range
SIZE 4 4 4 4 4 2 2 2 4
TYPE F F F F U U U U U
COUNT 1 1 1 1 1 1 1 1 1
WIDTH 346
HEIGHT 1
VIEWPOINT 0 0 0 1 0 0 0
POINTS 346
DATA ascii
3.0120959 -0.29767647 1.0424238 126 51938304 1292 2 925 1292
3.0238075 -0.15008955 0.96890056 147 51154432 1481 3 1136 1481
3.0226915 -0.18724421 0.96919626 220 51350784 2218 3 1025 2218
3.0258818 -0.22474843 0.97097051 249 51546368 2521 3 968 2521
3.0000551 -0.25988224 0.96387351 224 51742464 2234 3 990 2234
3.0061462 -0.29762033 0.96683061 243 51938304 2438 3 1027 2438
3.0384195 -0.037767321 0.89703315 234 50569216 2338 4 801 2338
3.0319583 -0.074907303 0.89539039 225 50764800 2240 4 774 2240
3.0250442 -0.11189441 0.89374763 250 50959104 2480 4 772 2480
3.0359311 -0.14962497 0.89730692 117 51154432 1170 4 795 1170
3.0069876 -0.18521026 0.88964081 51 51350784 503 4 713 503
3.009284 -0.22245181 0.89100975 44 51546368 436 4 730 436
3.003453 -0.25911522 0.89018834 203 51742464 1998 4 737 1998
3.0124898 -0.29718179 0.89374763 145 51938304 1439 4 736 1439
3.0000131 -0.33317074 0.89128351 46 52135168 455 4 744 455
3.0042894 -0.37102246 0.89374763 175 52331520 1736 4 772 1736
3.042279 0.11157344 0.82361984 220 49791232 2187 5 891 2187
3.0453541 0.074278556 0.82412297 279 49985792 2766 5 838 2766
3.0595851 0.037064213 0.82764482 171 50179840 1719 5 894 1719
3.0423884 -0.00047945292 0.82311672 54 50374656 543 5 878 543
3.0247338 -0.037595481 0.81858861 38 50569216 380 5 873 380
3.044363 -0.07521534 0.82387143 193 50764800 1920 5 893 1920
3.0374079 -0.11235331 0.82236201 282 50959104 2791 5 934 2791
3.0329003 -0.14947522 0.82160735 222 51154432 2196 5 896 2196
3.0366337 -0.18704006 0.82311672 244 51350784 2412 5 851 2412
3.0234926 -0.22350393 0.82034951 283 51546368 2779 5 840 2779
3.0166652 -0.26025677 0.81934327 269 51742464 2634 5 843 2634
3.0219126 -0.29811254 0.82160735 81 51938304 798 5 827 798
3.0180268 -0.33517361 0.82160735 83 52135168 826 5 893 826
3.0108049 -0.37182796 0.82085264 208 52331520 2052 5 953 2052
3.0031383 -0.40835559 0.82009798 176 52527104 1736 5 896 1736
3.0856271 0.26522154 0.76133502 126 49013760 1285 6 904 1285
3.0721459 0.22612351 0.75744146 266 49208832 2665 6 856 2665
3.0688598 0.18805003 0.75606728 205 49403648 2047 6 820 2047
3.0670474 0.1501863 0.75515115 54 49597696 538 6 822 538
3.0492041 0.11182654 0.75057054 99 49791232 974 6 809 974
3.0620244 0.074683048 0.75331891 289 49985792 2864 6 815 2864
3.0636835 0.03711335 0.75354797 268 50179840 2657 6 788 2657
3.0629349 -0.00048528021 0.75331891 189 50374656 1873 6 800 1873
3.0461514 -0.037864402 0.74942541 254 50569216 2489 6 818 2489
3.0571349 -0.075532496 0.75217378 321 50764800 3170 6 818 3170
3.0540323 -0.11297034 0.75171572 226 50959104 2230 6 772 2230
3.0553327 -0.15058362 0.75240278 147 51154432 1452 6 853 1452
3.0464537 -0.18764617 0.7507996 136 51350784 1337 6 848 1337
3.04198 -0.22487293 0.75034153 169 51546368 1660 6 821 1660
3.0351124 -0.2618506 0.74942541 140 51742464 1372 6 824 1372
3.0394201 -0.29984188 0.75125766 139 51938304 1371 6 761 1371
3.038414 -0.33744037 0.75194472 333 52135168 3295 6 878 3295
3.0263159 -0.37374553 0.75011247 276 52331520 2709 6 850 2709
3.0224662 -0.41098621 0.75034153 295 52527104 2899 6 842 2899
3.0085294 -0.44675764 0.74828029 174 52723456 1700 6 812 1700
3.0938606 0.38163778 0.68934584 295 48430336 3000 7 1098 3000
3.0808041 0.34170309 0.68563724 290 48625152 2917 7 1045 2917
3.1013207 0.30549991 0.68913984 58 48819968 594 7 1017 594
3.0882621 0.26599348 0.68563724 324 49013760 3258 7 1059 3258
3.0971491 0.22850698 0.68687344 325 49208832 3280 7 1073 3280
3.0870228 0.18970431 0.68419504 328 49403648 3282 7 1060 3282
3.0725031 0.15099306 0.68069243 87 49597696 866 7 1001 866
3.0702131 0.11313372 0.67986834 264 49791232 2609 7 1051 2609
3.0733268 0.075496778 0.68028039 283 49985792 2798 7 1096 2798
3.0808711 0.037859958 0.68172264 115 50179840 1146 7 1021 1146
3.0771894 5.0505703e-05 0.68089849 110 50374656 1094 7 1022 1094
3.0701091 -0.037626542 0.67945623 249 50569216 2457 7 1076 2457
3.0655034 -0.075202182 0.67863214 261 50764800 2569 7 1103 2569
3.0584824 -0.11259822 0.67739594 176 50959104 1728 7 1067 1728
3.0656664 -0.15055512 0.67925024 322 51154432 3173 7 1078 3173
3.0538211 -0.18756311 0.67718989 376 51350784 3681 7 1105 3681
3.0503137 -0.22495197 0.67698383 362 51546368 3542 7 1130 3542
3.0521982 -0.2627874 0.67801404 291 51742464 2857 7 1066 2857
3.0477695 -0.30012676 0.67780799 340 51938304 3337 7 1038 3337
3.0477474 -0.33793682 0.67863214 364 52135168 3581 7 1086 3581
3.0462844 -0.3756716 0.67925024 220 52331520 2171 7 1043 2171
3.0385361 -0.4126305 0.67863214 200 52527104 1969 7 1070 1969
3.0342116 -0.45003065 0.67883813 160 52723456 1578 7 1065 1578
3.0216978 -0.48614231 0.67739594 193 52918016 1894 7 1064 1894
3.1000698 0.49884966 0.61699599 322 47844864 3294 8 934 3294
3.104013 0.46048117 0.61663049 255 48039936 2599 8 846 2599
3.0957906 0.42050457 0.61407202 310 48234496 3141 8 907 3141
3.1026695 0.38272327 0.61443752 310 48430336 3135 8 840 3135
3.094429 0.34321254 0.61206174 148 48625152 1494 8 867 1494
3.1013432 0.30550209 0.61260998 54 48819968 544 8 792 544
3.1077971 0.26767358 0.61315823 137 49013760 1380 8 828 1380
3.0912378 0.22807159 0.60950327 82 49208832 825 8 875 825
3.0908599 0.18993963 0.60895497 90 49403648 893 8 850 893
3.0772464 0.15122558 0.606031 94 49597696 933 8 866 933
3.085748 0.1137042 0.60731024 356 49791232 3521 8 910 3521
3.0819964 0.075708665 0.6063965 301 49985792 2970 8 911 2970
3.1043215 0.038145192 0.61041701 176 50179840 1756 8 824 1756
3.0789936 5.0308903e-05 0.6056655 315 50374656 3097 8 958 3097
3.0718808 -0.03764848 0.60438621 311 50569216 3045 8 958 3045
3.0662732 -0.075221173 0.60347247 322 50764800 3142 8 952 3142
3.0719967 -0.11309746 0.60475171 310 50959104 3040 8 918 3040
3.0684135 -0.15069038 0.60438621 356 51154432 3486 8 900 3486
3.0614269 -0.1880312 0.60347247 329 51350784 3210 8 966 3210
3.0598693 -0.2256579 0.60365522 389 51546368 3798 8 929 3798
3.0558903 -0.26310575 0.60347247 429 51742464 4183 8 998 4183
3.0602586 -0.30135819 0.60493451 390 51938304 3825 8 903 3825
3.04949 -0.33813027 0.60365522 350 52135168 3419 8 915 3419
3.0451112 -0.37552676 0.60365522 383 52331520 3741 8 900 3741
3.0392992 -0.41273424 0.60347247 333 52527104 3247 8 1024 3247
3.046648 -0.45187679 0.60584825 327 52723456 3219 8 942 3219
3.0379615 -0.48876098 0.60530001 326 52918016 3202 8 949 3202
3.0113928 -0.52247268 0.60146224 216 53112832 2097 8 887 2097
3.1216033 0.66031545 0.54761815 269 47065600 2818 9 957 2818
3.1294713 0.62195885 0.54761815 346 47260928 3622 9 947 3622
3.1271617 0.5817042 0.54602796 356 47455232 3704 9 969 3704
3.1262822 0.54193723 0.54475582 348 47650560 3601 9 1026 3601
3.1102774 0.49993128 0.54109836 49 47844864 508 9 910 508
3.1044586 0.45999071 0.53919011 40 48039936 412 9 926 412
3.1118262 0.42212477 0.53950816 136 48234496 1385 9 929 1385
3.1040335 0.38233861 0.5374409 67 48430336 682 9 879 682
3.1035852 0.34367585 0.53664583 49 48625152 499 9 905 499
3.0918481 0.30402035 0.53410149 245 48819968 2433 9 984 2433
3.1032155 0.26673114 0.53537363 374 49013760 3731 9 991 3731
3.1111779 0.22899157 0.53616875 395 49208832 3953 9 994 3953
3.1029141 0.19013251 0.53441954 343 49403648 3408 9 1015 3408
3.1010692 0.15184802 0.53378344 368 49597696 3646 9 994 3646
3.0997393 0.11367352 0.53330642 417 49791232 4124 9 952 4124
3.0782001 0.075075559 0.52964896 154 49985792 1506 9 935 1506
3.0808642 0.037319321 0.52996701 174 50179840 1701 9 981 1701
3.0968864 -0.00049490941 0.53251129 231 50374656 2281 9 963 2281
3.0838137 -0.038337294 0.53044403 245 50569216 2397 9 1021 2397
3.083111 -0.076177545 0.53044403 339 50764800 3316 9 1033 3316
3.0760245 -0.11378661 0.52948993 415 50959104 4040 9 1041 4040
3.0714383 -0.15137942 0.52901286 442 51154432 4296 9 1054 4296
3.0752618 -0.18942422 0.52996701 423 51350784 4129 9 1004 4129
3.069752 -0.22692943 0.52948993 470 51546368 4574 9 1067 4574
3.0618179 -0.26415798 0.52869481 415 51742464 4029 9 1024 4029
3.0632582 -0.30219656 0.52948993 415 51938304 4039 9 1070 4039
3.0622628 -0.340092 0.52996701 513 52135168 5004 9 1063 5004
3.0558991 -0.37740278 0.52964896 504 52331520 4910 9 1033 4910
3.0549507 -0.41540754 0.530285 383 52527104 3741 9 1059 3741
3.0535293 -0.45344576 0.5309211 358 52723456 3507 9 989 3507
3.0448108 -0.49041179 0.53044403 282 52918016 2760 9 942 2760
3.0502357 -0.52976811 0.53235227 234 53112832 2310 9 877 2310
3.0425344 -0.56697834 0.53219324 172 53308672 1697 9 981 1697
3.1579156 0.667992 0.47563559 45 47065600 486 10 941 486
3.1512983 0.62629402 0.47360244 49 47260928 524 10 911 524
3.1460834 0.58522159 0.47184038 293 47455232 3064 10 1018 3064
3.1198361 0.5408206 0.46723193 190 47650560 1947 10 1017 1947
3.1546068 0.50705105 0.47116268 65 47844864 684 10 969 684
3.1282485 0.46351272 0.46668977 366 48039936 3735 10 1048 3735
3.1199558 0.42322657 0.46479216 399 48234496 4037 10 1013 4037
3.1209812 0.38442403 0.46425 275 48430336 2776 10 1049 2776
3.1166008 0.34511551 0.4630301 206 48625152 2071 10 982 2071
3.111727 0.30597255 0.46181023 392 48819968 3910 10 1107 3910
3.1103117 0.26734021 0.4611325 210 49013760 2092 10 1001 2092
3.103477 0.22842571 0.45977709 66 49208832 659 10 958 659
3.1060464 0.19032407 0.45977709 107 49403648 1063 10 978 1063
3.1111169 0.15233877 0.46018371 315 49597696 3122 10 989 3122
3.101861 0.11375105 0.45869273 157 49791232 1548 10 987 1548
3.1000519 0.07560578 0.45828611 172 49985792 1693 10 959 1693
3.1027277 0.03758144 0.45855719 332 50179840 3263 10 1071 3263
3.0970106 -0.00049494457 0.45774394 361 50374656 3533 10 1064 3533
3.100734 -0.038549747 0.45828611 396 50569216 3887 10 994 3887
3.0930941 -0.076425448 0.45733732 402 50764800 3925 10 1087 3925
3.0820227 -0.11400924 0.45598188 433 50959104 4201 10 1077 4201
3.0754435 -0.15157734 0.45530418 450 51154432 4353 10 1120 4353
3.1000519 -0.1909543 0.45896384 576 51350784 5666 10 1187 5666
3.0826542 -0.22788483 0.4569307 682 51546368 6645 10 1157 6645
3.0835741 -0.26603773 0.45747286 614 51742464 5999 10 1082 5999
3.085007 -0.30434486 0.45815057 630 51938304 6171 10 1151 6171
3.0780859 -0.34185126 0.45774394 640 52135168 6257 10 1174 6257
3.0618596 -0.37813964 0.45611742 430 52331520 4175 10 1029 4175
3.0668058 -0.41702107 0.45747286 411 52527104 4016 10 1123 4016
3.0594974 -0.4543328 0.45720178 380 52723456 3709 10 1071 3709
3.0527136 -0.49168566 0.45706624 394 52918016 3843 10 1115 3843
3.0571873 -0.53097641 0.45855719 383 53112832 3762 10 1067 3762
3.0543373 -0.5691793 0.45909938 382 53308672 3764 10 1035 3764
3.0568395 -0.60855353 0.46045479 175 53504512 1737 10 1078 1737
3.1491017 0.6661287 0.39490694 343 47065600 3599 11 807 3599
3.149241 0.62588543 0.39401656 354 47260928 3698 11 791 3698
3.1508222 0.58610249 0.39334881 390 47455232 4059 11 800 4059
3.132318 0.54298276 0.39045513 181 47650560 1854 11 784 1854
3.146595 0.50576425 0.39134547 74 47844864 763 11 782 763
3.1456831 0.46609384 0.39056641 324 48039936 3320 11 810 3320
3.1482115 0.42705598 0.39023253 83 48234496 850 11 771 850
3.1394062 0.38669124 0.38867438 57 48430336 580 11 734 580
3.1350253 0.34715346 0.38767272 119 48625152 1201 11 778 1201
3.1222358 0.30700457 0.38578072 359 48819968 3580 11 774 3580
3.1267583 0.2687518 0.385892 97 49013760 969 11 784 969
3.1268475 0.23014295 0.38555813 242 49208832 2410 11 784 2410
3.1264606 0.19157241 0.38522422 405 49403648 4025 11 808 4025
3.1156721 0.15256125 0.38377738 409 49597696 4031 11 827 4031
3.1242616 0.11456975 0.38455647 184 49791232 1823 11 768 1823
3.1145039 0.075956456 0.38333222 292 49985792 2871 11 816 2871
3.1092391 0.037659504 0.38266444 379 50179840 3712 11 839 3712
3.0975416 -0.00049509521 0.38132888 224 50374656 2178 11 784 2178
3.1012771 -0.038556568 0.38177407 274 50569216 2670 11 824 2670
3.0985835 -0.076561764 0.38155147 353 50764800 3434 11 856 3434
3.0944314 -0.1144698 0.3812176 412 50959104 4010 11 863 4010
3.0927937 -0.15243462 0.3812176 496 51154432 4818 11 854 4818
3.0946577 -0.19062136 0.38166279 495 51350784 4829 11 886 4829
3.086139 -0.22814289 0.38099501 375 51546368 3647 11 864 3647
3.0850873 -0.26616848 0.3812176 383 51742464 3729 11 880 3729
3.0845556 -0.30430025 0.38155147 438 51938304 4272 11 870 4272
3.0835521 -0.34245905 0.38188538 404 52135168 3939 11 802 3939
3.0751724 -0.37978548 0.38144019 403 52331520 3928 11 867 3928
3.071265 -0.41762799 0.38155147 361 52527104 3515 11 778 3515
3.0659087 -0.4552857 0.38155147 287 52723456 2794 11 800 2794
3.0591097 -0.49271667 0.38144019 218 52918016 2129 11 868 2129
3.061645 -0.53175116 0.38244185 328 53112832 3209 11 805 3209
3.0656354 -0.5712862 0.3836661 131 53308672 1292 11 784 1292
3.0466983 -0.60653335 0.38233054 161 53504512 1575 11 805 1575
3.0458312 -0.64531809 0.38310963 140 53700096 1380 11 1042 1380
3.1637471 0.6287666 0.3170127 283 47260928 2968 12 1282 2968
3.1780808 0.59116966 0.31762281 47 47455232 496 12 1213 496
3.1644828 0.54855454 0.31579253 59 47650560 623 12 1304 623
3.1729434 0.50999612 0.31596684 254 47844864 2646 12 1155 2646
3.1425011 0.46562278 0.31274208 388 48039936 3956 12 1307 3956
3.1400812 0.42595407 0.31204483 144 48234496 1458 12 1273 1458
3.1332068 0.38592842 0.31099898 363 48430336 3648 12 1268 3648
3.1307759 0.34668341 0.31038886 400 48625152 4008 12 1359 4008
3.1318202 0.30794579 0.31012741 329 48819968 3293 12 1306 3293
3.1343708 0.26940516 0.31004027 72 49013760 718 12 1267 718
3.1334667 0.23062932 0.30969164 283 49208832 2826 12 1303 2826
3.136061 0.1921595 0.30969164 292 49403648 2916 12 1301 2916
3.1262429 0.15307756 0.30864576 109 49597696 1078 12 1202 1078
3.1378412 0.11506607 0.30951732 131 49791232 1310 12 1334 1310
3.108144 0.07580214 0.30681548 341 49985792 3330 12 1349 3330
3.115813 0.037738319 0.30742559 334 50179840 3269 12 1282 3269
3.1359653 -0.00050599285 0.3091687 225 50374656 2231 12 1230 2231
3.1167967 -0.038751435 0.30751273 350 50569216 3428 12 1269 3428
3.1091154 -0.076823294 0.30690265 413 50764800 4036 12 1307 4036
3.1019654 -0.11474945 0.30637971 419 50959104 4079 12 1315 4079
3.0963438 -0.15261003 0.30603108 373 51154432 3622 12 1376 3622
3.101198 -0.19102503 0.30664119 403 51350784 3929 12 1403 3929
3.0976269 -0.22899355 0.30655402 448 51546368 4364 12 1332 4364
3.0856512 -0.2662172 0.30576962 442 51742464 4282 12 1385 4282
3.0881 -0.30465037 0.30629256 441 51938304 4287 12 1358 4287
3.0861092 -0.34274334 0.30646688 407 52135168 3964 12 1328 3964
3.0787048 -0.38022217 0.30620539 439 52331520 4265 12 1381 4265
3.083678 -0.41931748 0.30707696 282 52527104 2752 12 1283 2752
3.0783002 -0.45712736 0.30707696 409 52723456 3999 12 1370 3999
3.0763927 -0.49550256 0.30742559 378 52918016 3708 12 1363 3708
3.0700805 -0.53321731 0.30742559 353 53112832 3462 12 1385 3462
3.0515542 -0.56866032 0.30637971 119 53308672 1157 12 1214 1157
3.0697479 -0.61112499 0.30864576 290 53504512 2872 12 1304 2872
3.0620174 -0.64874953 0.30864576 352 53700096 3477 12 1260 3477
3.1682546 0.58934307 0.23793812 332 47455232 3463 13 782 3463
3.159514 0.54769379 0.23693347 455 47650560 4698 13 838 4698
3.1512163 0.5065065 0.23599161 386 47844864 3950 13 758 3950
3.1473219 0.46633646 0.23536371 204 48039936 2076 13 747 2076
3.1488516 0.42714274 0.23511255 52 48234496 530 13 726 530
3.1221585 0.3845689 0.23310325 157 48430336 1563 13 734 1563
3.1345785 0.34710404 0.23360558 88 48625152 882 13 723 882
3.147541 0.30948967 0.23417069 78 48819968 787 13 714 787
3.1391697 0.26981705 0.2334172 149 49013760 1488 13 754 1488
3.1322908 0.23054293 0.23278929 406 49208832 4024 13 820 4024
3.1358802 0.19214845 0.23285209 423 49403648 4203 13 876 4203
3.1409926 0.15379797 0.23304047 269 49597696 2673 13 777 2673
3.1306751 0.11480416 0.23228697 408 49791232 4022 13 761 4022
3.1358392 0.076474153 0.23253813 386 49985792 3814 13 833 3814
3.1245661 0.037843257 0.23178466 218 50179840 2139 13 774 2139
3.1247952 -0.00050282478 0.23178466 155 50374656 1522 13 757 1522
3.1285455 -0.038898952 0.23203582 357 50569216 3509 13 846 3509
3.1168575 -0.077015556 0.23134512 230 50764800 2246 13 810 2246
3.1156778 -0.1152584 0.23134512 290 50959104 2831 13 820 2831
3.1100416 -0.15328686 0.23109396 318 51154432 3099 13 786 3099
3.1039419 -0.19119439 0.2308428 427 51350784 4156 13 897 4156
3.1103196 -0.22993344 0.23140791 380 51546368 3713 13 816 3713
3.1003034 -0.26748317 0.23096837 308 51742464 2996 13 821 2996
3.0967877 -0.30550852 0.23096837 430 51938304 4181 13 815 4181
3.0947893 -0.34370843 0.23109396 456 52135168 4449 13 859 4449
3.0962813 -0.38239509 0.2314707 316 52331520 3089 13 804 3089
3.0982778 -0.42130458 0.23191023 226 52527104 2219 13 785 2219
3.0859642 -0.45826644 0.2314707 336 52723456 3293 13 871 3293
3.1007998 -0.49943677 0.23278929 420 52918016 4161 13 816 4161
3.0816548 -0.53522903 0.23197302 268 53112832 2634 13 815 2634
3.191946 0.55388844 0.15890118 284 47650560 2989 14 1131 2989
3.1610119 0.50864851 0.15745571 48 47844864 497 14 1084 497
3.1581194 0.46850109 0.15711336 41 48039936 422 14 1125 422
3.1606603 0.4293077 0.15699925 205 48234496 2094 14 1067 2094
3.1627152 0.39012256 0.15688512 338 48430336 3441 14 1184 3441
3.1613052 0.35062161 0.15665689 331 48625152 3359 14 1083 3359
3.1474693 0.31004006 0.15597218 360 48819968 3611 14 1126 3611
3.1520326 0.27147803 0.15601023 413 49013760 4145 14 1117 4145
3.1481507 0.23226349 0.15574396 386 49208832 3856 14 1161 3856
3.1537561 0.19379686 0.15585807 93 49403648 935 14 1040 935
3.1519046 0.15488513 0.15570591 115 49597696 1151 14 1087 1151
3.1355929 0.11553466 0.15502121 152 49791232 1502 14 1117 1502
3.1497614 0.077364802 0.15551572 97 49985792 968 14 1104 968
3.1354856 0.038524251 0.15494514 82 50179840 811 14 1108 811
3.1297266 4.4774806e-05 0.15471689 292 50374656 2867 14 1139 2867
3.1244955 -0.038299929 0.1545267 337 50569216 3299 14 1160 3299
3.1317821 -0.076836467 0.15483102 359 50764800 3529 14 1244 3529
3.1236131 -0.11500424 0.15456474 415 50959104 4064 14 1141 4064
3.1199703 -0.15322883 0.15448867 422 51154432 4126 14 1183 4126
3.1218448 -0.19174968 0.15464082 361 51350784 3540 14 1166 3540
3.116267 -0.22982422 0.1545267 202 51546368 1981 14 1042 1981
3.1032562 -0.26718986 0.15414631 188 51742464 1831 14 1091 1831
3.1176438 -0.30701646 0.15483102 319 51938304 3137 14 1173 3137
3.1066892 -0.34447986 0.15456474 401 52135168 3927 14 1138 3927
3.1180959 -0.38453665 0.15517336 214 52331520 2118 14 1193 2118
3.1797934 0.51166838 0.08037214 313 47844864 3258 15 894 3258
3.159127 0.46865046 0.079999872 253 48039936 2590 15 884 2590
3.1527505 0.42823431 0.079834417 386 48234496 3917 15 965 3917
3.169677 0.39098045 0.079999872 202 48430336 2071 15 872 2071
3.1722486 0.35183397 0.079972297 56 48625152 570 15 855 570
3.1693616 0.31219384 0.079875782 44 48819968 455 15 887 455
3.1500406 0.27130672 0.079558663 215 49013760 2158 15 928 2158
3.1601133 0.2331446 0.079655178 85 49208832 863 15 876 863
3.1767087 0.19520447 0.079848208 111 49403648 1134 15 869 1134
3.1568935 0.15512969 0.079544879 401 49597696 4015 15 903 4015
3.147568 0.11597442 0.079393215 373 49791232 3709 15 989 3709
3.1447556 0.077242464 0.079338066 316 49985792 3135 15 959 3135
3.1404676 0.038584851 0.079269126 350 50179840 3461 15 980 3461
3.1497037 4.259562e-05 0.079393215 396 50374656 3938 15 944 3938
3.1474676 -0.038584359 0.079365641 176 50569216 1754 15 865 1754
3.1507554 -0.077304311 0.07942079 131 50764800 1310 15 907 1310
3.1405766 -0.11563089 0.079296701 126 50959104 1245 15 843 1245
3.1359251 -0.15401438 0.079255335 350 51154432 3460 15 949 3460
3.1337988 -0.19248541 0.079255335 383 51350784 3783 15 968 3783
3.1491501 -0.23225343 0.079503514 231 51546368 2312 15 962 2312
3.1789308 0.47215566 0.00045657303 281 48039936 2906 16 729 2906
3.1666505 0.43068627 0.00065763079 234 48234496 2394 16 710 2394
3.1955152 0.3947334 0.00038955378 38 48430336 398 16 665 398
3.1742787 0.35262251 0.00067997054 139 48625152 1420 16 741 1420
3.1733913 0.31315228 0.00073581992 360 48819968 3666 16 694 3666
3.1700215 0.27358532 0.00081400899 387 49013760 3925 16 671 3925
3.17314 0.23466368 0.00081400899 138 49208832 1400 16 738 1400
3.1667984 0.19515426 0.00091453787 387 49403648 3901 16 739 3901
3.160965 0.15588504 0.0010038969 381 49597696 3820 16 758 3820
3.1586428 0.11693592 0.0010485764 79 49791232 794 16 674 794
3.1598399 0.078165703 0.0010485764 84 49985792 844 16 668 844
3.1595614 0.039371386 0.0010597463 173 50179840 1730 16 735 1730
3.1608067 0.00059580716 0.0010485764 372 50374656 3719 16 757 3719
3.1545768 -0.038118966 0.0011155957 366 50569216 3647 16 709 3647
3.146874 -0.076656282 0.0011937848 233 50764800 2311 16 786 2311
3.1965766 0.43418175 -0.078725368 225 48234496 2346 17 785 2346
3.2076151 0.39565548 -0.078940004 52 48430336 547 17 695 547
3.173491 0.35197163 -0.077544905 305 48625152 3117 17 711 3117
3.2014406 0.31534982 -0.078403428 190 48819968 1971 17 777 1971
3.1971037 0.27535439 -0.078117251 36 49013760 374 17 716 374
3.2102087 0.23683436 -0.078474969 50 49208832 523 17 653 523
3.1679864 0.19466956 -0.076865248 285 49403648 2879 17 703 2879
3.177124 0.15612133 -0.077115647 433 49597696 4390 17 757 4390
3.1768031 0.11704802 -0.077044107 391 49791232 3958 17 777 3958
3.1789994 0.078079365 -0.077079877 216 49985792 2190 17 737 2190
3.148978 4.2674801e-05 -0.075970955 169 50374656 1679 17 816 1679
3.2147655 0.39653662 -0.15758218 200 48430336 2117 18 864 2117
3.1945865 0.35430875 -0.15608209 310 48625152 3224 18 883 3224
3.1897531 0.31419998 -0.15554206 327 48819968 3382 18 910 3382
3.1963522 0.27528974 -0.15572207 334 49013760 3460 18 875 3460
3.1726112 0.23406513 -0.15410198 210 49208832 2142 18 943 2142
3.167259 4.0680639e-05 -0.15326194 80 50374656 813 18 971 813
