# .PCD v0.7 - Point Cloud Data file format
VERSION 0.7
FIELDS x y z intensity t reflectivity ring noise range
SIZE 4 4 4 4 4 2 2 2 4
TYPE F F F F U U U U U
COUNT 1 1 1 1 1 1 1 1 1
WIDTH 220
HEIGHT 1
VIEWPOINT 0 0 0 1 0 0 0
POINTS 220
DATA ascii
3.7060401 -0.046150044 0.99568868 90 50566912 1333 5 903 1333
3.6858439 -0.091144852 0.99065745 119 50762240 1741 5 907 1741
3.6129167 -0.00064126385 0.88272119 128 50371072 1766 6 786 1766
3.6155567 -0.045013927 0.88340825 110 50566912 1520 6 790 1520
3.6225171 -0.089572303 0.8852405 78 50762240 1084 6 777 1084
3.6114178 -0.13365836 0.88295019 145 50957312 2012 6 865 2012
3.615339 -0.17825419 0.88432437 137 51153408 1898 6 769 1898
3.5720732 -0.22008795 0.87470508 11 51349504 151 6 770 151
3.5991971 -0.26613462 0.88180506 19 51545088 264 6 770 264
3.6160262 -0.31204191 0.88661468 156 51740416 2171 6 809 2171
3.6080499 -0.35600987 0.88569856 149 51936256 2069 6 810 2069
3.5840602 -0.39810804 0.88111794 156 52133120 2146 6 718 2146
3.5856674 -0.44289601 0.88272119 112 52329728 1556 6 878 1556
3.5593443 0.0436798 0.78247297 36 50175232 485 7 1011 485
3.5652149 -0.043756727 0.78370917 97 50566912 1294 7 1086 1294
3.5556054 -0.087287009 0.78185487 124 50762240 1646 7 1039 1646
3.5914259 -0.13228591 0.78968412 59 50957312 803 7 1057 803
3.5670526 -0.17524147 0.78494537 169 51153408 2259 7 1060 2259
3.5577967 -0.21858071 0.78350312 182 51349504 2422 7 1068 2422
3.5324011 -0.26056576 0.77876437 27 51545088 361 7 1031 361
3.5318625 -0.30414632 0.77938247 12 51740416 166 7 980 166
3.5366285 -0.34832901 0.78123677 115 51936256 1526 7 1015 1526
3.5379231 -0.39235041 0.78247297 90 52133120 1201 7 963 1201
3.5347843 -0.43597642 0.78288502 80 52329728 1067 7 1050 1067
3.5340161 -0.47997981 0.78391516 199 52525056 2650 7 1091 2650
3.5278599 -0.5233115 0.78391516 174 52721408 2318 7 1088 2318
3.5646472 -0.57356435 0.79318666 28 52915968 389 7 1014 389
3.5573401 -0.61726487 0.79318666 17 53111808 239 7 1021 239
3.5254476 -0.65639198 0.78803587 122 53307392 1649 7 982 1649
3.5056107 -0.69731313 0.78556347 253 53502208 3384 7 1021 3384
3.4910457 -0.7390632 0.78432727 204 53696000 2721 7 1039 2721
3.5292006 0.086638093 0.6895479 159 49980160 2062 8 881 2062
3.5240993 0.043251105 0.68845141 170 50175232 2195 8 946 2195
3.5243649 1.7264429e-06 0.68845141 85 50371072 1093 8 834 1093
3.5191841 -0.043186791 0.68753761 24 50566912 320 8 871 320
3.519372 -0.08639358 0.68772036 51 50762240 655 8 804 655
3.5033095 -0.12903076 0.68497914 137 50957312 1754 8 878 1754
3.5161917 -0.17273727 0.68772036 27 51153408 348 8 784 348
3.5039942 -0.21526939 0.68589288 183 51349504 2345 8 919 2345
3.4844205 -0.25702122 0.68278611 208 51545088 2639 8 894 2639
3.4976559 -0.30119687 0.68589288 103 51740416 1314 8 848 1314
3.4398837 -0.33878979 0.67584163 17 51936256 211 8 813 211
3.4765077 -0.3855328 0.6835171 46 52133120 594 8 872 594
3.4920056 -0.43069544 0.68735486 60 52329728 769 8 852 769
3.4572315 -0.46954265 0.68187237 18 52525056 228 8 813 228
3.4774666 -0.51583076 0.68680662 193 52721408 2478 8 948 2478
3.4543736 -0.55580884 0.68369991 212 52915968 2697 8 912 2697
3.4666662 -0.60152125 0.68735486 111 53111808 1434 8 878 1434
3.4445257 -0.64131635 0.68461365 17 53307392 227 8 882 227
3.435432 -0.68334574 0.6844309 50 53502208 635 8 845 635
3.4248641 -0.72504491 0.6840654 18 53696000 240 8 865 240
3.4300973 -0.77025139 0.68680662 21 53890816 281 8 857 281
3.4490829 -0.81910408 0.69228917 208 54085120 2716 8 918 2716
3.4549839 -0.86543083 0.69539589 286 54278144 3766 8 910 3766
3.457413 -0.91127312 0.69795442 144 54473216 1906 8 830 1906
3.4270196 -0.94838578 0.6942994 103 54668544 1360 8 860 1360
3.4141791 -0.99009526 0.69411665 227 54863104 2969 8 848 2969
3.4102392 -1.0344874 0.69576138 195 55058176 2574 8 923 2574
3.4342024 0.12589753 0.58721405 129 49784576 1572 9 975 1572
3.4729941 0.084655166 0.59325683 27 49980160 345 9 904 345
3.4451425 0.041686587 0.58864522 137 50175232 1679 9 937 1679
3.4602039 -0.00059795205 0.59103054 196 50371072 2418 9 966 2418
3.4609232 -0.043072324 0.59118956 151 50566912 1866 9 933 1866
3.4443424 -0.085147791 0.58864522 30 50762240 376 9 895 376
3.4351454 -0.12711582 0.58737308 30 50957312 371 9 997 371
3.4530482 -0.17023522 0.59055346 105 51153408 1297 9 971 1297
3.4566116 -0.21296154 0.59150761 26 51349504 330 9 906 330
3.4438922 -0.25463435 0.58991742 132 51545088 1626 9 898 1626
3.4385409 -0.29670706 0.58959937 201 51740416 2467 9 949 2467
3.420886 -0.33752224 0.58737308 182 51936256 2217 9 918 2217
3.4066741 -0.37838537 0.58578289 26 52133120 324 9 908 324
3.4066734 -0.42076766 0.58657801 34 52329728 421 9 908 421
3.4120142 -0.46400571 0.58832723 64 52525056 789 9 901 789
3.4002039 -0.50497061 0.58737308 35 52721408 436 9 862 436
3.4190931 -0.55074322 0.59150761 105 52915968 1301 9 948 1301
3.4072139 -0.59181398 0.59071249 224 53111808 2760 9 919 2760
3.3987243 -0.6334002 0.59055346 233 53307392 2867 9 997 2867
3.3509972 -0.66715193 0.58403367 28 53502208 344 9 962 344
3.4082332 -0.72214657 0.59484702 134 53696000 1680 9 922 1680
3.3923721 -0.76240033 0.59373385 102 53890816 1275 9 946 1275
3.3933263 -0.80648488 0.59548306 32 54085120 409 9 927 409
3.3965807 -0.85142767 0.59770936 56 54278144 715 9 929 715
3.3811035 -0.89178538 0.59691429 275 54473216 3463 9 879 3463
3.3660996 -0.93215525 0.59627819 253 54668544 3177 9 922 3177
3.3800068 -0.98082387 0.60057175 117 54863104 1497 9 950 1497
3.3771627 -1.0250964 0.60216194 189 55058176 2427 9 924 2427
3.3699756 -1.0682528 0.60311604 208 55252992 2677 9 992 2677
3.4327343 0.16804738 0.50423509 32 49590016 396 10 877 396
3.4167161 0.12525843 0.50179529 76 49784576 913 10 997 913
3.4031386 0.082960136 0.49976218 58 49980160 693 10 960 693
3.4207425 0.041394059 0.50206637 27 50175232 330 10 968 330
3.3972142 -0.00058008719 0.49881336 96 50371072 1137 10 995 1137
3.3989327 -0.042293966 0.49908444 239 50566912 2821 10 1013 2821
3.3961768 -0.083951727 0.49881336 236 50762240 2783 10 995 2783
3.3632081 -0.12444577 0.49447599 37 50957312 435 10 991 435
3.3812189 -0.16668604 0.49718687 94 51153408 1104 10 1019 1104
3.3670521 -0.20743383 0.49556035 131 51349504 1526 10 1034 1526
3.4472506 -0.25488305 0.50694591 24 51545088 302 10 915 302
3.4201729 -0.29512009 0.50369292 37 51740416 453 10 963 453
3.375869 -0.33307555 0.49813566 226 51936256 2657 10 1030 2657
3.3646345 -0.3737112 0.49718687 262 52133120 3067 10 1026 3067
3.362745 -0.41533697 0.49759349 85 52329728 1001 10 1019 1001
3.3662305 -0.45777431 0.49881336 120 52525056 1418 10 999 1418
3.3338993 -0.495116 0.49515373 181 52721408 2101 10 1045 2101
3.36572 -0.54213989 0.50043988 27 52915968 328 10 974 328
3.3597898 -0.58357131 0.50057542 32 53111808 388 10 961 388
3.3348439 -0.62148786 0.49813566 207 53307392 2435 10 989 2435
3.3327963 -0.66352612 0.4989489 246 53502208 2902 10 1017 2902
3.3505721 -0.70992255 0.50260854 175 53696000 2099 10 1011 2099
3.3309748 -0.74859488 0.50111759 271 53890816 3224 10 1067 3224
3.3437073 -0.79468626 0.50423509 328 54085120 3956 10 1014 3956
3.3442745 -0.83830994 0.50572604 33 54278144 409 10 941 409
3.3346934 -0.87953901 0.50586158 26 54473216 325 10 924 325
3.3007336 -0.91404611 0.50260854 171 54668544 2053 10 966 2053
3.3130555 -0.96138781 0.50599712 254 54863104 3089 10 976 3089
3.3104887 -1.0048505 0.50735253 101 55058176 1241 10 971 1241
3.2752423 -1.0382119 0.50409955 81 55252992 982 10 1009 982
3.3608453 0.16453613 0.41126737 270 49590016 3097 11 782 3097
3.3715494 0.12360768 0.41226903 85 49784576 982 11 779 982
3.3509555 0.081693918 0.40982053 205 49980160 2334 11 790 2334
3.339781 0.040423427 0.408485 149 50175232 1685 11 779 1685
3.3469822 -0.00056584057 0.40926406 32 50371072 365 11 778 365
3.3467233 -0.041638419 0.40926406 24 50566912 275 11 725 275
3.3399994 -0.082556702 0.40859628 217 50762240 2454 11 808 2454
3.3297968 -0.12320568 0.40759462 211 50957312 2374 11 773 2374
3.3220787 -0.16376387 0.40692684 155 51153408 1738 11 799 1738
3.3436246 -0.20598786 0.40959793 224 51349504 2547 11 826 2547
3.3348987 -0.24656343 0.40893018 241 51545088 2730 11 830 2730
3.3375623 -0.28798246 0.40959793 41 51740416 467 11 803 467
3.3268542 -0.32823399 0.40881887 21 51936256 239 11 780 239
3.308748 -0.36749744 0.40726075 140 52133120 1572 11 810 1572
3.3108931 -0.40892673 0.40803981 230 52329728 2595 11 766 2595
3.3016868 -0.44898957 0.40759462 215 52525056 2419 11 801 2419
3.3067412 -0.49107963 0.40881887 236 52721408 2671 11 850 2671
3.3102772 -0.53320295 0.40993184 248 52915968 2834 11 858 2834
3.3181713 -0.57633764 0.41160128 98 53111808 1128 11 740 1128
3.3333187 -0.62120342 0.41416106 22 53307392 260 11 713 260
3.3156981 -0.66012007 0.41304812 42 53502208 488 11 757 488
3.28596 -0.69622487 0.41059959 262 53696000 2993 11 837 2993
3.294621 -0.74042052 0.41260293 152 53890816 1757 11 804 1757
3.2620831 -0.77527732 0.40993184 210 54085120 2392 11 803 2392
3.2831695 -0.82298553 0.41349328 327 54278144 3795 11 799 3795
3.2757056 -0.86397374 0.41382718 246 54473216 2862 11 734 2862
3.2887995 -0.91073984 0.41660956 39 54668544 463 11 723 463
3.2792845 -0.95158398 0.41683215 26 54863104 310 11 736 310
3.2464402 -0.98540169 0.41438365 145 55058176 1693 11 758 1693
3.3142993 0.16226272 0.32511818 249 49590016 2773 12 1367 2773
3.2931437 0.1207421 0.32311362 199 49784576 2188 12 1333 2188
3.3232586 0.08102186 0.32564113 91 49980160 1014 12 1235 1014
3.2971075 0.039911821 0.32328793 202 50175232 2225 12 1291 2225
3.297349 -0.00055176381 0.32328793 215 50371072 2367 12 1298 2367
3.2911172 -0.040940221 0.32276499 34 50566912 372 12 1228 372
3.2883751 -0.081274748 0.32259068 26 50762240 284 12 1265 284
3.2741885 -0.12114171 0.32145765 119 50957312 1287 12 1264 1287
3.2664857 -0.16101694 0.32093471 245 51153408 2642 12 1276 2642
3.2781839 -0.20194879 0.32215491 19 51349504 207 12 1229 207
3.2853937 -0.2428976 0.32302645 238 51545088 2613 12 1325 2613
3.2712481 -0.28225288 0.32206774 249 51740416 2715 12 1336 2715
3.2695208 -0.32257071 0.32224205 167 51936256 1817 12 1268 1817
3.2682865 -0.36299872 0.32250354 37 52133120 414 12 1288 414
3.2576537 -0.40234494 0.3219806 34 52329728 370 12 1220 370
3.263329 -0.44376892 0.32293931 246 52525056 2700 12 1286 2700
3.232018 -0.47997382 0.32067326 45 52721408 486 12 1215 486
3.2652247 -0.52594084 0.32415947 114 52915968 1267 12 1305 1267
3.2457654 -0.56375289 0.32302645 279 53111808 3054 12 1240 3054
3.2454581 -0.6048193 0.32363656 228 53307392 2515 12 1304 2515
3.2065277 -0.63837254 0.32084757 46 53502208 495 12 1282 495
3.2023506 -0.67849988 0.3211962 33 53696000 356 12 1273 356
3.2520988 -0.73085916 0.32642552 82 53890816 928 12 1329 928
3.2283475 -0.76725554 0.32511818 34 54085120 379 12 1195 379
3.2360821 -0.81117654 0.32668701 29 54278144 326 12 1252 326
3.2229943 -0.85006464 0.32642552 267 54473216 2999 12 1318 2999
3.20944 -0.88875383 0.32616407 237 54668544 2658 12 1331 2658
3.216469 -0.93334854 0.32782003 237 54863104 2681 12 1218 2681
3.2443075 -0.040352471 0.23931952 148 50566912 1574 13 874 1574
3.2385793 -0.080038197 0.23900557 266 50762240 2805 13 760 2805
3.2243879 -0.11929329 0.23818928 328 50957312 3430 13 812 3430
3.2226813 -0.15885252 0.23818928 352 51153408 3682 13 784 3682
3.2095318 -0.1977115 0.23749858 66 51349504 688 13 740 688
3.2287605 -0.23870394 0.23887998 32 51545088 340 13 709 340
3.2027187 -0.2763319 0.2374358 126 51740416 1311 13 710 1311
3.207032 -0.3163982 0.23793812 316 51936256 3297 13 803 3297
3.2058835 -0.35606048 0.23812649 338 52133120 3534 13 761 3534
3.2220731 -0.39794624 0.23944509 77 52329728 818 13 721 818
3.2169471 -0.43745607 0.23944509 94 52525056 998 13 732 998
3.208375 -0.47645983 0.23925672 274 52721408 2897 13 775 2897
3.1983452 -0.51516038 0.23900557 28 52915968 298 13 720 298
3.1868663 -0.55351567 0.23869161 31 53111808 329 13 712 329
3.1925881 -0.59496021 0.23950788 200 53307392 2120 13 766 2120
3.1899407 -0.6350683 0.23982184 293 53502208 3116 13 743 3116
3.1867888 -0.67520082 0.24013579 287 53696000 3060 13 744 3060
3.2250016 -0.72476614 0.24314973 106 53890816 1165 13 761 1165
3.1818812 -0.75620657 0.24095206 356 54085120 3825 13 759 3825
3.1849465 -0.7983523 0.24176835 154 54278144 1670 13 746 1670
3.1797347 -0.83864957 0.2420823 45 54473216 491 13 739 491
3.1740127 -0.87893897 0.24239625 72 54668544 786 13 757 786
3.1965337 -0.92756122 0.24459392 117 54863104 1302 13 812 1302
3.1504607 -0.31025225 0.1560863 197 51936256 1981 14 1154 1981
3.167273 -0.35120517 0.15688512 316 52133120 3217 14 1171 3217
3.1597495 -0.38967875 0.156771 280 52329728 2846 14 1090 2846
3.1606705 -0.42923191 0.15699925 134 52525056 1370 14 1086 1370
3.150223 -0.46725222 0.15680905 279 52721408 2837 14 1177 2837
3.1373458 -0.50476319 0.15654276 317 52915968 3209 14 1112 3209
3.1309154 -0.54322523 0.15654276 170 53111808 1723 14 1155 1723
3.1053483 -0.57812822 0.15582003 29 53307392 294 14 1066 294
3.099 -0.61638713 0.15585807 30 53502208 305 14 1073 305
3.1293285 -0.66244584 0.15734158 272 53696000 2792 14 1077 2792
3.1248636 -0.70167387 0.15749374 194 53890816 1998 14 1068 1998
3.1296287 -0.74320185 0.15802629 122 54085120 1267 14 1142 1267
3.1115491 -0.77936506 0.15768394 350 54278144 3613 14 1078 3613
3.1075482 -0.8190186 0.15791218 335 54473216 3467 14 1181 3467
3.1174877 -0.86269045 0.15871099 315 54668544 3306 14 1112 3306
3.4321647 -0.46613541 0.083722539 481 52525056 5775 15 1233 5775
3.1043627 -0.57794458 0.079503514 288 53307392 2880 15 946 2880
3.0960562 -0.61580122 0.07948973 270 53502208 2699 15 957 2699
3.0921791 -0.65457702 0.079544879 310 53696000 3106 15 950 3106
3.0887914 -0.69356942 0.07961382 341 53890816 3427 15 929 3427
3.0888031 -0.73350173 0.079737909 59 54085120 604 15 880 604
3.0689003 -0.76867718 0.079586245 38 54278144 390 15 863 390
3.0611701 -0.80678928 0.07961382 178 54473216 1794 15 873 1794
