# .PCD v0.7 - Point Cloud Data file format
VERSION 0.7
FIELDS x y z intensity t reflectivity ring noise range
SIZE 4 4 4 4 4 2 2 2 4
TYPE F F F F U U U U U
COUNT 1 1 1 1 1 1 1 1 1
WIDTH 806
HEIGHT 1
VIEWPOINT 0 0 0 1 0 0 0
POINTS 806
DATA ascii
-0.16561612 0.69604313 0.062814675 740 21676032 380 14 1346 380
-0.15793747 0.70192319 0.062966831 809 21876992 419 14 1386 419
-0.15034617 0.7086966 0.063157029 778 22064384 409 14 1368 409
-0.14241743 0.71440858 0.063309185 724 22266880 386 14 1343 386
-0.13455382 0.72101456 0.063499384 800 22452992 431 14 1377 431
-0.12603718 0.72458065 0.063575462 803 22657280 436 14 1386 436
-0.11745325 0.72804594 0.063651539 746 22842624 407 14 1313 407
-0.10880319 0.73140943 0.063727617 751 23049216 411 14 1227 411
-0.099953853 0.73367971 0.063765652 753 23232256 414 14 1301 414
-0.091309592 0.73782641 0.063879773 739 23425536 410 14 1358 410
-0.082798623 0.74385732 0.064069964 745 23634944 418 14 1312 418
-0.074251138 0.75078422 0.064298198 744 23814144 424 14 1292 424
-0.065460406 0.75661689 0.064488396 760 24026368 439 14 1284 439
-0.056611039 0.76334268 0.06471663 726 24203008 427 14 1296 427
-0.047545224 0.76896691 0.064906821 781 24417536 465 14 1274 465
-0.038300931 0.77348477 0.065058976 728 24594944 438 14 1340 438
-0.028989557 0.77888954 0.065249175 765 24789248 465 14 1390 465
-0.019600103 0.78617948 0.065515444 753 24986112 467 14 1312 467
-0.010072532 0.79635286 0.065895841 821 25183232 522 14 1300 522
-0.00029853641 0.80341142 0.066162109 768 25395456 496 14 1284 496
0.0096719246 0.81234741 0.066504464 745 25574656 492 14 1257 492
0.019787744 0.81816137 0.066732697 755 25786624 508 14 1303 508
0.030195247 0.82784289 0.067113087 792 25967360 545 14 1275 545
0.040745009 0.83539456 0.067417398 753 26177024 528 14 1330 528
0.051545981 0.84380811 0.067759745 779 26359040 558 14 1268 558
0.062780365 0.85507077 0.06821622 812 26554112 597 14 1275 597
0.074212953 0.86518741 0.068634644 865 26750208 654 14 1319 654
0.086001202 0.87614501 0.069091111 817 26946048 635 14 1324 635
0.097518131 0.88197589 0.069357388 815 27149568 643 14 1332 643
0.10931343 0.88864672 0.069661699 864 27336960 694 14 1301 694
0.1211524 0.89416957 0.069927968 954 27536896 778 14 1356 778
0.1329965 0.89854622 0.070156202 1197 27726080 989 14 1394 989
0.14496614 0.90276587 0.070384435 1304 27924224 1092 14 1427 1092
0.15603355 0.90091896 0.070384435 1401 28117248 1173 14 1449 1173
0.16652842 0.89598924 0.070270322 1729 28312832 1441 14 1489 1441
0.17751105 0.89387822 0.070270322 1355 28508416 1129 14 1485 1129
0.18598212 0.87990153 0.069813855 2294 28704256 1861 14 1530 1861
0.1982992 0.88437778 0.070080124 1375 28899584 1132 14 1530 1132
0.21029194 0.88673878 0.070270322 1581 29096192 1317 14 1482 1317
0.21897157 0.8753677 0.069927968 1128 29289728 921 14 1459 921
0.22638495 0.86005342 0.069433466 960 29487872 761 14 1386 761
0.23398921 0.84661704 0.069015034 947 29678336 732 14 1376 732
0.24129824 0.83312511 0.068596609 996 29878528 752 14 1320 752
0.24831183 0.81958294 0.068178177 975 30068224 717 14 1384 717
0.25533175 0.80694818 0.067797787 934 30263552 671 14 1345 671
0.26302013 0.79711246 0.067531511 938 30457856 662 14 1342 662
0.26920515 0.78343105 0.067113087 908 30651904 625 14 1415 625
0.27576804 0.77160102 0.066770732 935 30857472 630 14 1402 630
0.28068852 0.75598276 0.06627623 876 31041792 572 14 1408 572
0.28562763 0.74129403 0.065819763 871 31248896 552 14 1344 552
0.28987798 0.72567177 0.065325253 827 31431168 506 14 1393 506
0.29493621 0.71282822 0.064944863 884 31641088 528 14 1356 528
0.29972342 0.69997114 0.064564474 852 31820544 495 14 1383 495
0.30383506 0.68619186 0.064146042 845 32015104 477 14 1331 477
0.3093192 0.67605239 0.063879773 806 32209664 446 14 1367 446
0.31502807 0.66678596 0.063651539 872 32404992 476 14 1340 476
0.32187164 0.66017592 0.063537419 831 32618240 449 14 1362 449
0.32860062 0.65349877 0.063423306 758 32793344 407 14 1352 407
0.32969078 0.63611293 0.062852718 553 33007104 284 14 1204 284
0.34689507 0.64964384 0.063613497 121 33184512 66 14 1046 66
0.36592549 0.66547179 0.064488396 71 33395712 41 14 1071 41
0.38243911 0.6757111 0.065135054 21 33574400 12 14 1084 12
0 0 0 8 33784576 0 14 984 0
0 0 0 10 33964032 0 14 1059 0
0.76881993 1.2481471 0.091381967 14 34159104 30 14 1151 30
0 0 0 7 34366464 0 14 1054 0
0.85699177 1.3176847 0.095414102 10 34550784 25 14 1070 25
0.90030491 1.3477784 0.097278014 47 34758400 125 14 1071 125
0.91338396 1.3316852 0.09704978 26 34944256 69 14 1043 69
0.94922334 1.3481519 0.098343104 209 35148800 570 14 1101 570
0.94813192 1.3121078 0.097201936 48 35337984 126 14 1168 126
0.56051093 0.75623739 0.07141149 58 35542016 51 14 1098 51
0.56309217 0.74055499 0.070993066 153 35733248 133 14 1110 133
0.57767135 0.74067861 0.071335413 107 35928832 95 14 1116 95
0.61232132 0.76551819 0.072895013 253 36131328 244 14 1171 244
0.63688576 0.7764836 0.073807947 320 36324608 323 14 1150 323
0.65987885 0.78466493 0.074606769 336 36524800 354 14 1137 354
0.68512499 0.79466629 0.075519703 391 36717312 432 14 1070 432
0.71667176 0.81090015 0.076774992 395 36915456 464 14 1128 464
0.7426765 0.8198126 0.077687927 364 37110272 446 14 1192 446
0.77716774 0.83699089 0.079057328 322 37305088 421 14 1183 421
0.80667573 0.84765297 0.080122426 321 37501184 440 14 1170 440
0.8330698 0.85413814 0.080997318 328 37694464 467 14 1243 467
0.85691547 0.85727459 0.081720062 341 37886976 502 14 1173 502
0.88382268 0.86274362 0.082594961 324 38080768 496 14 1103 496
0.91171443 0.86836791 0.083507895 256 38274816 407 14 1139 407
0.94280356 0.87615514 0.084572986 123 38474496 204 14 1090 204
0.96903461 0.87861037 0.085371807 12 38662400 21 14 1045 21
0 0 0 7 38856704 0 14 1038 0
0 0 0 10 39051264 0 14 1117 0
0 0 0 10 39255808 0 14 1016 0
2.8155859 2.3106771 0.1742309 328 39439872 4362 14 1135 4362
2.8390479 2.2722056 0.17400268 398 39634944 5278 14 1102 5278
2.858839 2.2310481 0.17362228 399 39843328 5260 14 1131 5260
2.8828208 2.1933777 0.17347012 431 40022784 5668 14 1172 5668
2.9047039 2.1542649 0.17324188 409 40232192 5363 14 1111 5363
2.9260616 2.1149457 0.17301366 451 40410368 5890 14 1239 5890
2.9607825 2.0852075 0.17343208 556 40624128 7308 14 1183 7308
2.9877965 2.0498476 0.17350817 640 40800256 8419 14 1181 8419
3.0118954 2.0124733 0.17347012 691 41014272 9084 14 1229 9084
3.0372024 1.975906 0.17350817 695 41190656 9141 14 1203 9141
3.0645983 1.9406242 0.17366032 692 41386752 9125 14 1180 9125
3.0830772 1.899726 0.17343208 603 41598720 7922 14 1197 7922
3.1138721 1.8663716 0.17377444 579 41777408 7647 14 1208 7647
3.1322238 1.8255037 0.17358424 545 41988096 7178 14 1204 7178
3.1430862 1.7805272 0.17308973 486 42168320 6355 14 1135 6355
3.1725786 1.7461584 0.17343208 982 42377472 12902 14 1276 12902
3.2069879 1.7141588 0.17400268 444 42560768 5884 14 1128 5884
2.3815384 1.2357314 0.13771346 425 42767872 3066 14 1258 3066
2.4036646 1.2100067 0.13801777 299 42952704 2172 14 1099 2172
2.4201283 1.1812954 0.13809386 58 43149568 425 14 1060 425
2.4344423 1.1515077 0.13809386 52 43353600 381 14 1063 381
2.4311273 1.1136421 0.13737111 109 43540736 782 14 1140 782
2.4345608 1.0792712 0.13695268 418 43743488 2973 14 1081 2973
2.4402738 1.0461653 0.13664837 89 43931648 631 14 1103 631
2.4483118 1.0142291 0.13645817 83 44130304 586 14 1138 586
2.4596457 0.98373723 0.13642015 452 44321280 3178 14 1184 3178
2.4659386 0.95132232 0.1361919 472 44516608 3304 14 1176 3304
2.46806 0.9175092 0.13581152 482 44711168 3349 14 1222 3349
2.4866605 0.88984555 0.13611583 393 44906496 2748 14 1121 2748
2.4851086 0.85503876 0.13562132 546 45101824 3778 14 1196 3778
2.4935164 0.82385159 0.13554524 548 45297152 3793 14 1319 3793
2.5053439 0.79379362 0.13562132 526 45491712 3640 14 1217 3640
2.4976833 0.75776994 0.13493662 239 45689344 1633 14 1117 1633
2.5115931 0.72845358 0.13512681 409 45880064 2803 14 1194 2803
2.5347898 0.70157379 0.13569739 586 46080000 4061 14 1260 4061
2.5403094 0.66965151 0.13558328 565 46267904 3907 14 1213 3907
2.5425196 0.63697135 0.13535504 586 46464000 4033 14 1253 4033
2.5462558 0.60479963 0.13520288 711 46659072 4877 14 1242 4877
2.5544608 0.57372648 0.13524093 681 46853888 4677 14 1234 4677
2.5632644 0.54274982 0.13531701 582 47058688 4004 14 1243 4004
2.5697317 0.51125371 0.13531701 681 47243776 4691 14 1299 4691
2.5758121 0.47968069 0.13531701 741 47450368 5098 14 1239 5098
2.5854428 0.44871831 0.13546917 656 47633152 4527 14 1154 4527
2.5917413 0.41711581 0.13550721 611 47841792 4218 14 1256 4218
2.5966647 0.38527974 0.13550721 622 48022784 4294 14 1243 4294
2.5992167 0.3531169 0.13543113 531 48232704 3659 14 1270 3659
2.5825272 0.31862745 0.1346323 397 48411904 2694 14 1199 2694
3.7264359 0.41323102 0.17830108 48 48606464 682 14 1092 682
3.7371931 0.36805782 0.17852931 60 48820480 853 14 1089 853
3.782248 0.32567969 0.18008891 48 48996096 700 14 1051 700
3.8019049 0.28041559 0.18069753 58 49211648 851 14 1085 851
3.8319898 0.2353908 0.18172459 61 49388032 907 14 1097 907
3.8655303 0.18986528 0.1829038 55 49600000 831 14 1107 831
3.8945312 0.14340511 0.18393084 51 49777920 783 14 1058 783
3.9109826 0.095968649 0.18450144 77 49973504 1189 14 1034 1189
3.977813 0.048769787 0.187012 72 50168064 1147 14 1098 1147
4.0980253 -6.0850198e-05 0.19157669 65 50363136 1100 14 1116 1100
4.3215365 -0.053121168 0.20009743 218 50570496 4082 14 1199 4082
4.3585205 -0.1070851 0.2015429 240 50754304 4575 14 1160 4575
4.3858371 -0.16163258 0.20264603 265 50958592 5121 14 1102 5121
4.3925061 -0.21588366 0.20298839 273 51145216 5297 14 1101 5297
4.4374008 -0.2727167 0.20481426 306 51348992 6065 14 1097 6065
4.4715896 -0.32994744 0.20625974 329 51537152 6630 14 1167 6630
4.5179782 -0.38917392 0.20819972 320 51739136 6597 14 1134 6597
4.5357347 -0.44684243 0.20907463 338 51929088 7040 14 1140 7040
4.5547395 -0.50522548 0.21002561 381 52125696 8021 14 1137 8021
4.5829077 -0.56536615 0.21135697 482 52324864 10305 14 1069 10305
4.6201825 -0.6276195 0.21306872 317 52516352 6910 14 1144 6910
7.4677491 -1.108178 0.32296339 106 52714240 6063 14 1194 6063
7.5887475 -1.2214979 0.32817474 343 52907264 20312 14 1183 20312
5.2250447 -0.90682644 0.23745172 241 53102080 6793 14 1227 6793
5.2439766 -0.97655094 0.23863092 249 53299200 7105 14 1153 7105
5.2953014 -1.0535077 0.24110346 228 53492224 6666 14 1159 6666
5.3513832 -1.1331117 0.24380423 258 53686784 7744 14 1103 7744
5.4053235 -1.2140296 0.24646696 393 53882112 12088 14 1203 12088
5.4493232 -1.2943605 0.24878734 543 54076160 17075 14 1100 17075
5.2197824 -1.3076944 0.24041876 1057 54275584 30661 14 1267 30661
5.1598606 -1.3601854 0.23870701 1365 54462976 38961 14 1321 38961
5.6214161 -1.5559149 0.25761238 865 54667008 29479 14 1214 29479
5.668119 -1.6439923 0.26023707 980 54852608 34197 14 1151 34197
5.3071051 -1.6101214 0.24669519 739 55058432 22791 14 1755 22791
5.2240763 -1.6552017 0.24418463 484 55242240 14568 14 1599 14568
4.555336 -1.5050242 0.21820399 631 55449600 14548 14 1273 14548
4.4930592 -1.5458537 0.21645419 719 55631360 16261 14 1198 16261
4.4436445 -1.590098 0.21523695 661 55825920 14754 14 1172 14754
4.4191136 -1.6427673 0.21504675 573 56036864 12762 14 1172 12762
5.1546993 -1.9886191 0.24589637 1061 56215808 32464 14 1422 32464
5.1261969 -2.0502408 0.24574421 1342 56428544 40991 14 1412 40991
5.1163449 -2.1194954 0.24639088 1411 56604416 43362 14 1473 43362
5.3342462 -2.2868738 0.25650924 1685 56819456 56883 14 1358 56883
5.0289893 -2.2294316 0.24498343 150 56996096 4556 14 1129 4556
4.9576459 -2.2709982 0.24315757 180 57191168 5372 14 1129 5372
4.8779163 -2.3073068 0.24098934 184 57387520 5381 14 1076 5381
4.8007445 -2.3433189 0.23893525 131 57583872 3762 14 1021 3762
4.7421732 -2.3872254 0.23767996 135 57796096 3826 14 1062 3826
4.6885738 -2.4328113 0.2366529 116 57974784 3253 14 1111 3253
4.641623 -2.4812124 0.23593016 118 58184960 3284 14 1123 3284
4.1521244 -2.2854538 0.21599773 25 58367488 569 14 1145 569
4.1107244 -2.328845 0.21542715 24 58574336 545 14 1111 545
4.0740666 -2.3745852 0.21508479 18 58757120 412 14 1058 412
4.0514765 -2.4285121 0.2153891 9 58963968 211 14 1082 211
4.0392342 -2.4890575 0.21618792 8 59148800 192 14 1058 192
4.4583354 -2.8234341 0.23646271 57 59344896 1603 14 1071 1603
4.4124637 -2.8708467 0.2359682 1486 59540224 41263 14 1523 41263
4.3436694 -2.9025681 0.23444664 1186 59735808 32438 14 1417 32438
3.9633203 -2.7193108 0.21854633 527 59936768 12198 14 1222 12198
3.9329195 -2.7700438 0.21869849 544 60126720 12615 14 1161 12615
3.9026797 -2.8210256 0.21888869 520 60321024 12086 14 1144 12086
3.8846211 -2.8812075 0.21968751 318 60517376 7452 14 1260 7452
3.1587427 -2.4033823 0.18666966 199 60713216 3145 14 1159 3145
3.0124307 -2.3509629 0.18103988 15 60908032 226 14 1068 226
1.3334339 -1.0669518 0.10058741 540 61102592 1578 14 1193 1578
1.3163785 -1.0800647 0.10039721 956 61297152 2778 14 1255 2778
1.2999672 -1.0935634 0.10024505 1102 61495552 3188 14 1299 3188
1.2849363 -1.1081282 0.10016897 1335 61686016 3851 14 1403 3851
1.2749838 -1.127123 0.10035917 1622 61885440 4707 14 1414 4707
1.2714211 -1.1520803 0.10089172 2225 62075392 6564 14 1576 6564
1.2447426 -1.1560326 0.10024505 2893 62277632 8366 14 1738 8366
1.2073059 -1.1491686 0.099027805 3768 62465024 10494 14 2411 10494
1.2124217 -1.1827422 0.10005486 2772 62669056 7973 14 1902 7973
1.1533056 -1.1530111 0.097658403 1539 62854656 4103 14 1592 4103
0.87949061 -0.90098959 0.083507895 1483 63050752 2357 14 1273 2357
0.86836791 -0.91171443 0.083507895 384 63257856 610 14 1138 610
0.89791608 -0.96623391 0.085790232 56 63441920 98 14 1116 98
0 -0 0 147 63650304 0 14 1136 0
1.1280853 -1.2754668 0.10039721 985 63834624 2862 14 1261 2862
1.0673177 -1.2369995 0.097772516 91 64045568 244 14 1094 244
0.81725955 -0.97089452 0.083888285 29 64228608 47 14 1075 47
0 -0 0 12 64423936 0 14 1062 0
1.0753801 -1.3433273 0.10108191 361 64619520 1072 14 1181 1072
1.0606585 -1.3587862 0.10119603 413 64815104 1230 14 1118 1230
1.0432992 -1.3709044 0.10115799 350 65028608 1042 14 1058 1042
1.0287783 -1.3868148 0.10131014 283 65205760 845 14 1173 845
1.0151942 -1.4041947 0.10153838 278 65421056 836 14 1165 836
1.0036391 -1.4247175 0.10191877 252 65596928 767 14 1144 767
0.99229765 -1.445991 0.1023372 243 65811456 750 14 1088 750
0.97780889 -1.4630448 0.10256543 242 65988096 751 14 1116 751
0.96032625 -1.4757715 0.10260347 203 66201600 632 14 1073 632
0.94214398 -1.4874451 0.10260347 187 66380800 582 14 1079 582
0.91543394 -1.4852819 0.10199485 83 66575360 254 14 1085 254
0.90535647 -1.5101185 0.10260347 142 66783232 442 14 1077 442
0.88273221 -1.5142076 0.10229916 213 66965248 656 14 1084 656
0.8611294 -1.5197091 0.10207093 233 67173632 713 14 1056 713
0.83615279 -1.5187807 0.10157642 302 67356672 911 14 1076 911
0.81839395 -1.5306898 0.1016525 381 67560704 1150 14 1141 1150
0.79494733 -1.5317471 0.10127211 229 67746560 684 14 1125 684
0.35609928 -0.70678085 0.065705642 35 67942400 22 14 1143 22
0.34696096 -0.71019948 0.065667607 31 68138240 19 14 1018 19
0.3373653 -0.71259695 0.065591522 41 68334848 25 14 1065 25
0.32817921 -0.71577471 0.065553486 38 68534528 23 14 1113 23
0.318966 -0.71883452 0.065515444 41 68724992 25 14 1090 25
0.30815274 -0.71810216 0.065325253 56 68923136 34 14 1079 34
0.30314037 -0.73106211 0.065705642 424 69116672 266 14 1164 266
0.29303345 -0.73194343 0.065591522 609 69315072 380 14 1419 380
0.28402933 -0.7354843 0.065591522 613 69510912 381 14 1558 381
0.27428627 -0.737041 0.065515444 676 69706752 419 14 1697 419
0.26488447 -0.73941052 0.065477408 748 69903104 463 14 1606 463
0.25611579 -0.7435503 0.065515444 769 70096384 477 14 1620 477
0.24697199 -0.74663728 0.065515444 802 70292224 497 14 1443 497
0.237791 -0.74961179 0.065515444 835 70490368 518 14 1329 518
0.22828424 -0.75151712 0.065477408 794 70681600 492 14 1333 492
0.21904479 -0.75426191 0.065477408 853 70881792 527 14 1287 527
0.20923951 -0.75496691 0.065401331 821 71070976 505 14 1267 505
0.19970457 -0.75651145 0.065363288 752 71273728 461 14 1190 461
0.18992057 -0.75696647 0.06528721 706 71461888 431 14 1307 431
0.18038635 -0.75826782 0.065249175 708 71655168 432 14 1301 432
0.17062998 -0.75847429 0.065173097 804 71850752 487 14 1199 487
0.16130948 -0.7605111 0.065173097 907 72045312 549 14 1179 549
0.15176985 -0.76145327 0.065135054 932 72250624 563 14 1270 563
0.14296262 -0.76620561 0.065249175 768 72431360 468 14 1216 468
0.13354933 -0.76790226 0.065249175 736 72640256 448 14 1228 448
0.12411594 -0.76948333 0.065249175 678 72818176 413 14 1306 413
0.11495689 -0.77292544 0.065325253 761 73028352 465 14 1256 465
0.10573199 -0.77625829 0.065401331 815 73206016 501 14 1228 501
0.096809216 -0.78245622 0.065591522 879 73399808 547 14 1246 547
0.087420054 -0.78557169 0.065667607 764 73596160 478 14 1237 478
0.077871136 -0.78757983 0.065705642 796 73792256 500 14 1201 500
0.068457335 -0.7914629 0.065819763 823 74005760 520 14 1208 520
0.058739714 -0.79224342 0.065819763 781 74184192 493 14 1182 493
0.048890911 -0.79090977 0.065743685 701 74397952 441 14 1233 441
0.039230473 -0.79244828 0.06578172 670 74577152 422 14 1170 422
0.029502962 -0.79286999 0.06578172 655 74789376 413 14 1216 413
0.01974659 -0.79217339 0.065743685 645 74970368 406 14 1225 406
0.010023918 -0.79235601 0.065743685 627 75178240 394 14 1232 394
0.00030115253 -0.77942878 0.065249175 166 75362048 101 14 1067 101
-0.009214174 -0.77537698 0.065097019 63 75557888 38 14 1102 38
-0.018827079 -0.77920145 0.065249175 39 75761664 24 14 1057 24
-0.028608998 -0.78490329 0.065477408 38 75948544 23 14 1112 23
-0.038238816 -0.78449315 0.065477408 51 76152576 31 14 1094 31
-0.047924258 -0.78496218 0.065515444 37 76341248 23 14 1102 23
-0.057921443 -0.78929776 0.065705642 46 76544256 29 14 1104 29
-0 -0 0 9 76733952 0 14 1042 0
-1.6686038 -16.926628 0.68304056 18 76927744 5328 14 1116 5328
-1.887219 -17.004196 0.68684447 45 77122816 13339 14 1068 13339
-2.1122725 -17.113642 0.69197971 43 77318144 12954 14 1070 12954
-2.3487732 -17.282486 0.69951141 71 77516032 21784 14 1066 21784
-2.5862105 -17.424351 0.70613021 55 77709312 17262 14 1048 17262
-2.8384402 -17.631039 0.71537369 41 77904384 13282 14 1034 13282
-3.0841599 -17.765205 0.72195446 35 78101248 11583 14 1038 11583
-3.3345108 -17.900883 0.72872537 38 78294272 12707 14 1170 12707
-3.5935273 -18.057568 0.73644727 46 78492416 15759 14 1104 15759
-3.8544009 -18.198828 0.74371272 53 78683392 18573 14 1031 18573
-4.1282578 -18.376352 0.75253779 61 78884352 21786 14 1144 21786
-0.32394242 -1.3650664 0.08898551 121 79074048 239 14 1071 239
-0.34674224 -1.3852209 0.089936487 252 79269632 515 14 1170 515
-0.36855587 -1.3992202 0.090659223 66 79472896 139 14 1110 139
-5.32199 -19.224489 0.79491323 27 79659776 10950 14 1078 10950
-5.6184778 -19.367908 0.80324376 47 79865344 19284 14 1134 19284
-5.8986754 -19.439022 0.80887353 33 80052224 13814 14 1102 13814
-0.57503462 -1.8157338 0.10808109 48 80259072 175 14 1207 175
-0.37339261 -1.1310924 0.08092124 457 80443392 650 14 1177 650
-0.38301742 -1.1141417 0.080426738 562 80637696 781 14 1264 781
-0.39767107 -1.11218 0.080540851 496 80833024 694 14 1202 694
-0.40467218 -1.0894204 0.079818107 594 81028096 804 14 1101 804
-0.41405347 -1.0741174 0.079399683 637 81236992 847 14 1133 847
-0.42274958 -1.0578219 0.078943215 668 81414656 868 14 1200 868
-0.43302128 -1.0460923 0.078676939 645 81627392 828 14 1186 828
-0.44267538 -1.0333524 0.078372627 658 81804288 833 14 1201 833
-0.44965222 -1.0150533 0.077840082 705 82018304 871 14 1171 871
-0.45707989 -0.99855733 0.077383615 730 82192384 882 14 1167 882
-0.46630791 -0.98655003 0.077117339 779 82386944 929 14 1174 929
-0.47662568 -0.97716153 0.076965183 765 82584064 906 14 1138 906
-0.48498601 -0.96409881 0.076660872 612 82779904 714 14 1083 714
-0.51887494 -1.0006481 0.078486748 423 82988544 538 14 1154 538
-0.53865379 -1.0083051 0.079095371 388 83169792 508 14 1094 508
-0.56544465 -1.0278805 0.080236539 332 83377408 458 14 1203 458
-0.58294207 -1.0295583 0.080616929 349 83560192 489 14 1215 489
-0 -0 0 253 83765248 0 14 2644 0
-0 -0 0 118 83951616 0 14 6795 0
-0 -0 0 2 84146432 0 14 8951 0
-0 -0 0 0 84342016 0 14 10452 0
-0 -0 0 0 84537856 0 14 9726 0
-0 -0 0 3 84739072 0 14 7413 0
-0 -0 0 0 84930048 0 14 4582 0
-0 -0 0 0 85127680 0 14 5111 0
-0 -0 0 0 85320960 0 14 6522 0
-0 -0 0 7 85519360 0 14 6439 0
-0 -0 0 0 85715968 0 14 6687 0
-0 -0 0 0 85912320 0 14 8318 0
-0 -0 0 0 86109696 0 14 8051 0
-0 -0 0 0 86305536 0 14 8380 0
-0 -0 0 0 86503168 0 14 8642 0
-0 -0 0 0 86700032 0 14 7849 0
-0 -0 0 0 86893824 0 14 7223 0
-0 -0 0 0 87091712 0 14 8800 0
-0 -0 0 0 87281152 0 14 8019 0
-0 -0 0 0 87481088 0 14 7346 0
-0 -0 0 0 87669504 0 14 6953 0
-0 -0 0 0 87863552 0 14 6863 0
-0 -0 0 0 88058112 0 14 6789 0
-0 -0 0 0 88251648 0 14 6886 0
-0 -0 0 0 88457216 0 14 11719 0
-0 -0 0 0 88640512 0 14 8957 0
-0 -0 0 0 88848640 0 14 8164 0
-0 -0 0 0 89029120 0 14 8231 0
-0 -0 0 0 89238016 0 14 7670 0
-0 -0 0 0 89419008 0 14 7325 0
-0 -0 0 0 89630976 0 14 5849 0
-0 -0 0 0 89807872 0 14 5817 0
-0 -0 0 0 90001920 0 14 5745 0
-0 -0 0 0 90216704 0 14 5226 0
-0 -0 0 0 90395136 0 14 4795 0
-0 -0 0 0 90608640 0 14 5263 0
-0 -0 0 0 90787584 0 14 5221 0
-0 -0 0 0 90999808 0 14 5343 0
-0 -0 0 0 91177984 0 14 4193 0
-0 -0 0 0 91385344 0 14 4306 0
-0 -0 0 0 91567872 0 14 4212 0
-0 -0 0 0 91762688 0 14 4397 0
-0 -0 0 0 91967744 0 14 3755 0
-0 -0 0 1 92152576 0 14 2652 0
-0 -0 0 9 92356352 0 14 2422 0
-0 -0 0 2 92542976 0 14 3070 0
-0 -0 0 4 92744192 0 14 1849 0
-0 -0 0 5 92933376 0 14 1433 0
-0 -0 0 4 93129472 0 14 1475 0
-0 -0 0 8 93324032 0 14 1694 0
-0 -0 0 10 93519616 0 14 1862 0
-0 -0 0 6 93715968 0 14 1638 0
-0 -0 0 5 93911296 0 14 1614 0
-0 -0 0 5 94106112 0 14 1447 0
-0 -0 0 9 94303744 0 14 1155 0
-0 -0 0 9 94497792 0 14 1091 0
-0.90752012 -0.337634 0.072438546 16 94696704 15 14 1096 15
-0 -0 0 13 94889216 0 14 1071 0
-0.91269785 -0.31428573 0.072324425 18 95084032 17 14 1147 17
-0.87947977 -0.29084116 0.07084091 55 95279616 47 14 1096 47
-0.90013033 -0.28545699 0.071525611 213 95474432 190 14 1192 190
-0.87965852 -0.26714027 0.070574634 306 95677440 259 14 1219 259
-0.89246821 -0.2591075 0.070955023 359 95865600 310 14 1089 310
-0.89558065 -0.24813604 0.070955023 389 96069120 337 14 1208 337
-0.90145713 -0.23789094 0.071069144 398 96253952 347 14 1262 347
-0.90721661 -0.22753885 0.071183257 401 96460288 351 14 1206 351
-0.91091281 -0.21661957 0.071221299 417 96644608 366 14 1141 366
-0.91837758 -0.20651913 0.07141149 389 96851456 345 14 1213 345
-0.92964143 -0.19709536 0.071753845 333 97032192 301 14 1140 301
-0.93689054 -0.18664661 0.071944036 358 97225984 327 14 1152 327
-0.94598734 -0.17641507 0.072210312 307 97435136 285 14 1176 285
-0.95398849 -0.16581745 0.072438546 270 97612032 253 14 1196 253
-0.96088451 -0.15489124 0.072628736 244 97825280 231 14 1163 231
-0.96963227 -0.14411366 0.072895013 179 98000128 172 14 1212 172
-0.96934736 -0.13193518 0.072818935 142 98212096 136 14 1147 136
-0 -0 0 40 98388736 0 14 1168 0
-0 -0 0 7 98585088 0 14 1235 0
-0 -0 0 6 98780416 0 14 1443 0
-0 -0 0 5 98976256 0 14 1798 0
-0 -0 0 4 99171584 0 14 2123 0
-0 -0 0 3 99366912 0 14 2454 0
-0 -0 0 2 99572992 0 14 3015 0
-0 -0 0 4 99758848 0 14 2303 0
-0 -0 0 3 0 0 15 2304 0
-0 -0 0 4 196864 0 15 2808 0
-0 0 0 4 393728 0 15 2423 0
-0 0 0 4 607488 0 15 2267 0
-0 0 0 18 783872 0 15 1962 0
-0 0 0 57 979968 0 15 1530 0
-0 0 0 23 1175552 0 15 1262 0
-0 0 0 17 1385472 0 15 1294 0
-0 0 0 19 1566720 0 15 1089 0
-0 0 0 22 1763328 0 15 1068 0
-0 0 0 36 1971456 0 15 1001 0
-1.1041582 0.12218221 0.051280167 217 2154240 268 15 1012 268
-1.0618883 0.13069993 0.050714873 495 2362368 567 15 1048 567
-1.0413795 0.14116225 0.050452907 557 2545920 616 15 1010 616
-1.0227547 0.15143493 0.050218519 645 2749696 691 15 1010 691
-1.008973 0.16206689 0.050053064 668 2936832 698 15 1046 698
-0.99902689 0.17306791 0.049942765 631 3130112 650 15 977 650
-0.9869979 0.18348318 0.049804889 670 3325440 677 15 1063 677
-0.97486526 0.19362956 0.049667012 671 3521280 664 15 1025 664
-0.9616555 0.2032989 0.049515348 680 3717120 657 15 1099 657
-0.94640571 0.21223515 0.049336106 615 3912192 579 15 1060 579
-0.93302894 0.22129045 0.049184442 624 4109824 575 15 1041 575
-0.92733335 0.23199432 0.04914308 669 4304896 612 15 1032 612
-0.90991378 0.23953244 0.048936263 598 4498432 530 15 1035 530
-0.89245099 0.24667856 0.04872945 469 4695296 403 15 1000 403
-0.88071388 0.25510436 0.04860536 380 4888320 320 15 985 320
-0.88612843 0.26850611 0.04872945 204 5085696 175 15 923 175
-0.88562626 0.28026628 0.048770811 114 5275648 99 15 939 99
-0.84794176 0.279818 0.048274457 68 5471488 54 15 939 54
-0.84538954 0.29052785 0.048288245 27 5672448 22 15 925 22
-0.84364355 0.30155411 0.048315819 22 5861120 18 15 933 18
-0.8417539 0.31258121 0.048343394 23 6065152 19 15 933 19
-0.8387875 0.32324725 0.048357181 40 6251264 33 15 945 33
-0.81247658 0.32460293 0.048026279 75 6456832 57 15 850 57
-0.77240574 0.31962165 0.047488559 225 6641152 157 15 958 157
-0.75280261 0.32237726 0.047254167 384 6848000 258 15 913 258
-0.74604768 0.33037513 0.047212806 428 7031040 285 15 964 285
-0.73739207 0.33742294 0.047143869 583 7223552 384 15 916 384
-0.72415727 0.34217036 0.047005992 685 7433984 440 15 986 440
-0.71091837 0.34664437 0.046868116 817 7611392 512 15 993 512
-0.70125246 0.35264435 0.046785388 856 7822080 529 15 1014 529
-0.69420964 0.35984147 0.046744026 897 7999232 550 15 1012 550
-0.68885976 0.36786193 0.046730239 853 8211456 521 15 1044 521
-0.6816659 0.37484092 0.046688873 924 8386560 560 15 991 560
-0.67353487 0.38120598 0.046633724 884 8580608 530 15 1052 530
-0.6627593 0.38591751 0.046537209 968 8774656 571 15 1074 571
-0.65540087 0.39247909 0.046495847 889 8971264 519 15 1002 519
-0.64542788 0.3973445 0.04641312 874 9166592 503 15 1098 503
-0.63712436 0.40309483 0.046357971 905 9362176 515 15 1051 515
-0.6279394 0.40815616 0.046289034 913 9570816 513 15 1072 513
-0.6203894 0.41416436 0.046247669 889 9755904 496 15 1093 496
-0.6136114 0.42061478 0.046220094 892 9952768 494 15 1136 494
-0 0 0 1084 10149632 0 15 1555 0
-0.35190612 0.25393939 0.041945919 8416 10356224 1586 15 4333 1586
-0.36482471 0.27015331 0.042221673 10014 10543104 2067 15 6363 2067
-0.36705193 0.27884871 0.042318184 10109 10739200 2156 15 6459 2156
-0.35177931 0.27410313 0.042111371 8909 10943232 1773 15 5685 1773
-0 0 0 5371 11133184 0 15 2138 0
-0 0 0 5319 11333376 0 15 1524 0
-0 0 0 3163 11521792 0 15 1468 0
-0 0 0 2526 11720192 0 15 1514 0
-0.36726478 0.32430577 0.042718027 1655 11912448 398 15 1537 398
-0.39288971 0.35565129 0.043269534 1077 12107008 302 15 1197 302
-0.43977144 0.40808901 0.044234671 652 12301056 235 15 1152 235
-0.47672844 0.4534491 0.045034356 565 12494336 245 15 1132 245
-0.47399035 0.46205869 0.045089506 743 12687616 325 15 1127 325
-0.48525161 0.48481128 0.045420408 1222 12885504 575 15 1239 575
-0.47926569 0.49072957 0.045420408 1233 13076480 580 15 1205 580
-0.45666209 0.47919187 0.045089506 3237 13277440 1419 15 1444 1419
-0.46707824 0.50234354 0.045420408 1791 13466112 843 15 1313 843
-0.44476458 0.49025458 0.045089506 7164 13668352 3140 15 3507 3140
-0.46123213 0.5211463 0.045558285 2319 13855232 1125 15 1476 1125
-0.42476285 0.49193549 0.044924054 5863 14060544 2478 15 1807 2478
-0.4463726 0.53001302 0.045516923 1928 14248192 927 15 1330 927
-0.43539518 0.53003979 0.045420408 1539 14444288 724 15 1316 724
-0.43198156 0.5392465 0.045489348 1348 14653184 644 15 1251 644
-0.42533165 0.54450697 0.045489348 1314 14839296 628 15 1287 628
-0.41861767 0.54968542 0.045489348 1404 15047936 671 15 1253 671
-0.41064957 0.55317473 0.045461774 1445 15230976 687 15 1230 687
-0.40031642 0.55330968 0.045379046 1571 15439616 733 15 1258 733
-0.39292064 0.55736297 0.045365259 1562 15620352 727 15 1259 727
-0.38492018 0.56049359 0.045337684 1636 15814912 758 15 1300 758
-0.37190339 0.55602902 0.04518602 1867 16011008 837 15 1258 837
-0.36450687 0.55971277 0.045172233 1839 16204800 823 15 1296 823
-0.35761088 0.56414366 0.045172233 1926 16417280 862 15 1327 862
-0.35223439 0.57104361 0.045213595 1835 16591872 828 15 1305 828
-0.34520027 0.57532305 0.045213595 1842 16807168 831 15 1301 831
-0.3381142 0.57951587 0.045213595 1823 16982272 822 15 1220 822
-0.33344096 0.58797175 0.045282532 1628 17193728 744 15 1193 744
-0.32379031 0.58763909 0.045213595 1759 17371904 792 15 1273 792
-0.31985348 0.59774148 0.04531011 1532 17580032 705 15 1198 705
-0.31249422 0.60162157 0.04531011 1477 17761792 680 15 1179 680
-0.30463839 0.60451788 0.045296323 1396 17957376 641 15 1219 641
-0.29719707 0.60821068 0.045296323 1285 18163712 589 15 1231 589
-0.29013842 0.61271596 0.04531011 1189 18349056 547 15 1233 547
-0.28426278 0.61986673 0.045365259 1072 18554624 499 15 1145 499
-0.27663466 0.62330842 0.045365259 1070 18740736 498 15 1155 498
-0.26896489 0.62665623 0.045365259 1065 18944512 495 15 1202 495
-0.26163715 0.63083345 0.045379046 1059 19135744 495 15 1189 495
-0.25536087 0.63771051 0.045434199 1007 19337728 476 15 1167 476
-0.24895498 0.64452791 0.045489348 971 19525888 464 15 1191 464
-0.24242002 0.65128362 0.045544498 891 19721984 430 15 1192 430
-0.2360933 0.65891689 0.045613438 860 19920896 421 15 1210 421
-0.22831477 0.66271007 0.045627225 847 20114944 416 15 1146 416
-0.2201651 0.6654619 0.045627225 809 20312576 398 15 1205 398
-0.2128879 0.6709733 0.045668587 785 20506880 389 15 1227 389
-0.20492814 0.67449212 0.045682374 777 20704512 387 15 1129 387
-0.19719245 0.67887688 0.045709949 743 20899840 372 15 1146 372
-0.18964648 0.68413675 0.045751315 774 21093888 390 15 1201 390
-0.18174626 0.68834633 0.045778889 775 21289472 393 15 1162 393
-0.17425691 0.69440466 0.045834038 749 21483520 384 15 1248 384
-0.16641517 0.69940937 0.045875404 793 21676032 411 15 1137 411
-0.15891467 0.70627707 0.045944341 748 21876992 392 15 1224 392
-0.15085655 0.71110874 0.045985702 775 22064384 410 15 1183 410
-0.14250873 0.71486789 0.046013281 755 22266880 402 15 1181 402
-0.1340913 0.71852893 0.046040855 744 22452992 398 15 1163 398
-0.12577626 0.72307593 0.046082217 758 22657280 409 15 1168 409
-0.11736974 0.72752661 0.046123579 730 22842624 397 15 1095 397
-0.10887286 0.73187941 0.046164945 743 23049216 407 15 1088 407
-0.10028676 0.73613286 0.046206307 774 23232256 427 15 1209 427
-0.091734886 0.74127769 0.046261456 776 23425536 433 15 1116 433
-0.08318188 0.74731672 0.046330396 721 23634944 408 15 1150 408
-0.074396484 0.75226158 0.046385545 813 23814144 465 15 1161 465
-0.065587878 0.75809908 0.046454486 749 24026368 434 15 1128 434
-0.056573696 0.76283568 0.046509635 758 24203008 444 15 1061 444
-0.047514297 0.7684626 0.046578575 716 24417536 425 15 1114 425
-0.038374227 0.77498007 0.046661299 762 24594944 460 15 1143 460
-0.029081307 0.78138798 0.046744026 729 24789248 447 15 1107 447
-0.019710153 0.79068249 0.046868116 790 24986112 495 15 1085 495
-0.010078748 0.79686379 0.046950839 846 25183232 538 15 1067 538
-0.00029848018 0.80392683 0.047047354 799 25395456 517 15 1043 517
0.0096536176 0.81086874 0.047143869 779 25574656 513 15 1014 513
0.019800682 0.81868607 0.047254167 796 25786624 535 15 1033 535
0.030251767 0.82937288 0.047405835 809 25967360 557 15 1132 557
0.040869717 0.83792746 0.047529921 792 26177024 559 15 1035 559
0.051702112 0.84634495 0.04765401 863 26359040 621 15 1074 621
0.062747173 0.85462147 0.0477781 801 26554112 589 15 1080 589
0.074088946 0.86374921 0.047915976 796 26750208 599 15 1142 599
0.08546783 0.87073559 0.048026279 837 26946048 642 15 1139 642
0.096698262 0.87459022 0.048095215 885 27149568 686 15 1082 686
0.10901614 0.88623857 0.048274457 894 27336960 714 15 1164 714
0.1206915 0.89077878 0.048357181 967 27536896 783 15 1207 783
0.13513742 0.91296822 0.048688088 1174 27726080 1000 15 1247 1000
0.14569497 0.90729237 0.048632935 1417 27924224 1197 15 1260 1197
0.15698892 0.90642136 0.048646722 1428 28117248 1209 15 1203 1209
0.16700152 0.89852864 0.048563998 1779 28312832 1487 15 1293 1487
0.17899115 0.90131497 0.048632935 1399 28508416 1182 15 1240 1182
0.18651582 0.8824212 0.048398547 2655 28704256 2161 15 1375 2161
0.19864556 0.88591939 0.048481271 1647 28899584 1358 15 1262 1358
0.20927106 0.88244218 0.048467483 1656 29096192 1364 15 1291 1364
0.21935503 0.87689793 0.048426121 1131 29289728 925 15 1265 925
0.22653015 0.86060411 0.048233092 987 29487872 782 15 1260 782
0.2346729 0.84908652 0.048109006 980 29678336 761 15 1179 761
0.24423903 0.84326184 0.048067641 1032 29878528 797 15 1259 797
0.24992298 0.8248921 0.04784704 986 30068224 733 15 1184 733
0.25640187 0.81032485 0.047681585 979 30263552 708 15 1170 708
0.26224768 0.79477513 0.047502346 981 30457856 688 15 1266 688
0.26872721 0.78204226 0.04736447 977 30651904 668 15 1177 668
0.27392337 0.76644725 0.047185231 909 30857472 603 15 1133 603
0.27982333 0.75365597 0.047047354 934 31041792 604 15 1112 604
0.28581113 0.74176955 0.046923265 941 31248896 595 15 1134 595
0.29340672 0.7344929 0.046868116 959 31431168 601 15 1195 601
0.29627404 0.716057 0.046647511 873 31641088 524 15 1170 524
0.30109829 0.70317751 0.046509635 872 31820544 511 15 1126 511
0.30646229 0.69211704 0.046399333 890 32015104 510 15 1199 510
0.31035116 0.67830473 0.046247669 848 32209664 472 15 1184 472
0.31480312 0.66631049 0.046123579 870 32404992 472 15 1181 472
0.32032403 0.65700591 0.046040855 829 32618240 443 15 1287 443
0.32701337 0.65034634 0.045999493 821 32793344 435 15 1154 435
0.32253352 0.62232172 0.045627225 602 33007104 296 15 1001 296
0.3527756 0.66064262 0.046289034 123 33184512 69 15 903 69
0.37869877 0.68867338 0.046799175 90 33395712 55 15 827 55
0.3856425 0.68136442 0.046757814 18 33574400 11 15 876 11
0 0 0 8 33784576 0 15 855 0
0 0 0 11 33964032 0 15 803 0
0.82754332 1.3434259 0.057719007 11 34159104 27 15 815 27
0.84985232 1.3424613 0.057870671 9 34366464 25 15 874 25
0.88153261 1.3553977 0.058256727 14 34550784 39 15 890 39
0.90809995 1.3594418 0.058504902 64 34758400 173 15 907 173
0.92754287 1.3523178 0.058573842 31 34944256 85 15 920 85
0.94061303 1.335929 0.058491115 402 35148800 1075 15 975 1075
0.96572351 1.3364403 0.058697931 74 35337984 203 15 887 203
0.98026383 1.3220797 0.058656566 69 35542016 189 15 914 189
0.55255294 0.72670615 0.048550211 157 35733248 131 15 894 131
0.56142914 0.71987075 0.048550211 118 35928832 99 15 902 99
0.60458946 0.75585967 0.049308531 251 36131328 236 15 939 236
0.63094878 0.76925093 0.049680799 313 36324608 311 15 885 311
0.65708137 0.78134096 0.050039276 355 36524800 371 15 891 371
0.68033719 0.7891171 0.050328817 384 36717312 418 15 899 418
0.70255589 0.79493976 0.050590783 390 36915456 440 15 899 440
0.73307699 0.80922347 0.051018201 370 37110272 442 15 926 442
0.76881558 0.82800198 0.051542133 338 37305088 432 15 920 432
0.79891562 0.83950406 0.051941976 316 37501184 425 15 943 425
0.82522041 0.84609538 0.052259091 310 37694464 434 15 1016 434
0.85251194 0.85287207 0.052589994 321 37886976 468 15 946 468
0.87937582 0.85840553 0.052907113 359 38080768 544 15 910 544
0.89998311 0.85720116 0.053100139 298 38274816 462 15 894 462
0.93021631 0.86446476 0.053472407 174 38474496 282 15 955 282
0.95557368 0.86641276 0.053748161 95 38662400 158 15 844 158
0.94515806 0.83607757 0.053362105 8 38856704 14 15 891 14
0 0 0 5 39051264 0 15 871 0
2.9433427 2.4765611 0.089003213 21 39255808 312 15 814 312
2.8173649 2.3121369 0.086218111 328 39439872 4369 15 946 4369
2.8361576 2.2698929 0.086052656 402 39634944 5318 15 942 5318
2.8677409 2.2379935 0.086121596 437 39843328 5795 15 925 5795
2.8949885 2.2026334 0.086121596 476 40022784 6309 15 982 6309
2.9097521 2.1580081 0.085914783 476 40232192 6257 15 989 6257
2.933584 2.1203816 0.085873418 515 40410368 6758 15 985 6758
2.9651062 2.0882518 0.085969932 621 40624128 8177 15 1091 8177
2.9921582 2.0528395 0.085997507 756 40800256 9963 15 1078 9963
3.0146301 2.0143001 0.085956141 910 41014272 11976 15 1085 11976
3.0399599 1.9776996 0.085969932 921 41190656 12125 15 1089 12125
3.0580866 1.9365017 0.085873418 925 41386752 12131 15 1137 12131
3.0875795 1.9024996 0.085969932 856 41598720 11270 15 1079 11270
3.1124089 1.8654948 0.085997507 772 41777408 10179 15 1036 10179
3.1428425 1.8316909 0.086121596 697 41988096 9234 15 1001 9234
3.1459424 1.7821449 0.085818268 507 42168320 6641 15 941 6641
3.1763356 1.7482256 0.085956141 477 42377472 6281 15 976 6281
3.2266521 1.7246668 0.086411133 587 42560768 7869 15 958 7869
3.2156196 1.6683667 0.085914783 445 42767872 5853 15 977 5853
2.4239426 1.2202111 0.073381796 330 42952704 2435 15 1031 2435
2.4153695 1.1789733 0.073023312 465 43149568 3367 15 935 3367
2.4206159 1.1449702 0.072885439 546 43353600 3922 15 895 3922
2.4281204 1.1122652 0.072788924 511 43540736 3651 15 975 3651
2.4388442 1.0811694 0.072747558 474 43743488 3380 15 960 3380
2.4556043 1.052735 0.072802708 86 43931648 614 15 825 614
2.4683383 1.0225217 0.072802708 90 44130304 642 15 856 642
2.455632 0.98213249 0.072430447 466 44321280 3265 15 996 3265
2.4423099 0.94221067 0.072058178 225 44516608 1548 15 980 1548
2.4677477 0.91739309 0.072264992 129 44711168 900 15 893 900
2.4835269 0.88872474 0.072333932 143 44906496 1002 15 868 1002
2.4810083 0.85362864 0.072140902 252 45101824 1740 15 945 1740
2.4941452 0.82405925 0.072182268 374 45297152 2586 15 957 2586
2.5012102 0.79248458 0.072140902 246 45491712 1700 15 951 1700
2.5145743 0.76289183 0.072196051 282 45689344 1953 15 997 1953
2.5160639 0.72974956 0.072085753 492 45880064 3381 15 1076 3381
2.5325394 0.70095128 0.072196051 624 46080000 4314 15 1095 4314
2.5361159 0.66854668 0.072127119 592 46267904 4078 15 1020 4078
2.545099 0.63761717 0.072140902 641 46464000 4420 15 1049 4420
2.5566232 0.60726058 0.072196051 654 46659072 4522 15 1064 4522
2.5629072 0.5756222 0.072182268 626 46853888 4325 15 1105 4325
2.5717344 0.54454201 0.072209843 587 47058688 4062 15 1031 4062
2.5635126 0.5100174 0.072003029 979 47243776 6694 15 1061 6694
2.5774424 0.47998405 0.072113328 839 47450368 5773 15 1103 5773
2.5860941 0.44883123 0.072154693 625 47633152 4312 15 1070 4312
2.5844967 0.41595095 0.072058178 260 47841792 1786 15 1021 1786
3.6269708 0.53799635 0.086521439 72 48022784 981 15 867 981
3.6491528 0.49559867 0.086742036 65 48232704 894 15 869 894
3.6827469 0.45420477 0.087128095 73 48411904 1018 15 885 1018
3.7158706 0.4120605 0.087514147 78 48606464 1091 15 836 1091
3.7455249 0.3688775 0.087858841 58 48820480 835 15 883 835
3.7856338 0.32597089 0.088355199 69 48996096 1009 15 896 1009
3.8202622 0.2817677 0.088782616 76 49211648 1129 15 873 1129
3.8433928 0.23609011 0.089058369 80 49388032 1200 15 889 1200
3.8659747 0.18988706 0.089334123 88 49600000 1332 15 908 1332
3.8949931 0.14342207 0.089706384 103 49777920 1579 15 890 1579
3.9184511 0.096151173 0.090009719 109 49973504 1676 15 837 1676
3.9703274 0.048678737 0.09071289 107 50168064 1700 15 937 1700
4.0906143 -6.0041799e-05 0.092367403 75 50363136 1270 15 898 1270
4.3242655 -0.053154957 0.095593721 195 50570496 3663 15 921 3663
4.3412805 -0.10666001 0.0958419 222 50754304 4203 15 921 4203
4.3756166 -0.16125502 0.096338257 247 50958592 4756 15 883 4756
4.4062653 -0.21656109 0.096793249 290 51145216 5664 15 905 5664
4.4461908 -0.27325767 0.097386114 303 51348992 6015 15 849 6015
4.4614491 -0.32919836 0.097648084 304 51537152 6104 15 894 6104
4.5038953 -0.3879596 0.098296098 326 51739136 6681 15 940 6681
4.5336232 -0.44663417 0.098778673 335 51929088 6973 15 936 6973
4.5576148 -0.50554466 0.099192299 367 52125696 7737 15 952 7737
4.5897703 -0.56621337 0.099730022 458 52324864 9818 15 927 9818
4.618145 -0.62734258 0.10022637 463 52516352 10077 15 926 10077
4.673399 -0.69336385 0.10110878 362 52714240 8096 15 1036 8096
7.6310449 -1.2283084 0.14254072 232 52907264 13918 15 885 13918
5.2056828 -0.90346467 0.10881609 182 53102080 5101 15 993 5101
5.2649794 -0.98046374 0.1098088 228 53299200 6564 15 945 6564
7.8366184 -1.5592953 0.14613929 129 53492224 8275 15 1029 8275
7.9049315 -1.6739931 0.14738019 151 53686784 9901 15 1029 9901
5.4106851 -1.2152342 0.11242846 160 53882112 4933 15 1121 4933
5.4537339 -1.2954086 0.11325572 404 54076160 12725 15 943 12725
5.1813698 -1.2980682 0.10961577 1398 54275584 39906 15 1136 39906
5.1592493 -1.3600241 0.10953305 1119 54462976 31878 15 1041 31878
5.6018348 -1.5504936 0.11610977 273 54667008 9249 15 979 9249
5.6611314 -1.641965 0.11724035 72 54852608 2535 15 875 2535
4.5976243 -1.3948182 0.1022118 45 55058432 1060 15 886 1060
4.5096259 -1.4287791 0.10119151 80 55242240 1791 15 848 1791
4.4537768 -1.4714613 0.10064001 123 55449600 2729 15 864 2729
4.3748736 -1.5051807 0.099757597 44 55631360 962 15 886 962
4.3626633 -1.5611125 0.099854112 410 55825920 8821 15 949 8821
4.3797288 -1.6281227 0.10039183 763 56036864 16682 15 998 16682
4.3790097 -1.6893053 0.10068136 722 56215808 15922 15 1024 15922
4.3690901 -1.7473718 0.10084682 627 56428544 13906 15 888 13906
5.1140308 -2.1185365 0.11229058 1655 56604416 50738 15 1559 50738
5.3311787 -2.2855585 0.11594431 1444 56819456 48609 15 1094 48609
5.0157089 -2.2235432 0.11161499 161 56996096 4872 15 939 4872
4.9771366 -2.2799282 0.11144953 155 57191168 4674 15 898 4674
4.8900328 -2.3130388 0.11055334 163 57387520 4800 15 858 4800
4.8217444 -2.3535714 0.10994668 153 57583872 4431 15 893 4431
4.7255177 -2.3788395 0.1089126 91 57796096 2573 15 902 2573
4.6817698 -2.4292803 0.108692 103 57974784 2892 15 889 2892
4.6022263 -2.4601488 0.10791989 97 58184960 2642 15 846 2642
4.1722636 -2.2965415 0.10163271 15 58367488 362 15 866 362
4.1228886 -2.3357379 0.10130181 9 58574336 221 15 915 221
4.095643 -2.3871634 0.10132939 7 58757120 178 15 888 178
4.0566068 -2.4315877 0.10117772 11 58963968 268 15 863 268
4.0443377 -2.4922028 0.10146727 10 59148800 226 15 839 226
4.4771981 -2.8353817 0.10903669 81 59344896 2301 15 885 2301
4.4202766 -2.8759308 0.10867821 1215 59540224 33810 15 1171 33810
4.3314466 -2.8943989 0.1077958 955 59735808 25934 15 1111 25934
3.949333 -2.709712 0.10200498 482 59936768 11078 15 1003 11078
3.9182355 -2.7596998 0.10204635 537 60126720 12353 15 1046 12353
3.9027119 -2.821049 0.10236346 431 60321024 10013 15 1007 10013
1.4088107 -1.0446026 0.060145635 225 60517376 695 15 876 695
3.1042435 -2.3619072 0.089747749 93 60713216 1416 15 821 1416
3.0600495 -2.3881333 0.089485787 88 60908032 1341 15 865 1341
1.3225715 -1.0582561 0.059318375 571 61102592 1641 15 947 1641
1.3094856 -1.0744064 0.059318375 977 61297152 2805 15 988 2805
1.3046175 -1.0974773 0.059470039 1353 61495552 3935 15 1181 3935
1.2918086 -1.1140575 0.059483826 1659 61686016 4829 15 1205 4829
1.2817851 -1.1331383 0.059552766 2508 61885440 7346 15 1495 7346
1.2640792 -1.1454246 0.059483826 5879 62075392 17114 15 3054 17114
1.2323477 -1.1445158 0.059152924 8429 62277632 23851 15 4346 23851
1.2268991 -1.167827 0.059318375 9493 62465024 27245 15 5841 27245
1.2038887 -1.1744144 0.059152924 1754 62669056 4965 15 1322 4965
0.89599675 -0.8956461 0.053431042 77 62854656 125 15 910 125
0.86468965 -0.88581747 0.053031199 369 63050752 567 15 899 567
0.86202693 -0.9050529 0.053196654 263 63257856 412 15 947 412
0.85221654 -0.91702843 0.053224228 128 63441920 202 15 891 202
0.85567015 -0.94371837 0.053527556 265 63650304 431 15 889 431
1.130126 -1.277775 0.059483826 906 63834624 2640 15 1127 2640
1.1143606 -1.2915473 0.059483826 886 64045568 2582 15 1047 2582
1.0984274 -1.3051249 0.059483826 736 64228608 2146 15 1017 2146
0.90600765 -1.1036103 0.055650856 41 64423936 85 15 865 85
0 -0 0 8 64619520 0 15 869 0
1.0613317 -1.3596491 0.059745792 264 64815104 788 15 899 788
1.0451722 -1.3733667 0.05975958 333 65028608 995 15 878 995
1.0324091 -1.3917115 0.059856094 275 65205760 828 15 954 828
1.0187668 -1.4091387 0.059938822 223 65421056 677 15 905 677
1.0088814 -1.4321628 0.060118061 211 65596928 648 15 850 648
0.99801767 -1.4543303 0.060283512 162 65811456 507 15 918 507
0.98453909 -1.4731196 0.060393814 154 65988096 486 15 915 486
0.96693265 -1.4859288 0.060407601 156 66201600 493 15 910 493
0.94755554 -1.4959929 0.060380027 144 66380800 454 15 863 454
0.92388159 -1.4989949 0.06024215 68 66575360 213 15 955 213
0.90644497 -1.5119349 0.060269725 132 66783232 413 15 887 413
0.88631272 -1.5203527 0.060228363 195 66965248 607 15 898 607
0.8601976 -1.5180638 0.060021546 268 67173632 819 15 882 819
0.83957565 -1.5250013 0.059966397 414 67356672 1257 15 939 1257
0.8203271 -1.5343075 0.059952609 384 67560704 1165 15 945 1165
0.79913503 -1.5398206 0.059883669 459 67746560 1384 15 919 1384
0.35992333 -0.71438003 0.046992205 50 67942400 32 15 879 32
0.35200664 -0.72054034 0.04701978 33 68138240 21 15 832 21
0.34228316 -0.72299784 0.046992205 40 68334848 26 15 896 26
0.33505026 -0.73078024 0.047047354 33 68534528 21 15 871 21
0.32403171 -0.73026597 0.046978414 50 68724992 31 15 842 31
0.31425813 -0.73234922 0.046950839 67 68923136 42 15 851 42
0.30869034 -0.74446499 0.047074929 500 69116672 325 15 921 325
0.29581955 -0.73891246 0.046937052 711 69315072 451 15 1066 451
0.28636992 -0.74155402 0.046923265 769 69510912 486 15 1204 486
0.59627587 -1.6035681 0.059552766 784 69706752 2298 15 1747 2298
0.57688946 -1.6117061 0.059566554 1624 69903104 4765 15 1954 4765
0.55739313 -1.6196096 0.059580341 1540 70096384 4522 15 2013 4522
0.53245926 -1.6111362 0.059359737 814 70292224 2347 15 1977 2347
0.238849 -0.75295269 0.046854328 837 70490368 523 15 1418 523
0.22988129 -0.7567839 0.046868116 804 70681600 504 15 1245 504
0.22057708 -0.75954795 0.046868116 858 70881792 537 15 1089 537
0.21097305 -0.76123387 0.046854328 874 71070976 546 15 1060 546
0.20136093 -0.76279855 0.046840541 942 71273728 587 15 956 587
0.1917422 -0.76424217 0.04682675 883 71461888 548 15 1105 548
0.18234934 -0.76653761 0.04682675 783 71655168 486 15 1094 486
0.17271003 -0.76774198 0.046812963 762 71850752 472 15 1013 472
0.16286169 -0.76784706 0.046785388 861 72045312 531 15 1036 531
0.15342675 -0.76978779 0.046785388 925 72250624 570 15 1004 570
0.14396873 -0.77161264 0.046785388 917 72431360 566 15 985 566
0.13465984 -0.77430648 0.046799175 841 72640256 520 15 987 520
0.12562399 -0.7788623 0.046840541 722 72818176 450 15 973 450
0.11591008 -0.77935618 0.04682675 730 73028352 454 15 1032 454
0.10647191 -0.78171068 0.046840541 782 73206016 487 15 1031 487
0.097482555 -0.78792042 0.046909478 878 73399808 554 15 1048 554
0.087806217 -0.78905731 0.046909478 883 73596160 557 15 1009 557
0.078116655 -0.79007542 0.046909478 837 73792256 528 15 1014 528
0.068415336 -0.79097456 0.046909478 869 74005760 548 15 1098 548
0.058703709 -0.79175454 0.046909478 877 74184192 553 15 939 553
0.049228068 -0.79640746 0.046964627 732 74397952 467 15 1033 467
0.039500169 -0.79795027 0.046978414 697 74577152 445 15 1016 445
0.029741812 -0.79937416 0.046992205 630 74789376 404 15 959 404
0.019930024 -0.79967892 0.046992205 644 74970368 413 15 929 413
0.010139554 -0.80186296 0.04701978 660 75178240 425 15 1004 425
0.00030087979 -0.7819289 0.046744026 200 75362048 122 15 893 122
-0.0094060283 -0.79087222 0.046868116 50 75557888 31 15 879 31
-0.01933237 -0.79969364 0.046992205 40 75761664 25 15 855 25
-0.02921821 -0.80139464 0.04701978 33 75948544 21 15 893 21
-0.039247043 -0.8049705 0.047074929 36 76152576 23 15 934 23
-0.049306586 -0.80742234 0.047116291 39 76341248 25 15 809 25
-0.059653185 -0.81273955 0.047199018 45 76544256 30 15 859 30
-0 -0 0 8 76733952 0 15 887 0
-1.6670057 -16.910421 0.27026963 38 76927744 11263 15 857 11263
-1.8890696 -17.020866 0.2721034 46 77122816 13769 15 883 13769
-2.113358 -17.122435 0.27385443 44 77318144 13354 15 917 13354
-2.3437881 -17.245811 0.27595016 58 77516032 17824 15 929 17824
-2.5890138 -17.443235 0.27912131 56 77709312 17637 15 981 17637
-2.8325982 -17.594757 0.2816996 51 77904384 16466 15 927 16466
-3.0713918 -17.691668 0.28356093 46 78101248 15136 15 884 15136
-0.26662406 -1.4332763 0.056064487 233 78294272 497 15 906 497
-0.2849732 -1.4338192 0.056119636 256 78492416 548 15 982 548
-0.29923177 -1.4145629 0.055899035 323 78683392 677 15 898 677
-0.32730824 -1.4585881 0.056574631 294 78884352 659 15 903 659
