# .PCD v0.7 - Point Cloud Data file format
VERSION 0.7
FIELDS x y z intensity t reflectivity ring noise range
SIZE 4 4 4 4 4 2 2 2 4
TYPE F F F F U U U U U
COUNT 1 1 1 1 1 1 1 1 1
WIDTH 878
HEIGHT 1
VIEWPOINT 0 0 0 1 0 0 0
POINTS 878
DATA ascii
1.0123043 1.2029848 0.44099307 34 36493312 92 5 861 92
1.0219315 1.1846104 0.43898058 42 36688896 110 5 792 110
1.0389569 1.1748799 0.43998682 20 36884992 52 5 792 52
1.044844 1.1527216 0.43671653 27 37081600 70 5 819 70
1.0556165 1.1362685 0.43545869 27 37276160 71 5 867 71
1.0674781 1.1211265 0.43470401 24 37472256 61 5 821 61
2.2210832 2.2755344 0.85883862 38 37667328 420 5 870 420
2.4343562 2.4335179 0.92701209 73 37861632 935 5 895 935
2.5243187 2.462249 0.94889802 101 38057216 1342 5 834 1342
2.6560104 2.5278256 0.98537463 510 38252288 7335 5 994 7335
2.6995976 2.5068951 0.98990273 336 38446336 4881 5 943 4881
2.7172463 2.4618826 0.98537463 344 38641152 4954 5 873 4954
2.7276716 2.4110477 0.97858244 282 38835968 4003 5 908 4003
2.768049 2.386873 0.98235589 240 39030784 3438 5 867 3438
2.7978721 2.3533478 0.98260742 212 39224320 3040 5 872 3040
2.8220506 2.3151538 0.98109806 234 39419136 3343 5 891 3343
2.8479812 2.2785349 0.98034334 207 39614208 2943 5 786 2943
2.8452013 2.219605 0.97028089 210 39808512 2934 5 889 2934
2.8768475 2.1880379 0.97179025 217 40002560 3029 5 838 3029
2.9034815 2.1525698 0.97179025 235 40196096 3292 5 888 3292
2.9202635 2.1099765 0.96877146 217 40390400 3009 5 845 3009
2.9530594 2.0789952 0.97103554 220 40585472 3065 5 852 3065
2.9871299 2.0486205 0.97380275 223 40778496 3138 5 871 3138
3.0056057 2.0075097 0.97179025 219 40972544 3069 5 880 3069
3.0348833 1.9736406 0.97329962 209 41167872 2927 5 837 2927
3.0425177 1.9258981 0.96826833 222 41362944 3075 5 845 3075
3.0733395 1.892984 0.97053242 229 41556736 3198 5 948 3198
3.091356 1.8521429 0.96902305 223 41751296 3094 5 845 3094
3.1305785 1.8238099 0.97405428 194 41946112 2733 5 893 2733
3.1417744 1.779057 0.97078401 238 42141184 3326 5 893 3326
3.1701539 1.7441002 0.9727965 224 42336512 3146 5 876 3146
3.1964402 1.7078022 0.97430587 248 42531840 3479 5 855 3479
3.2266083 1.6733487 0.97707307 257 42725632 3640 5 886 3640
3.1751363 1.5975299 0.95619333 157 42921472 2131 5 879 2131
3.2066798 1.5643855 0.95971525 269 43118080 3670 5 867 3670
3.232636 1.5282253 0.96172774 174 43313152 2387 5 923 2387
3.2185848 1.4735377 0.95241994 162 43508736 2180 5 893 2180
3.2594328 1.4441206 0.95896053 135 43704832 1846 5 871 1846
3.2947023 1.411635 0.96399182 136 43899648 1866 5 844 1866
3.2965744 1.3648056 0.95971525 149 44094464 2026 5 842 2026
3.3139732 1.3246078 0.95996678 151 44290304 2067 5 881 2067
3.3670053 1.2981112 0.97028089 106 44485376 1474 5 856 1474
3.4044566 1.2647822 0.97631836 160 44679424 2267 5 901 2267
3.4251893 1.2248638 0.97782773 163 44873984 2304 5 837 2304
3.4646749 1.1912332 0.98461992 163 45070080 2337 5 816 2337
5.1949515 1.71495 1.4542874 95 45264640 3068 5 862 3068
5.1870008 1.6420178 1.446489 112 45461504 3571 5 868 3571
5.1928668 1.5740314 1.4427155 96 45656576 3048 5 867 3048
5.2043548 1.508034 1.440703 41 45851648 1286 5 847 1286
3.6263533 1.0028378 1.0102793 184 46047232 2797 5 862 2797
5.2500916 1.382569 1.4434701 47 46242816 1508 5 896 1508
5.3154855 1.330253 1.4565514 115 46439424 3691 5 798 3691
5.2626643 1.2486184 1.4381874 94 46635264 2939 5 824 2939
5.2681465 1.1818254 1.4356717 92 46829312 2893 5 872 2893
5.3002439 1.1208917 1.4404514 109 47022848 3416 5 849 3416
5.3031578 1.0536911 1.4376842 109 47218176 3433 5 869 3433
5.3004642 0.98570371 1.4336592 100 47412480 3104 5 850 3104
5.3951278 0.93495649 1.4555452 130 47607552 4193 5 861 4193
5.462575 0.87773478 1.4703873 116 47801856 3820 5 913 3820
5.430809 0.80439794 1.4593186 114 47996928 3700 5 867 3700
5.4431486 0.73808289 1.4600734 157 48191232 5060 5 847 5060
5.4681263 0.67324096 1.4643499 141 48387072 4602 5 858 4602
5.4509649 0.60332143 1.4578092 121 48581632 3916 5 884 3916
4.1518488 0.40811774 1.1166903 23 48775936 427 5 845 427
4.0687933 0.34960586 1.0937982 236 48969472 4220 5 873 4220
4.0727773 0.29964918 1.0937982 183 49164800 3277 5 858 3277
4.1283135 0.25283742 1.1073825 270 49359360 4950 5 871 4950
4.1465726 0.20291306 1.1114075 300 49553152 5538 5 932 5538
4.1797004 0.15314414 1.1194575 246 49746688 4610 5 953 4610
2.4793339 0.060544159 0.6769588 303 49941248 1996 5 958 1996
2.4837611 0.030160772 0.6779651 351 50135040 2318 5 950 2318
2.4849122 -0.00032134369 0.67821664 313 50329600 2071 5 895 2071
2.4885921 -0.030863618 0.67922288 345 50524672 2289 5 906 2289
2.4841559 -0.061304044 0.67821664 356 50720000 2354 5 965 2354
2.4783807 -0.091604352 0.6769588 388 50914048 2555 5 904 2555
2.4674032 -0.12153336 0.67444319 150 51109632 978 5 837 978
2.4782841 -0.15257813 0.67771351 43 51305728 283 5 831 283
2.4839466 -0.18355078 0.679726 34 51501312 226 5 769 226
2.4872928 -0.21451868 0.68123537 96 51697408 645 5 879 645
2.4835098 -0.2449303 0.68098384 65 51893248 438 5 873 438
2.4832029 -0.27570918 0.6817385 41 52089856 279 5 879 279
2.4844351 -0.30675489 0.68299633 48 52286208 327 5 873 327
2.4891148 -0.33839434 0.68526042 319 52481280 2156 5 940 2156
4.6607752 -0.69232404 1.2570623 294 52677632 6989 5 943 6989
4.7503452 -0.76533091 1.2829732 417 52871680 10335 5 865 10335
4.8025765 -0.83434004 1.2993248 430 53066496 10928 5 981 10928
4.8490624 -0.90385765 1.3144186 605 53262592 15744 5 942 15744
4.899303 -0.97558558 1.3307701 718 53458432 19156 5 951 19156
4.9466105 -1.0482794 1.3466185 815 53653760 22273 5 977 22273
4.9994726 -1.1237656 1.3642279 878 53849856 24631 5 1077 24631
5.0361514 -1.1971226 1.3778123 995 54044928 28491 5 981 28491
5.0830407 -1.2743722 1.3944155 1106 54238976 32467 5 914 32467
5.1409483 -1.3561609 1.4142889 1010 54434816 30503 5 1145 30503
5.1882758 -1.4369757 1.4316467 1163 54629632 36018 5 1034 36018
5.2343845 -1.5191537 1.4490045 1231 54823936 39077 5 994 39077
5.3042521 -1.6102695 1.4731545 1070 55018240 35129 5 1104 35129
5.3542075 -1.6974739 1.4922733 985 55212288 33201 5 1094 33201
5.4211888 -1.7922205 1.5164233 1111 55406848 38704 5 986 38704
5.4784017 -1.8860263 1.5383093 1047 55601152 37553 5 1063 37553
5.5250049 -1.9782388 1.5576797 1073 55795712 39493 5 963 39493
5.6109791 -2.0870616 1.5883702 1439 55990784 55103 5 1053 55103
5.56147 -2.1466968 1.5818297 1568 56185344 59534 5 1030 59534
5.4825921 -2.1939244 1.5672389 1556 56381184 57975 5 1043 57975
5.4203882 -2.2465844 1.557428 1413 56575232 51959 5 1115 51959
5.3292603 -2.28584 1.5395671 1264 56770560 45397 5 1234 45397
5.2583427 -2.3322282 1.527492 1454 56965888 51402 5 1058 51402
5.180057 -2.3739963 1.5134046 1439 57158656 49922 5 953 49922
5.1172919 -2.4216509 1.5038452 1398 57354496 47872 5 954 47872
5.0428367 -2.4626029 1.4910156 1207 57549824 40606 5 1101 40606
4.9793911 -2.5077558 1.4814562 1012 57744896 33600 5 1223 33600
4.914742 -2.5512788 1.4716452 1017 57938688 33324 5 1046 33324
4.8455129 -2.5913131 1.4605764 1182 58133504 38133 5 1020 38133
4.7743516 -2.6291015 1.4490045 1154 58329856 36638 5 948 36638
4.7215219 -2.6760373 1.4429671 997 58524672 31384 5 990 31384
4.6557212 -2.7147605 1.4331561 889 58719488 27600 5 970 27600
4.5979862 -2.7572527 1.4258608 790 58915840 24268 5 1034 24268
4.5423846 -2.8002627 1.4193201 885 59110400 26922 5 1107 26922
4.47089 -2.8324828 1.4079999 1189 59305984 35583 5 1028 35583
4.4009161 -2.8644292 1.3971827 1451 59501056 42746 5 1003 42746
4.338078 -2.89993 1.3886296 1611 59696640 46872 5 955 46872
4.2750359 -2.9343226 1.3800764 1728 59892224 49627 5 1041 49627
4.2284207 -2.979315 1.376806 1725 60087552 49306 5 1039 49306
4.1742883 -3.018502 1.3712717 1627 60281856 46117 5 1198 46117
4.1175017 -3.0550807 1.3649826 1565 60478720 43934 5 1235 43934
4.0627599 -3.0924809 1.3594482 1359 60674816 37839 5 1222 37839
4.0031452 -3.1254258 1.3524045 1215 60869376 33481 5 1141 33481
3.9524026 -3.1646357 1.3483795 1070 61064448 29315 5 1052 29315
3.8915787 -3.1950874 1.3410841 1015 61259264 27504 5 963 27504
3.8417118 -3.2338758 1.3375623 1075 61455616 28972 5 937 28972
3.7819555 -3.2637019 1.3307701 1227 61650176 32720 5 961 32720
3.725673 -3.2957575 1.3252357 1380 61845504 36486 5 1003 36486
3.6691759 -3.3269255 1.3197013 1498 62041088 39257 5 1019 39257
3.6174395 -3.3618178 1.3159279 1565 62237696 40782 5 1052 40782
3.5675032 -3.3979454 1.3129091 1586 62432256 41136 5 1044 41136
3.5172262 -3.4333549 1.3098904 1351 62628608 34866 5 1061 34866
3.4666188 -3.4680433 1.3068717 1341 62822400 34451 5 1126 34451
3.4116366 -3.4978507 1.3023435 998 63018496 25454 5 1095 25454
3.3671215 -3.5380511 1.3018404 904 63213312 23040 5 1169 23040
3.3208165 -3.5762672 1.3008342 724 63408128 18434 5 1037 18434
3.266284 -3.6052725 1.2968092 647 63603712 16369 5 1002 16369
3.2205141 -3.6436331 1.296306 604 63800576 15270 5 1054 15270
3.1654472 -3.6711507 1.292281 608 63997440 15277 5 950 15277
3.113306 -3.7015712 1.2895138 701 64194560 17531 5 948 17531
3.0682614 -3.7402458 1.2897654 653 64389376 16341 5 971 16341
3.0148773 -3.7685468 1.2867466 654 64585984 16288 5 968 16288
2.9654281 -3.8014445 1.2854888 631 64781824 15685 5 923 15685
2.9109397 -3.8275332 1.2822186 535 64977664 13235 5 905 13235
2.8545296 -3.8505261 1.2781935 488 65171712 11976 5 850 11976
2.8115966 -3.891542 1.280206 418 65366784 10311 5 901 10311
2.758059 -3.9178371 1.2776904 426 65561600 10467 5 892 10467
2.7081316 -3.948993 1.2769357 498 65756416 12218 5 892 12218
2.6589301 -3.9811237 1.2766842 787 65950976 19282 5 911 19282
2.6098752 -4.013453 1.2766842 949 66146304 23245 5 947 23245
2.5521464 -4.032093 1.2726592 1305 66341632 31753 5 985 31753
2.5024743 -4.063108 1.2726592 1490 66535424 36253 5 974 36253
2.4544146 -4.0968323 1.2736654 1634 66729216 39826 5 1000 39826
2.4034684 -4.1258068 1.2734138 1695 66924544 41284 5 1046 41284
2.353611 -4.1566753 1.273917 1687 67120896 41130 5 994 41130
2.3056901 -4.1911807 1.2756779 1752 67314944 42831 5 994 42831
2.2518041 -4.214891 1.27442 1693 67508992 41296 5 1080 41296
2.2065938 -4.255095 1.2781935 1812 67704576 44481 5 1069 44481
2.1555157 -4.2844467 1.2789482 1909 67900160 46904 5 1079 46904
2.1087162 -4.3227544 1.2824701 1925 68095744 47566 5 1141 47566
2.0546837 -4.3465557 1.2819669 1905 68292352 47041 5 1183 47041
2.0120652 -4.3952041 1.2887591 2069 68487168 51647 5 1175 51647
1.9630733 -4.4310679 1.2920295 2161 68683008 54213 5 1276 54213
1.9085494 -4.4548244 1.2920295 2042 68878848 51247 5 1371 51247
1.8578095 -4.4877467 1.2947967 1804 69074944 45447 5 1276 45447
1.8079849 -4.5236883 1.29857 1165 69271552 29539 5 1179 29539
1.6583586 -4.3017006 1.2306482 230 69467648 5237 5 955 5237
1.4784126 -3.9796789 1.1358091 202 69663744 3904 5 936 3904
1.3414992 -3.7514551 1.0678872 228 69859840 3880 5 906 3880
1.259499 -3.6632922 1.039209 127 70055424 2047 5 963 2047
0.2240663 -0.67768139 0.21785702 50 70251776 27 5 897 27
0.21748543 -0.68591642 0.2193664 35 70447104 19 5 833 19
0.20877111 -0.68760741 0.21911484 39 70643456 21 5 834 21
0.20139459 -0.69383603 0.22012109 45 70839552 25 5 854 25
0.19363861 -0.69905376 0.22087577 30 71034880 17 5 788 17
0.18578477 -0.70418525 0.22163047 28 71229696 16 5 869 16
0.17712934 -0.70641208 0.22163047 39 71424512 22 5 860 22
0.16867061 -0.70947427 0.22188203 45 71617280 25 5 831 25
0.15973978 -0.71054631 0.22163047 37 71812864 21 5 784 21
0.1504077 -0.70961231 0.22087577 50 72007168 28 5 897 28
0.14074561 -0.70665812 0.21961796 41 72199424 23 5 872 23
0.13188635 -0.70738053 0.2193664 39 72392960 21 5 843 21
0.12187422 -0.7013166 0.2173539 27 72586496 14 5 851 14
0.11310533 -0.7018038 0.21710233 40 72780288 22 5 875 22
0.1044846 -0.70313895 0.21710233 38 72973056 20 5 826 20
0.095848136 -0.70436817 0.21710233 45 73168384 24 5 805 24
0.087197237 -0.7054913 0.21710233 46 73361920 24 5 826 24
0.078852423 -0.70939416 0.21785702 42 73556480 22 5 847 22
0.070897862 -0.71801406 0.21986952 51 73751552 28 5 880 28
0.061005447 -0.70629418 0.21659921 46 73946624 25 5 877 25
0.053255562 -0.71953773 0.21986952 61 74141696 34 5 890 34
0.13781889 -2.2474406 0.61759007 59 74338560 324 5 889 324
0.10994566 -2.2431626 0.61608064 305 74532864 1647 5 967 1647
0.081208453 -2.2114582 0.60752755 24 74730240 126 5 811 126
0.054369554 -2.2248664 0.61079788 23 74926336 122 5 819 122
0.027155744 -2.2331083 0.61281037 36 75121408 192 5 819 192
-0.00025820979 -2.2623086 0.62035722 46 75317760 256 5 877 256
-0.02839689 -2.292136 0.62815565 29 75512576 167 5 894 167
-0.39870706 -16.071358 4.2109108 28 75706624 7730 5 849 7730
-0.087045327 -2.3555493 0.64501035 21 75902976 130 5 878 130
-0.80188191 -16.236532 4.2577014 28 76098816 8144 5 915 8144
-0.14900076 -2.4203238 0.66261977 22 76295680 144 5 867 144
-1.2259065 -16.5604 4.3485155 22 76492032 6755 5 880 6755
-1.4396163 -16.666569 4.3804641 23 76687872 7165 5 863 7165
-1.6562101 -16.770931 4.4126639 27 76882432 8222 5 806 8222
-1.8830667 -16.939802 4.4624734 33 77077760 10542 5 861 10542
-2.1151452 -17.112328 4.5140438 32 77272832 10414 5 937 10414
-2.3446898 -17.229893 4.5520296 25 77469184 8101 5 816 8101
-2.5731668 -17.315659 4.5824685 19 77662720 6539 5 862 6539
-2.8190393 -17.491077 4.6373096 31 77858816 10390 5 855 10390
-3.0603185 -17.609642 4.6780624 42 78054656 14332 5 848 14332
-3.3090088 -17.746777 4.7246017 27 78250240 9706 5 901 9706
-0.45938182 -2.3080125 0.64400411 18 78445568 110 5 974 110
-1.3212578 -6.2342567 1.6887437 7 78641152 330 5 1020 330
-1.395539 -6.2081308 1.6862282 20 78837504 891 5 1020 891
-1.4666916 -6.1698232 1.6806937 37 79033344 1624 5 931 1624
-1.5444133 -6.1598091 1.6829578 12 79228928 551 5 941 551
-1.6255668 -6.1619163 1.6887437 18 79424256 812 5 967 812
-1.7010607 -6.1415043 1.6887437 21 79618304 938 5 1016 938
-1.7771077 -6.1229553 1.6894984 12 79813376 555 5 942 555
-1.8521119 -6.1006866 1.6894984 21 80009984 936 5 1035 936
-1.9034328 -6.0036936 1.6693734 50 80205824 2142 5 1039 2142
-0.37595379 -1.1381669 0.34388989 233 80401152 358 5 968 358
-0.38043931 -1.1060145 0.33634302 442 80595456 648 5 935 648
-0.39300421 -1.0985291 0.33558834 497 80790784 724 5 989 724
-0.40443045 -1.088181 0.33407897 481 80986624 695 5 883 695
-0.41461644 -1.0750101 0.33181489 456 81179648 649 5 909 649
-0.42454058 -1.0617542 0.32955083 452 81373184 632 5 996 632
-0.43086663 -1.0403714 0.3250227 487 81567232 661 5 942 661
-0.44054854 -1.0278901 0.32301021 478 81761536 640 5 1000 640
-0.45155933 -1.0188677 0.32200396 522 81955328 694 5 961 694
-0.46160868 -1.0079707 0.32049459 492 82147584 648 5 970 648
-0.47187299 -0.9978562 0.31923676 568 82341120 741 5 976 741
-0.47983512 -0.98329389 0.31672114 591 82537216 758 5 992 758
-0.49099472 -0.97560281 0.31621802 555 82732032 709 5 932 709
-0.51452518 -0.99183726 0.32275864 301 82926080 402 5 912 402
-0.5289402 -0.9897157 0.32401645 308 83122432 415 5 984 415
-0.54804945 -0.99586672 0.3277899 300 83317760 415 5 981 415
-0 -0 0 287 83512576 0 5 1729 0
-0 -0 0 148 83706880 0 5 3333 0
-0 -0 0 37 83902720 0 5 4316 0
-0 -0 0 0 84097536 0 5 4157 0
-0 -0 0 3 84293120 0 5 3556 0
-0 -0 0 11 84488960 0 5 3100 0
-0 -0 0 9 84684800 0 5 3133 0
-0 -0 0 3 84881152 0 5 3140 0
-0 -0 0 0 85076224 0 5 3188 0
-0 -0 0 0 85273088 0 5 3465 0
-0 -0 0 0 85469696 0 5 3687 0
-0 -0 0 0 85667584 0 5 3460 0
-0 -0 0 0 85862656 0 5 3623 0
-0 -0 0 1 86060544 0 5 3787 0
-0 -0 0 0 86257152 0 5 3806 0
-0 -0 0 0 86455040 0 5 3697 0
-0 -0 0 0 86650368 0 5 3639 0
-0 -0 0 4 86847232 0 5 3413 0
-0 -0 0 0 87042304 0 5 3190 0
-0 -0 0 1 87237120 0 5 3351 0
-0 -0 0 2 87430656 0 5 3282 0
-0 -0 0 2 87625472 0 5 2888 0
-0 -0 0 1 87818240 0 5 2795 0
-0 -0 0 3 88012288 0 5 2884 0
-0 -0 0 2 88205824 0 5 2868 0
-0 -0 0 4 88399616 0 5 2838 0
-0 -0 0 3 88594688 0 5 2955 0
-0 -0 0 6 88789248 0 5 2879 0
-0 -0 0 5 88983040 0 5 2814 0
-0 -0 0 2 89176832 0 5 2781 0
-0 -0 0 0 89374208 0 5 2886 0
-0 -0 0 5 89568512 0 5 2927 0
-0 -0 0 4 89762304 0 5 2830 0
-0 -0 0 2 89955584 0 5 2855 0
-0 -0 0 4 90150144 0 5 2968 0
-0 -0 0 3 90347264 0 5 2762 0
-0 -0 0 2 90542080 0 5 2753 0
-0 -0 0 1 90737920 0 5 2967 0
-0 -0 0 0 90932992 0 5 3102 0
-0 -0 0 0 91127040 0 5 3466 0
-0 -0 0 0 91321600 0 5 3738 0
-0 -0 0 0 91517440 0 5 3892 0
-0 -0 0 5 91712256 0 5 3781 0
-0 -0 0 0 91906048 0 5 3786 0
-0 -0 0 1 92100864 0 5 3641 0
-0 -0 0 1 92296192 0 5 3550 0
-0 -0 0 1 92491008 0 5 3391 0
-0 -0 0 1 92686080 0 5 2831 0
-0 -0 0 3 92881408 0 5 2027 0
-0 -0 0 5 93077248 0 5 1807 0
-0 -0 0 8 93272576 0 5 1846 0
-0 -0 0 4 93468160 0 5 1862 0
-0 -0 0 6 93663488 0 5 1532 0
-0 -0 0 5 93859328 0 5 1257 0
-0 -0 0 5 94054400 0 5 1313 0
-0 -0 0 6 94251008 0 5 1271 0
-0 -0 0 7 94447360 0 5 1056 0
-0 -0 0 7 94643968 0 5 944 0
-0 -0 0 17 94840064 0 5 925 0
-0 -0 0 14 95035136 0 5 915 0
-0 -0 0 5 95230976 0 5 837 0
-0.87507635 -0.27735201 0.27093673 34 95426560 30 5 847 30
-0.89138144 -0.27052221 0.27445862 173 95621888 161 5 943 161
-0.89370441 -0.25929391 0.27420706 202 95817472 187 5 901 187
-0.89681906 -0.24830726 0.27420706 236 96010752 219 5 952 219
-0.89979869 -0.2372832 0.27420706 262 96204288 243 5 940 243
-0.90170383 -0.22598852 0.27395549 264 96399104 244 5 926 244
-0.90629262 -0.21535294 0.27445862 313 96594432 291 5 995 291
-0.91170025 -0.20485048 0.2752133 331 96787968 309 5 965 309
-0.9207738 -0.19504836 0.27697423 340 96981760 323 5 942 323
-0.9221487 -0.18354581 0.27672267 291 97175552 276 5 897 276
-0.94145936 -0.17539972 0.2812508 212 97368832 208 5 927 208
-0.95307732 -0.16548529 0.28376642 127 97562880 128 5 888 128
-0.95981425 -0.1545445 0.28502426 98 97756672 99 5 922 99
-0 -0 0 23 97950208 0 5 930 0
-0 -0 0 7 98141184 0 5 1033 0
-0 -0 0 5 98334976 0 5 1027 0
-0 -0 0 5 98530304 0 5 979 0
-0 -0 0 5 98725632 0 5 957 0
-0 -0 0 11 98921472 0 5 953 0
-0 -0 0 5 99116800 0 5 977 0
-0 -0 0 6 99312384 0 5 901 0
-0 -0 0 6 99507712 0 5 884 0
-0 -0 0 7 99704832 0 5 873 0
-0 -0 0 7 0 0 6 842 0
-0 -0 0 5 196608 0 6 852 0
-0 0 0 7 393472 0 6 1003 0
-0 0 0 6 587264 0 6 1080 0
-0 0 0 5 781824 0 6 894 0
-0 0 0 4 977408 0 6 911 0
-0 0 0 8 1172736 0 6 940 0
-0 0 0 6 1366016 0 6 899 0
-0 0 0 7 1561600 0 6 847 0
-0 0 0 5 1756416 0 6 828 0
-0 0 0 12 1950464 0 6 839 0
-0 0 0 25 2145024 0 6 824 0
-1.1608447 0.14312445 0.30785459 26 2341120 37 6 792 37
-1.1561073 0.1569652 0.3071675 32 2534400 46 6 746 46
-1.062624 0.15754578 0.28540963 142 2728448 173 6 827 173
-1.019287 0.16391289 0.2755613 319 2923008 359 6 853 359
-0.99418181 0.17240821 0.27006456 413 3116800 444 6 844 444
-0.98050815 0.18245402 0.26731619 477 3312384 502 6 864 502
-0.96673942 0.19219051 0.26456785 460 3508224 472 6 822 472
-0.95764232 0.20262629 0.26296464 443 3703552 449 6 900 449
-0.94463694 0.21201377 0.2604453 429 3897856 426 6 903 426
-0.93249393 0.22133809 0.25815499 429 4093952 417 6 914 417
-0.92120993 0.23063347 0.25609371 439 4290560 419 6 906 419
-0.91172189 0.24018225 0.25449049 293 4484352 275 6 790 275
-0.90213925 0.24953318 0.25288728 255 4680704 236 6 898 236
-0.89620471 0.25977087 0.25220019 107 4876032 99 6 864 99
-0.89201802 0.2704663 0.25197116 68 5071360 62 6 812 62
-0.89605486 0.2837463 0.2538034 45 5266688 42 6 787 42
-0.89435381 0.2953321 0.25426146 24 5463296 22 6 791 22
-0.88514 0.30438343 0.25288728 21 5658624 19 6 794 19
-0.88408732 0.31620711 0.25357437 26 5853952 24 6 792 24
-0.90021163 0.33449957 0.25861305 19 6050304 18 6 811 18
-0.86153144 0.3321991 0.24990989 38 6245376 34 6 819 34
-0.78870702 0.31525692 0.23250358 135 6441728 103 6 865 103
-0.76050013 0.31484714 0.22631975 285 6637056 204 6 857 204
-0.75568461 0.32377216 0.22609071 318 6832640 228 6 858 228
-0.74097699 0.32828453 0.22334234 433 7027968 301 6 813 301
-0.73246819 0.33532467 0.2221972 539 7221248 370 6 880 370
-0.72389889 0.34220573 0.22105205 577 7416832 391 6 883 391
-0.71527165 0.34892729 0.2199069 577 7609600 386 6 847 386
-0.70571977 0.35505107 0.21853271 586 7801856 386 6 852 386
-0.69699001 0.36144188 0.21738756 601 7995648 392 6 892 392
-0.68649364 0.36675403 0.21578434 687 8187904 440 6 886 440
-0.67938334 0.37374192 0.21509725 622 8381696 395 6 912 395
-0.66966486 0.37917066 0.21372306 612 8574208 384 6 904 384
-0.66159797 0.38539833 0.21280695 639 8766976 396 6 930 396
-0.65347958 0.39148545 0.21189083 668 8962560 410 6 857 410
-0.64448333 0.39692077 0.21074568 677 9157376 410 6 919 410
-0.6346305 0.40167361 0.20937149 596 9352704 355 6 920 355
-0.62639034 0.40730703 0.20845537 605 9548032 357 6 863 357
-0.61810803 0.412799 0.20753925 626 9745152 366 6 906 366
-0.60898328 0.41759846 0.20639409 597 9940480 344 6 949 344
-0 0 0 688 10136064 0 6 1261 0
-0.34220678 0.24702141 0.13195919 7157 10331904 1353 6 3071 1353
-0.35556525 0.26338404 0.13676882 9019 10527744 1867 6 5366 1867
-0.35230634 0.26772752 0.13676882 9094 10722816 1883 6 5441 1883
-0.34515828 0.26903525 0.13562366 8539 10919424 1733 6 4456 1733
-0 0 0 3495 11116800 0 6 1220 0
-0 0 0 3025 11311616 0 6 1287 0
-0 0 0 2534 11506176 0 6 1421 0
-0 0 0 1914 11701248 0 6 1324 0
-0.36008909 0.31807497 0.14570101 1325 11896064 324 6 1219 324
-0.41600755 0.37674463 0.16471054 883 12089856 294 6 1021 294
-0.44771558 0.41561964 0.17639109 561 12284160 221 6 1028 221
-0.45315367 0.43115368 0.17982656 605 12478464 250 6 1042 250
-0.47847521 0.46660259 0.1899039 757 12673024 358 6 1064 358
-0.47684196 0.47657013 0.19127809 1368 12868096 658 6 1177 658
-0.47299665 0.48447651 0.19196518 1295 13063680 628 6 1285 628
-0.4690288 0.49236 0.19265227 2461 13260032 1204 6 1408 1204
-0.46891221 0.5044989 0.19471353 1503 13456128 754 6 1233 754
-0.42478272 0.4683716 0.18142977 4246 13651712 1798 6 1665 1798
-0.45767918 0.51731348 0.19517159 1639 13847296 828 6 1348 828
-0.44366926 0.51404381 0.19242324 2832 14043136 1383 6 1470 1383
-0.44484583 0.52838969 0.19517159 1592 14240256 804 6 1310 804
-0.43647623 0.53155094 0.1944845 1455 14436864 727 6 1279 727
-0.42992041 0.53686714 0.1944845 1345 14635264 672 6 1227 672
-0.42329985 0.54210252 0.1944845 1217 14832640 610 6 1302 610
-0.41661555 0.54725623 0.1944845 1219 15029248 609 6 1203 609
-0.40928885 0.5515455 0.19425547 1215 15224576 606 6 1231 606
-0.40134972 0.55494839 0.19379741 1139 15419648 565 6 1153 565
-0.39394915 0.55903578 0.19356838 1194 15614720 590 6 1133 590
-0.38595831 0.56222242 0.19311033 1183 15809280 581 6 1129 581
-0.37902993 0.56691641 0.19311033 1205 16004864 592 6 1169 592
-0.37151384 0.57070887 0.1928813 1183 16197632 580 6 1176 580
-0.3644824 0.57522494 0.1928813 1173 16390912 575 6 1178 575
-0.35688564 0.57882553 0.19265227 1100 16584192 538 6 1166 538
-0.3492555 0.58232641 0.19242324 1082 16779264 528 6 1095 528
-0.34159324 0.58572733 0.19219421 1073 16972032 521 6 1126 521
-0.33390018 0.589028 0.19196518 1146 17165824 556 6 1188 556
-0.32711589 0.593934 0.19219421 1137 17359360 552 6 1153 552
-0.32026142 0.59876209 0.19242324 1069 17552896 521 6 1037 521
-0.31288955 0.60264713 0.19242324 1128 17747712 550 6 1133 550
-0.30590799 0.60731101 0.19265227 1110 17942272 543 6 1146 543
-0.29928574 0.61276907 0.19311033 1037 18135552 510 6 1116 510
-0.29299143 0.61903584 0.19379741 1037 18330624 514 6 1110 514
-0.28618306 0.6243549 0.19425547 1060 18525952 528 6 1112 528
-0.27928814 0.62959987 0.19471353 988 18720768 496 6 1128 496
-0.27115768 0.63208497 0.1944845 1030 18917120 515 6 1194 515
-0.2626361 0.63356602 0.19402644 1054 19115520 524 6 1130 524
-0.25556388 0.63854915 0.1944845 1015 19311360 507 6 1097 507
-0.24770866 0.64163721 0.1944845 1015 19506432 508 6 1132 508
-0.24049392 0.64645368 0.19494256 1043 19702784 524 6 1180 524
-0.23319818 0.65118945 0.19540063 1015 19898368 514 6 1120 514
-0.22550593 0.65492272 0.19562966 979 20095232 496 6 1079 496
-0.21775712 0.65856504 0.19585869 941 20290304 478 6 1133 478
-0.21054026 0.66397184 0.19654578 866 20486144 444 6 1123 444
-0.20265876 0.66743708 0.19677481 940 20683520 484 6 1063 484
-0.19526558 0.67267871 0.1974619 939 20878848 487 6 1161 487
-0.18777414 0.67783892 0.198149 955 21074432 500 6 1157 500
-0.17993753 0.68197489 0.19860706 987 21270784 520 6 1057 520
-0.17226386 0.68696457 0.19929415 967 21466112 512 6 1073 512
-0.16404542 0.68997395 0.19952318 966 21660672 514 6 1062 514
-0.15620506 0.69478452 0.20021027 924 21856512 496 6 1025 496
-0.14847256 0.70045859 0.2011264 1006 22051072 545 6 1079 545
-0.14024495 0.70413738 0.20158446 996 22245376 543 6 1026 543
-0.13194934 0.70771945 0.20204252 1001 22440192 549 6 1112 549
-0.12408533 0.71408105 0.20318767 952 22635264 529 6 1037 529
-0.11593056 0.71939439 0.20410378 950 22831360 533 6 1052 533
-0.10752143 0.72365165 0.20479088 884 23025920 500 6 1160 500
-0.099025205 0.72781038 0.20547797 835 23220736 476 6 1034 476
-0.090443045 0.73186916 0.20616506 858 23413760 494 6 1006 494
-0.08199016 0.73776156 0.20731021 848 23608832 494 6 977 494
-0.073311068 0.74258715 0.20822634 850 23803648 501 6 952 501
-0.064692311 0.74924999 0.20960052 823 23998464 492 6 990 492
-0.055706993 0.75289989 0.21028762 841 24192000 507 6 917 507
-0.046760634 0.75838482 0.21143277 836 24386304 510 6 972 510
-0.037640516 0.76279056 0.21234889 830 24582400 512 6 996 512
-0.028597042 0.77195001 0.21441016 774 24775936 488 6 943 488
-0.019334391 0.78100097 0.21647143 798 24972032 515 6 934 515
-0.0098538762 0.78993958 0.21853271 809 25168128 534 6 960 534
-0.00015715162 0.79778838 0.22036496 744 25362432 501 6 955 501
0.0097429436 0.8064903 0.22242624 714 25557760 491 6 983 491
0.0199049 0.81701434 0.22494556 746 25754880 527 6 1021 527
0.030290471 0.82643604 0.22723587 754 25949440 545 6 1055 545
0.040958263 0.83669668 0.22975521 839 26144768 623 6 1016 623
0.051702466 0.8439036 0.23158745 1014 26338048 766 6 1113 766
0.062557757 0.85000092 0.23319066 991 26531840 761 6 1076 761
0.073737994 0.85789752 0.23525193 985 26726912 772 6 1077 772
0.085025653 0.86467767 0.23708418 1012 26921984 808 6 1131 808
0.096598282 0.87227631 0.23914546 954 27117056 777 6 1133 777
0.10837006 0.87971979 0.24120674 991 27312640 822 6 1156 822
0.11968252 0.88218176 0.24212286 1047 27506688 877 6 1095 877
0.13135785 0.88642371 0.24349703 1044 27702272 886 6 1180 886
0.14284538 0.88858908 0.24441315 1089 27897088 932 6 1144 932
0.15390566 0.88772827 0.24464218 1148 28093696 986 6 1136 986
0.16478787 0.88577276 0.24464218 1130 28288768 969 6 1155 969
0.17507473 0.88081986 0.24395509 1110 28483328 947 6 1206 947
0.18284242 0.86432129 0.24051964 1327 28679168 1096 6 1177 1096
0.19279456 0.85916334 0.23983255 1284 28875264 1051 6 1213 1051
0.20197219 0.85105067 0.23845837 1284 29071104 1038 6 1137 1038
0.21050636 0.8409546 0.23662612 1241 29267200 986 6 1200 986
0.21857511 0.8298372 0.23456484 1289 29462528 1004 6 1066 1004
0.2266629 0.81958783 0.23273261 1322 29658112 1010 6 1153 1010
0.23453239 0.80926603 0.23090036 1303 29854208 977 6 1098 977
0.24699116 0.81470978 0.23296162 1090 30050304 836 6 1061 836
0.25020275 0.79027617 0.22769393 880 30246144 640 6 981 640
0.25621456 0.77605587 0.22494556 856 30440960 605 6 1053 605
0.26350018 0.76641065 0.22334234 969 30635520 674 6 1024 674
0.27025983 0.75578797 0.22151011 894 30831104 609 6 1000 609
0.27611998 0.74329126 0.2192198 911 31025664 606 6 1045 606
0.27996174 0.7262255 0.21578434 967 31220224 619 6 1013 619
0.28378871 0.71008313 0.21257792 1069 31414784 661 6 1058 661
0.28912625 0.6984542 0.21051665 1119 31610368 676 6 1060 676
0.29614049 0.6912753 0.20960052 1176 31804928 703 6 1077 703
0.30302233 0.68402994 0.2086844 1165 31999744 689 6 1057 689
0.30977115 0.67672032 0.20776828 992 32194048 581 6 1019 581
0.31555358 0.66758895 0.20639409 892 32389120 514 6 1002 514
0.31603247 0.64792234 0.20227155 699 32581888 384 6 1047 384
0.32308385 0.64225668 0.20181349 676 32775936 369 6 1007 369
0.32735267 0.63133222 0.19998124 297 32969984 158 6 800 158
0.37042692 0.69336045 0.21761659 49 33165056 32 6 791 32
0.39205667 0.71263671 0.22402944 39 33358336 27 6 767 27
0.41085306 0.72555518 0.22883908 37 33552384 27 6 771 27
0.43787032 0.75157094 0.23731321 27 33747456 21 6 773 21
0.46308187 0.77285421 0.24464218 26 33940736 22 6 821 22
0.4807052 0.78037053 0.24830668 26 34134784 23 6 782 23
0.50848073 0.80319154 0.25632274 15 34330112 14 6 770 14
0.53157538 0.81728601 0.26204851 24 34523648 24 6 811 24
0.55509049 0.8309316 0.26777425 24 34721024 25 6 763 25
0.58012038 0.84572512 0.27395809 19 34916608 21 6 785 21
0.60615546 0.8608219 0.28037095 10 35112960 11 6 763 11
0.63093472 0.87303746 0.28609672 22 35310080 27 6 720 27
0.66132367 0.89180678 0.29388374 14 35507200 18 6 732 18
0.69993055 0.92002636 0.30464819 16 35705088 22 6 817 22
0.73273546 0.93898785 0.31289327 28 35901440 42 6 776 42
0.7940973 0.99222994 0.33167377 26 36099328 44 6 799 44
0.88157845 1.0741895 0.3596155 20 36297472 41 6 762 41
0.9624024 1.1437126 0.38435081 28 36493312 66 6 768 66
0.99290156 1.1509758 0.39030558 31 36688896 76 6 779 76
1.0114661 1.143808 0.39190879 25 36884992 62 6 754 62
1.0358889 1.1428468 0.39557329 40 37081600 101 6 766 101
1.0504981 1.1307617 0.39580232 21 37276160 53 6 756 53
1.0669808 1.1206046 0.39671844 22 37472256 56 6 784 56
2.2346299 2.2894099 0.78538322 34 37667328 369 6 797 369
2.4009459 2.4001265 0.83141834 85 37861632 1035 6 813 1035
2.5333593 2.4710655 0.86531484 108 38057216 1428 6 842 1428
2.6586926 2.5303779 0.89623398 505 38252288 7195 6 918 7195
2.6909707 2.4988856 0.89669204 382 38446336 5439 6 823 5439
2.7106116 2.4558725 0.89325655 376 38641152 5310 6 851 5310
2.7449214 2.4262919 0.89463073 299 38835968 4251 6 885 4251
2.7590065 2.3790772 0.88982111 257 39030784 3602 6 788 3602
2.7902286 2.3469203 0.89050817 242 39224320 3396 6 832 3396
2.8067768 2.3026261 0.88684374 231 39419136 3215 6 812 3215
2.8355823 2.2686174 0.88707274 215 39614208 2994 6 815 2994
2.8632083 2.2336495 0.88707274 239 39808512 3329 6 790 3329
2.8764555 2.1877398 0.88295019 259 40002560 3572 6 839 3572
2.9101241 2.1574934 0.88501149 230 40196096 3187 6 807 3187
2.9292791 2.1164892 0.88295019 205 40390400 2827 6 847 2827
2.948663 2.0759008 0.88111794 241 40585472 3311 6 792 3311
2.9715071 2.0379086 0.88043088 244 40778496 3345 6 846 3345
2.9971011 2.0018306 0.88065988 240 40972544 3292 6 831 3292
3.0304179 1.9707375 0.88317925 251 41167872 3465 6 796 3465
3.0510836 1.931319 0.88226312 223 41362944 3072 6 803 3072
3.0670943 1.8891383 0.88020182 232 41556736 3180 6 800 3180
3.0816953 1.8463562 0.87791151 244 41751296 3325 6 828 3325
3.1108499 1.8123193 0.87974375 234 41946112 3205 6 757 3205
3.1472564 1.7821604 0.88363731 250 42141184 3455 6 788 3455
3.1612129 1.7391824 0.881576 274 42336512 3769 6 781 3769
3.1951964 1.7071378 0.88501149 267 42531840 3699 6 834 3699
3.2115843 1.6655591 0.88386631 290 42725632 4008 6 844 4008
3.1891706 1.6045893 0.87264383 185 42921472 2489 6 846 2489
3.219995 1.5708797 0.8756212 239 43118080 3242 6 765 3242
3.2487106 1.5358224 0.87814057 181 43313152 2469 6 806 2469
3.2195165 1.4739642 0.8657729 147 43508736 1947 6 829 1947
3.2293518 1.4307969 0.86371166 147 43704832 1949 6 858 1949
3.2466667 1.39106 0.86371166 114 43899648 1504 6 781 1504
3.2769842 1.3566974 0.86714709 141 44094464 1874 6 795 1874
3.3177922 1.3261338 0.87333089 136 44290304 1834 6 842 1834
3.3828638 1.3042234 0.88569856 180 44485376 2499 6 803 2499
3.4050016 1.2649846 0.88730174 175 44679424 2438 6 843 2438
3.4413505 1.2306412 0.89256948 175 44873984 2469 6 822 2469
3.465399 1.1914819 0.89485979 166 45070080 2354 6 849 2354
5.7657399 1.9033334 1.4612522 99 45264640 3860 6 774 3860
5.7181311 1.8101133 1.4438459 109 45461504 4141 6 834 4141
5.7166238 1.7327491 1.4381201 135 45656576 5091 6 786 5091
5.8290844 1.6890103 1.4605651 76 45851648 2955 6 847 2955
3.6313925 1.0042307 0.919137 176 46047232 2640 6 783 2640
5.8094749 1.5298358 1.4461362 65 46242816 2512 6 883 2512
5.8429198 1.4622095 1.4498007 121 46439424 4639 6 784 4639
5.865159 1.391521 1.4509459 110 46635264 4222 6 818 4222
5.9235859 1.328814 1.4610232 105 46829312 4093 6 763 4093
5.9299226 1.2540091 1.4587328 81 47022848 3150 6 759 3150
5.9849653 1.18911 1.4683522 150 47218176 5899 6 823 5899
5.9991069 1.1155758 1.4683522 217 47412480 8534 6 813 8534
6.005631 1.0407104 1.466749 149 47607552 5881 6 862 5881
5.9814281 0.96106797 1.4580457 148 47801856 5735 6 829 5735
6.0033636 0.88916242 1.4605651 184 47996928 7192 6 861 7192
6.0360088 0.81843174 1.4658328 126 48191232 4941 6 789 4941
5.981833 0.73645276 1.4507169 120 48387072 4610 6 759 4610
6.0349255 0.66791379 1.4612522 192 48581632 7472 6 855 7472
6.0581679 0.59532791 1.4649167 109 48775936 4302 6 865 4302
4.0719681 0.34987834 0.994259 241 48969472 4250 6 825 4250
2.4615114 0.18125454 0.61338127 358 49164800 2303 6 850 2303
2.4625788 0.15097494 0.61315227 366 49359360 2354 6 778 2354
2.472024 0.12112384 0.61498451 430 49553152 2786 6 884 2786
2.4713788 0.090708077 0.61452645 413 49746688 2668 6 790 2668
2.4538162 0.059924982 0.61017489 200 49941248 1273 6 816 1273
2.4641004 0.029925063 0.61246514 36 50135040 232 6 774 232
2.466229 -0.00031604484 0.6129232 43 50329600 277 6 779 277
2.4689593 -0.030617107 0.61361033 43 50524672 277 6 799 277
2.4859138 -0.061347701 0.61773288 372 50720000 2430 6 827 2430
2.4791374 -0.091632441 0.6163587 308 50914048 2002 6 826 2002
2.451576 -0.12075131 0.61017489 54 51109632 344 6 761 344
2.4771135 -0.15250589 0.6165877 245 51305728 1594 6 802 1594
2.4711723 -0.18260485 0.61567158 401 51501312 2601 6 820 2601
2.4716549 -0.21316756 0.6163587 439 51697408 2853 6 816 2853
2.4611032 -0.24271703 0.61452645 364 51893248 2351 6 850 2351
2.5014751 -0.27774078 0.62483281 48 52089856 321 6 819 321
2.4621339 -0.30399787 0.6163587 109 52286208 714 6 860 714
2.4649699 -0.3351081 0.61796188 300 52481280 1961 6 838 1961
2.4693375 -0.36661977 0.62002319 339 52677632 2237 6 861 2237
6.0050292 -0.96757632 1.4637716 58 52871680 2266 6 846 2266
6.003253 -1.043028 1.4662908 55 53066496 2157 6 842 2157
4.9163332 -0.91640222 1.2093186 119 53262592 3146 6 786 3146
4.9190373 -0.97951686 1.2127541 324 53458432 8606 6 800 8606
4.940928 -1.0470748 1.2209992 522 53653760 14059 6 852 14059
4.9856391 -1.1206551 1.2349701 569 53849856 15713 6 860 15713
5.0254912 -1.1945877 1.2480248 700 54044928 19742 6 932 19742
5.0293369 -1.2609041 1.2526054 955 54238976 27128 6 975 27128
5.0784283 -1.3396635 1.2684085 1136 54434816 33103 6 894 33103
5.1938758 -1.4385272 1.3007019 1108 54629632 33992 6 1097 33992
5.2459435 -1.5225093 1.3178791 1260 54823936 39724 6 882 39724
5.306036 -1.6108112 1.3373467 1201 55018240 39008 6 1001 39008
5.3601003 -1.6993425 1.3556691 1103 55212288 36829 6 1056 36829
5.4137034 -1.7897453 1.3742206 1123 55406848 38570 6 995 38570
5.4870524 -1.8890052 1.3980398 1126 55601152 40047 6 1047 40047
5.5441036 -1.9850787 1.4181945 1168 55795712 42774 6 1024 42774
5.6032605 -2.0841901 1.4392653 1512 55990784 57075 6 935 57075
5.5663652 -2.1485868 1.4365169 1619 56185344 60868 6 993 60868
5.4799337 -2.1928604 1.4214009 1489 56381184 54779 6 1050 54779
5.4076505 -2.2413042 1.4099494 1355 56575232 49022 6 1119 49022
5.3233809 -2.283318 1.3955204 1456 56770560 51596 6 1052 51596
5.2522502 -2.3295255 1.384527 1553 56965888 54146 6 910 54146
5.1887569 -2.3779843 1.3755949 1422 57158656 48939 6 926 48939
5.1143131 -2.4202409 1.3639143 1284 57354496 43421 6 1002 43421
5.0492411 -2.4657309 1.354753 1093 57549824 36448 6 1058 36448
4.9855671 -2.5108666 1.3460499 1121 57744896 36903 6 987 36903
4.915503 -2.5516739 1.3357435 1219 57938688 39505 6 920 39505
4.8451943 -2.5911427 1.3254371 1275 58133504 40669 6 893 40669
4.7823367 -2.6334996 1.3171921 1115 58329856 35114 6 941 35114
4.7242551 -2.6775868 1.3103211 953 58524672 29695 6 949 29695
4.6574063 -2.7157433 1.3011599 856 58719488 26288 6 965 26288
4.6045294 -2.7611768 1.2958922 873 58915840 26585 6 1065 26585
4.5379839 -2.7975492 1.28696 979 59110400 29391 6 951 29391
4.4613771 -2.8264551 1.2752794 1229 59305984 36218 6 933 36218
4.3953562 -2.8608098 1.2665763 1463 59501056 42504 6 921 42504
4.3396883 -2.9010065 1.2608505 1584 59696640 45592 6 990 45592
4.2788839 -2.936964 1.2537506 1680 59892224 47784 6 1035 47784
4.2226281 -2.9752333 1.2480248 1661 60087552 46798 6 1169 46798
4.168447 -3.0142775 1.2429861 1643 60281856 45906 6 1258 45906
4.114728 -3.0530219 1.2381765 1613 60478720 44723 6 1289 44723
4.063786 -3.0932622 1.234283 1634 60674816 45003 6 1147 45003
3.9979007 -3.1213307 1.2260379 1447 60869376 39316 6 1031 39316
3.9403009 -3.1549444 1.2203121 1357 61064448 36524 6 1010 36524
3.893013 -3.1962652 1.2177927 1176 61259264 31520 6 963 31520
3.8438163 -3.2356479 1.2148154 1242 61455616 33128 6 907 33128
3.7758183 -3.258405 1.2061123 1358 61650176 35686 6 897 35686
3.7216966 -3.2922394 1.2017606 1416 61845504 36932 6 978 36932
3.6810155 -3.3376625 1.2017606 1535 62041088 40032 6 1013 40032
3.6226683 -3.3666778 1.1962639 1500 62237696 38748 6 1091 38748
3.5662801 -3.3967803 1.1914543 1448 62432256 37093 6 1162 37093
3.5208454 -3.4368882 1.1903092 1354 62628608 34614 6 1147 34614
3.4728994 -3.4743276 1.1884769 1203 62822400 30655 6 1135 30655
3.4266045 -3.5131993 1.1873317 1020 63018496 25941 6 1097 25941
3.369143 -3.5401754 1.1825221 954 63213312 24068 6 995 24068
3.3254459 -3.5812535 1.1825221 795 63408128 20060 6 977 20060
3.2636034 -3.6023133 1.1763383 675 63603712 16864 6 858 16864
3.2133503 -3.6355269 1.1742769 729 63800576 18145 6 881 18145
3.1684947 -3.674686 1.1742769 712 63997440 17719 6 927 17719
3.115644 -3.7043514 1.1715286 746 64194560 18477 6 899 18477
3.0631609 -3.7340271 1.1690093 694 64389376 17091 6 846 17091
3.017108 -3.7713356 1.1690093 655 64585984 16154 6 875 16154
2.9688048 -3.8057735 1.1683222 720 64781824 17710 6 845 17710
2.9153974 -3.8333955 1.1658028 611 64977664 14985 6 859 14985
2.8582823 -3.8555889 1.1619093 491 65171712 11941 6 801 11941
2.7320926 -3.7814815 1.1303031 36 65366784 829 6 818 829
2.7190988 -3.8624845 1.144045 7 65561600 169 6 780 169
2.6544311 -3.8706734 1.136945 8 65756416 188 6 805 188
0 -0 0 5 65950976 0 6 739 0
2.5305188 -3.8913977 1.1248064 11 66146304 254 6 781 254
2.4794514 -3.9172227 1.1234322 8 66341632 187 6 752 187
2.42558 -3.938237 1.1209129 14 66535424 321 6 750 321
2.3705664 -3.9568501 1.1179355 11 66729216 249 6 809 249
2.32918 -3.9982598 1.1213709 14 66924544 323 6 730 323
2.297204 -4.0570369 1.129616 14 67120896 327 6 742 327
2.2599113 -4.1079502 1.1357999 18 67314944 421 6 785 421
2.210706 -4.1379495 1.136487 20 67508992 471 6 736 471
2.1552801 -4.1561251 1.1341966 16 67704576 373 6 797 373
2.100179 -4.1744342 1.1321354 16 67900160 373 6 770 373
2.091465 -4.2873831 1.1550385 470 68095744 11316 6 860 11316
2.0611556 -4.36025 1.1674061 2191 68292352 53825 6 1027 53825
2.0123549 -4.3958364 1.1701545 2223 68487168 54856 6 1079 54856
1.9594423 -4.4228702 1.1708416 2403 68683008 59387 6 1076 59387
1.9096185 -4.4573202 1.1735899 2254 68878848 55971 6 1143 55971
1.8592435 -4.4912114 1.1763383 1953 69074944 48730 6 1159 48730
1.8039895 -4.513689 1.1763383 488 69271552 12197 6 889 12197
0.26626244 -0.68977672 0.20662312 37 69467648 21 6 821 21
0.25642216 -0.68934214 0.205707 50 69663744 28 6 756 28
0.24761589 -0.69152033 0.20547797 35 69859840 20 6 743 20
0.23816203 -0.69174516 0.20479088 38 70055424 21 6 802 21
0.22874007 -0.69184256 0.20410378 39 70251776 22 6 765 22
0.21876429 -0.68995726 0.20295864 43 70447104 23 6 828 23
0.20943408 -0.68979508 0.20227155 36 70643456 19 6 763 19
0.2006826 -0.69137824 0.20204252 40 70839552 22 6 792 22
0.19192386 -0.69285065 0.20181349 24 71034880 13 6 782 13
0.18390271 -0.69703639 0.20227155 41 71229696 22 6 789 22
0.17557141 -0.70018494 0.20250058 41 71424512 22 6 787 22
0.16629191 -0.69944537 0.20181349 28 71617280 15 6 795 15
0.15727009 -0.6995337 0.20135543 39 71812864 21 6 800 21
0.14806989 -0.69855386 0.20066833 31 72007168 16 6 759 16
0.1394864 -0.70031828 0.20066833 23 72199424 12 6 719 12
0.13141564 -0.70484835 0.20135543 44 72392960 24 6 772 24
0.12308846 -0.70832622 0.20181349 26 72586496 14 6 774 14
0.11407821 -0.70786119 0.20135543 35 72780288 19 6 717 19
0.10581075 -0.71209657 0.20204252 45 72973056 24 6 762 24
0.097064257 -0.71334141 0.20204252 46 73168384 25 6 815 25
0.088897564 -0.71930945 0.20318767 33 73361920 18 6 788 18
0.080491908 -0.72421628 0.20410378 35 73556480 19 6 800 19
0.071693741 -0.72611827 0.20433281 34 73751552 19 6 760 19
0.062860996 -0.72791326 0.20456184 51 73946624 28 6 725 28
0.053780977 -0.72668821 0.20410378 41 74141696 23 6 854 23
0.044978175 -0.72923672 0.20456184 32 74338560 18 6 752 18
0.03607342 -0.73070598 0.20479088 36 74532864 20 6 767 20
0.027139371 -0.73206639 0.20501991 40 74730240 22 6 794 22
0.018200971 -0.7342906 0.20547797 46 74926336 26 6 790 26
0.0091887265 -0.73445868 0.20547797 47 75121408 26 6 763 26
-0 -0 0 7 75317760 0 6 804 0
-0.029126097 -2.3502116 0.58566862 34 75512576 199 6 805 199
-0.058230426 -2.3603814 0.58818793 36 75706624 212 6 815 212
-0.60078162 -16.19685 3.8461468 29 75902976 8054 6 834 8054
-0.80492502 -16.29812 3.8720272 32 76098816 9030 6 800 9030
-1.0139823 -16.434694 3.9068398 33 76295680 9498 6 773 9498
-0.18066397 -2.4449618 0.60948777 33 76492032 210 6 767 210
-0.21165931 -2.4541984 0.61223614 21 76687872 135 6 776 135
-1.6615567 -16.82506 4.0105906 29 76882432 8814 6 764 8814
-1.8831754 -16.940781 4.0431132 34 77077760 10431 6 848 10431
-2.1189892 -17.143421 4.0969353 22 77272832 6971 6 798 6971
-2.34916 -17.262735 4.1317477 35 77469184 11291 6 751 11291
-2.5821459 -17.376072 4.1658735 24 77662720 7859 6 800 7859
-2.8236856 -17.519903 4.208015 31 77858816 10370 6 771 10370
-3.0723071 -17.678617 4.254508 29 78054656 10136 6 929 10136
-3.3211401 -17.811831 4.2957335 27 78250240 9357 6 854 9357
-3.578074 -17.96353 4.342227 29 78445568 10300 6 817 10300
-3.8267093 -18.052538 4.3745203 28 78641152 10151 6 751 10151
-1.4997005 -6.6713681 1.6414992 36 78837504 1781 6 817 1781
-1.5837075 -6.6619325 1.6437895 58 79033344 2875 6 819 2875
-1.6857042 -6.723196 1.6634861 37 79228928 1879 6 829 1879
-4.9719005 -18.843523 4.6179795 38 79424256 15248 6 838 15248
-5.264359 -19.003418 4.6722598 32 79618304 13196 6 790 13196
-5.5612097 -19.158003 4.7263112 30 79813376 12957 6 920 12957
-2.0245957 -6.6687093 1.6724184 27 80009984 1425 6 938 1425
-2.1103981 -6.6563525 1.6756247 14 80205824 765 6 909 765
-0.37448406 -1.1337222 0.31358036 201 80401152 302 6 830 302
-0.38424835 -1.1170764 0.31060296 418 80595456 616 6 850 616
-0.39595851 -1.1067784 0.30922878 425 80790784 621 6 908 621
-0.40645581 -1.0936251 0.3071675 446 80986624 641 6 853 641
-0.41598922 -1.0785658 0.30464819 389 81179648 550 6 893 550
-0.42557654 -1.0643426 0.30235788 427 81373184 593 6 919 593
-0.43487793 -1.0500478 0.30006757 456 81567232 623 6 889 623
-0.44120675 -1.0294243 0.29617405 507 81761536 673 6 890 673
-0.4514378 -1.0185938 0.29479986 476 81955328 626 6 881 626
-0.46146986 -1.0076679 0.29342568 491 82147584 639 6 890 639
-0.47005278 -0.99401051 0.2913644 535 82341120 685 6 905 685
-0.4805066 -0.98466873 0.29044828 552 82537216 701 6 885 701
-0.48948848 -0.97261256 0.28884506 511 82732032 641 6 875 641
-0.51618898 -0.99504185 0.29640308 294 82926080 390 6 785 390
-0.53524745 -1.0015078 0.29983854 258 83122432 351 6 833 351
-0.55031484 -0.99997985 0.30121273 272 83317760 374 6 827 374
-0 -0 0 214 83512576 0 6 2346 0
-0 -0 0 111 83706880 0 6 3757 0
-0 -0 0 26 83902720 0 6 4711 0
-0 -0 0 0 84097536 0 6 3834 0
-0 -0 0 9 84293120 0 6 2813 0
-0 -0 0 9 84488960 0 6 2527 0
-0 -0 0 7 84684800 0 6 2531 0
-0 -0 0 3 84881152 0 6 2306 0
-0 -0 0 4 85076224 0 6 2867 0
-0 -0 0 0 85273088 0 6 3326 0
-0 -0 0 0 85469696 0 6 3553 0
-0 -0 0 0 85667584 0 6 4099 0
-0 -0 0 0 85862656 0 6 4195 0
-0 -0 0 0 86060544 0 6 4092 0
-0 -0 0 0 86257152 0 6 4144 0
-0 -0 0 0 86455040 0 6 4352 0
-0 -0 0 0 86650368 0 6 3809 0
-0 -0 0 1 86847232 0 6 3350 0
-0 -0 0 0 87042304 0 6 3225 0
-0 -0 0 2 87237120 0 6 3507 0
-0 -0 0 4 87430656 0 6 3303 0
-0 -0 0 1 87625472 0 6 2820 0
-0 -0 0 1 87818240 0 6 2802 0
-0 -0 0 5 88012288 0 6 2850 0
-0 -0 0 3 88205824 0 6 2657 0
-0 -0 0 3 88399616 0 6 2863 0
-0 -0 0 4 88594688 0 6 2857 0
-0 -0 0 5 88789248 0 6 2731 0
-0 -0 0 5 88983040 0 6 2873 0
-0 -0 0 2 89176832 0 6 2672 0
-0 -0 0 5 89374208 0 6 2824 0
-0 -0 0 6 89568512 0 6 2734 0
-0 -0 0 2 89762304 0 6 2789 0
-0 -0 0 5 89955584 0 6 2862 0
-0 -0 0 5 90150144 0 6 2821 0
-0 -0 0 3 90347264 0 6 2625 0
-0 -0 0 4 90542080 0 6 2729 0
-0 -0 0 2 90737920 0 6 2982 0
-0 -0 0 0 90932992 0 6 3018 0
-0 -0 0 0 91127040 0 6 3801 0
-0 -0 0 0 91321600 0 6 3573 0
-0 -0 0 0 91517440 0 6 3627 0
-0 -0 0 0 91712256 0 6 3563 0
-0 -0 0 0 91906048 0 6 3589 0
-0 -0 0 0 92100864 0 6 3551 0
-0 -0 0 0 92296192 0 6 3353 0
-0 -0 0 0 92491008 0 6 3302 0
-0 -0 0 0 92686080 0 6 3312 0
-0 -0 0 1 92881408 0 6 2878 0
-0 -0 0 4 93077248 0 6 1719 0
-0 -0 0 5 93272576 0 6 1077 0
-0 -0 0 5 93468160 0 6 1098 0
-0 -0 0 34 93663488 0 6 959 0
-0 -0 0 32 93859328 0 6 831 0
-0 -0 0 4 94054400 0 6 1398 0
-0 -0 0 5 94251008 0 6 1298 0
-0 -0 0 6 94447360 0 6 980 0
-0 -0 0 6 94643968 0 6 845 0
-0 -0 0 24 94840064 0 6 742 0
-0.86573142 -0.29796204 0.24807765 16 95035136 14 6 803 14
-0 -0 0 16 95230976 0 6 790 0
-0 -0 0 17 95426560 0 6 783 0
-0.89381206 -0.27125874 0.25242922 149 95621888 137 6 850 137
-0.89800847 -0.26054072 0.25265825 187 95817472 173 6 876 173
-0.90207636 -0.24976052 0.25288728 242 96010752 224 6 841 224
-0.90413201 -0.23842403 0.25265825 241 96204288 223 6 946 223
-0.90793407 -0.22754724 0.25288728 291 96399104 270 6 866 270
-0.91349947 -0.21706229 0.25357437 321 96594432 298 6 842 298
-0.91799408 -0.20626193 0.25403243 304 96787968 284 6 835 284
-0.92426556 -0.19578655 0.25494856 297 96981760 280 6 870 280
-0.93041766 -0.18518817 0.25586468 291 97175552 277 6 883 277
-0.94697547 -0.17642513 0.25930014 216 97368832 211 6 837 211
-0.9596197 -0.1666186 0.26181948 160 97562880 160 6 836 160
-0.95582551 -0.15390386 0.2604453 81 97756672 80 6 825 80
-0 -0 0 46 97950208 0 6 850 0
-0 -0 0 7 98141184 0 6 911 0
-0 -0 0 6 98334976 0 6 941 0
-0 -0 0 5 98530304 0 6 929 0
-0 -0 0 5 98725632 0 6 874 0
-0 -0 0 5 98921472 0 6 912 0
-0 -0 0 6 99116800 0 6 912 0
-0 -0 0 6 99312384 0 6 857 0
-0 -0 0 6 99507712 0 6 854 0
-0 -0 0 5 99704832 0 6 820 0
-0 -0 0 5 0 0 7 1041 0
-0 -0 0 5 196608 0 7 1193 0
-0 0 0 6 393472 0 7 1323 0
-0 0 0 7 587264 0 7 1293 0
-0 0 0 6 781824 0 7 1227 0
-0 0 0 7 977408 0 7 1240 0
-0 0 0 6 1172736 0 7 1180 0
-0 0 0 10 1366016 0 7 1112 0
-0 0 0 6 1561600 0 7 1116 0
-0 0 0 8 1756416 0 7 1095 0
-0 0 0 19 1950464 0 7 1084 0
-0 0 0 17 2145024 0 7 1058 0
-1.1699786 0.14404356 0.28119367 36 2341120 52 7 1109 52
-1.1661836 0.15812655 0.28078163 45 2534400 65 7 1093 65
-1.0528425 0.1559014 0.25708777 223 2728448 265 7 1067 265
-1.0064094 0.16165411 0.24761024 395 2923008 429 7 1026 429
-0.9879598 0.17114635 0.24410768 466 3116800 490 7 1040 490
-0.97424126 0.18110664 0.24163528 515 3312384 529 7 1098 529
-0.96522743 0.19171138 0.24019304 507 3508224 513 7 1109 513
-0.95514369 0.20191959 0.23854476 494 3703552 492 7 1102 492
-0.94495595 0.21190943 0.2368965 514 3897856 504 7 1250 504
-0.93276393 0.2212275 0.23483616 465 4093952 447 7 1181 447
-0.92238533 0.23075432 0.2331879 504 4290560 477 7 1123 477
-0.90529114 0.23831351 0.2300974 356 4484352 326 7 1106 326
-0.90229851 0.24940489 0.2300974 240 4680704 220 7 1054 220
-0.89916998 0.26045871 0.2300974 139 4876032 127 7 1053 127
-0.88466948 0.26806337 0.227625 79 5071360 71 7 1088 71
-0.85519439 0.27062187 0.22185606 37 5266688 31 7 1071 31
-0.85738373 0.28293836 0.22309226 35 5463296 30 7 1011 30
-0 0 0 15 5658624 0 7 1103 0
-0 0 0 15 5853952 0 7 989 0
-0.83446515 0.30987099 0.22041383 32 6050304 27 7 1001 27
-0.82512206 0.31797418 0.21917763 40 6245376 32 7 1143 32
-0.77754772 0.31063017 0.20928803 153 6441728 112 7 1063 112
-0.76644516 0.3171519 0.20763975 291 6637056 209 7 1039 209
-0.75260264 0.32229149 0.20537339 391 6832640 274 7 1051 274
-0.74232906 0.32872629 0.20393115 476 7027968 328 7 1068 328
-0.73112226 0.33455032 0.20228289 576 7221248 390 7 1097 390
-0.72253901 0.34140474 0.20125273 584 7416832 390 7 1082 390
-0.71477765 0.3485285 0.20042859 624 7609600 413 7 1120 413
-0.70520276 0.3546333 0.19919239 677 7801856 441 7 1119 441
