# .PCD v0.7 - Point Cloud Data file format
VERSION 0.7
FIELDS x y z intensity t reflectivity ring noise range
SIZE 4 4 4 4 4 2 2 2 4
TYPE F F F F U U U U U
COUNT 1 1 1 1 1 1 1 1 1
WIDTH 423
HEIGHT 1
VIEWPOINT 0 0 0 1 0 0 0
POINTS 423
DATA ascii
2.7738786 0.34171292 1.1015279 102 48431360 916 0 773 916
2.7554243 0.37333 1.0284171 158 48220416 1381 1 804 1381
2.7822204 0.3422437 1.0365192 194 48431360 1722 1 816 1722
2.7880821 0.30828243 1.0371944 163 48611072 1449 1 836 1449
2.7822871 0.27312684 1.0338185 165 48823040 1457 1 832 1457
2.781678 0.23864201 1.0324682 174 49000960 1532 1 838 1532
2.7802272 0.41149086 0.97019166 216 48039168 1898 2 851 1898
2.7352517 0.37059966 0.95340085 40 48220416 346 2 898 346
2.751832 0.33850977 0.95751935 75 48431360 650 2 864 650
2.7916036 0.30867136 0.96955806 183 48611072 1613 2 928 1613
2.745151 0.26948643 0.95276719 103 48823040 879 2 872 879
2.7879426 0.2391786 0.96607316 28 49000960 244 2 826 244
2.7963436 0.2053643 0.96797401 25 49214976 227 2 863 227
2.7891858 0.17045611 0.9648059 108 49391360 939 2 814 939
2.797699 0.13653843 0.96702355 225 49605120 1971 2 891 1971
2.7906332 0.10188578 0.9641723 112 49780736 978 2 941 978
2.7818151 0.44617516 0.90384477 215 47831808 1875 3 1084 1875
2.7634552 0.40851516 0.89645207 129 48039168 1111 3 930 1111
2.7957137 0.37828347 0.90502763 23 48220416 205 3 1038 205
2.815316 0.34580868 0.90975893 20 48431360 182 3 980 182
2.7709217 0.30589509 0.89467782 178 48611072 1523 3 966 1523
2.7953832 0.27391529 0.90118343 232 48823040 2012 3 1006 2012
2.7985339 0.239591 0.90118343 228 49000960 1978 3 1009 1978
2.781256 0.20376754 0.89497352 149 49214976 1276 3 1015 1276
2.7940359 0.17025962 0.89822632 252 49391360 2171 3 984 2171
2.8054564 0.1364224 0.90118343 260 49605120 2254 3 1030 2254
2.8002367 0.10174295 0.89911348 162 49780736 1399 3 1044 1399
2.7678492 0.066572696 0.88876367 24 49993216 207 3 966 207
2.8162184 0.033157837 0.90354908 101 50170624 885 3 941 885
2.8001735 -0.0013937177 0.89852202 199 50381312 1717 3 1024 1717
2.7608716 0.47863925 0.8296805 211 47648512 1792 4 804 1792
2.7665374 0.44472304 0.8296805 228 47831808 1937 4 817 1937
2.7689323 0.41031733 0.82885909 219 48039168 1859 4 740 1859
2.761369 0.37462819 0.8252998 228 48220416 1916 4 817 1916
2.7466664 0.33836448 0.81982398 41 48431360 340 4 797 340
2.7563477 0.30526763 0.82146674 30 48611072 252 4 725 252
2.7828586 0.27367604 0.82803774 199 48823040 1685 4 784 1685
2.7860076 0.23950545 0.82803774 88 49000960 745 4 777 745
2.7954514 0.2057922 0.82995427 32 49214976 274 4 715 274
2.8044863 0.17188315 0.83187079 30 49391360 258 4 750 258
2.780447 0.136188 0.82447845 179 49605120 1502 4 765 1502
2.7886369 0.10230328 0.82639498 192 49780736 1620 4 743 1620
2.8108354 0.068587996 0.83241838 31 49993216 267 4 727 267
2.8105037 0.034078024 0.83214462 75 50170624 642 4 772 642
2.8068631 -0.00041265413 0.83104944 247 50381312 2106 4 767 2106
2.805685 -0.034845077 0.83077562 224 50562048 1909 4 809 1909
2.8069692 -0.069320276 0.83132321 225 50770688 1919 4 807 1919
2.8116739 -0.10397492 0.83296597 283 50952448 2426 4 747 2426
2.756192 0.54781896 0.76274168 114 47256832 968 5 925 968
2.7427247 0.5102405 0.75745887 243 47441920 2020 5 853 2020
2.7773888 0.48150039 0.76500577 43 47648512 365 5 832 365
2.7735324 0.44584653 0.76249009 30 47831808 253 5 836 253
2.7720931 0.41078526 0.76072919 32 48039168 268 5 848 268
2.7644572 0.37504673 0.75745887 255 48220416 2127 5 920 2127
2.7832603 0.34286737 0.76123232 47 48431360 402 5 908 402
2.7843723 0.30836746 0.7604776 32 48611072 268 5 824 268
2.7725356 0.27266225 0.75645262 267 48823040 2220 5 933 2220
2.77953 0.23894949 0.75745887 278 49000960 2312 5 837 2312
2.782253 0.20482239 0.75745887 288 49214976 2401 5 956 2401
2.7932513 0.17119612 0.75972295 209 49391360 1749 5 842 1749
2.806742 0.13747232 0.76274168 326 49605120 2757 5 957 2757
2.8053162 0.10291288 0.76198697 275 49780736 2323 5 879 2323
2.8034651 0.068409152 0.76123232 203 49993216 1706 5 851 1706
2.8253844 0.034256428 0.76676667 38 50170624 324 5 850 324
2.8275278 -0.00041851497 0.76726979 41 50381312 358 5 866 358
2.8263421 -0.035104446 0.76701826 154 50562048 1321 5 924 1321
2.8237634 -0.069737315 0.76651514 28 50770688 239 5 810 239
2.823662 -0.10441988 0.76676667 32 50952448 281 5 865 281
2.8173347 -0.13882388 0.76550889 60 51159808 517 5 883 517
2.822181 -0.17380382 0.76726979 292 51345152 2500 5 918 2500
2.8256269 -0.20885207 0.76877922 284 51550208 2442 5 894 2442
2.8324938 -0.24434425 0.77129483 163 51737088 1415 5 902 1415
2.7328165 0.57812381 0.68987751 124 47052032 1028 6 952 1028
2.756891 0.54795784 0.69400001 297 47256832 2486 6 872 2486
2.7653217 0.51444107 0.69445807 269 47441920 2247 6 829 2247
2.7656715 0.4794707 0.69308388 269 47648512 2238 6 815 2238
2.770386 0.4453412 0.69285488 240 47831808 2003 6 859 2003
2.7766054 0.41145334 0.69308388 289 48039168 2411 6 894 2411
2.7756579 0.37656474 0.6917097 253 48220416 2096 6 825 2096
2.7752392 0.34188038 0.69056457 292 48431360 2417 6 893 2417
2.7811608 0.30801222 0.69102263 43 48611072 357 6 775 357
2.7798874 0.27338421 0.68987751 43 48823040 355 6 774 355
2.788852 0.2397496 0.69125164 154 49000960 1274 6 845 1274
2.7731388 0.20415269 0.68690008 88 49214976 719 6 808 719
2.7832081 0.17058197 0.68873233 37 49391360 304 6 846 304
2.7870364 0.13650985 0.68919039 44 49605120 362 6 803 362
2.787529 0.10226279 0.68896139 216 49780736 1782 6 857 1782
2.7983053 0.068283953 0.69125164 294 49993216 2433 6 844 2433
2.8164527 0.034149349 0.69537419 58 50170624 486 6 820 486
2.8069255 -0.00041267188 0.69308388 138 50381312 1149 6 782 1149
2.8106027 -0.034906823 0.69400001 279 50562048 2328 6 790 2328
2.8187206 -0.069612093 0.69606131 260 50770688 2190 6 858 2190
2.8254361 -0.10448573 0.69789356 219 50952448 1849 6 806 1849
2.8336635 -0.13963071 0.70018387 195 51159808 1657 6 812 1657
2.822021 -0.17379393 0.69789356 314 51345152 2650 6 831 2650
2.814822 -0.20805196 0.69674838 278 51550208 2338 6 818 2338
2.820785 -0.24333262 0.69880968 38 51737088 322 6 792 322
2.8175867 -0.27792966 0.69880968 28 51940608 238 6 776 238
2.8584669 -0.31743294 0.7093451 177 52129024 1546 6 837 1546
2.8379333 -0.35045651 0.70545155 195 52331264 1691 6 881 1691
2.7427058 0.61597675 0.62485737 237 46864896 1960 7 1146 1960
2.7491012 0.58207059 0.62465137 255 47052032 2108 7 1045 2108
2.7339623 0.54390264 0.61991256 32 47256832 264 7 1022 264
2.7538996 0.51281786 0.62279707 90 47441920 743 7 971 743
2.7609494 0.47915187 0.62300307 303 47648512 2490 7 1113 2490
2.7637229 0.44476867 0.62238497 41 47831808 339 7 1068 339
2.7718768 0.41125047 0.62300307 52 48039168 431 7 1035 431
2.7825327 0.37799382 0.62423927 50 48220416 417 7 980 417
2.7704513 0.34178486 0.62073672 351 48431360 2861 7 1142 2861
2.7763822 0.30797693 0.62114877 211 48611072 1723 7 1117 1723
2.8091679 0.27675751 0.62732977 60 48823040 503 7 1069 503
2.787004 0.24008375 0.62197292 389 49000960 3183 7 1134 3183
2.7907162 0.20593673 0.62217897 370 49214976 3030 7 1097 3030
2.7949865 0.17179465 0.62259102 377 49391360 3092 7 1138 3092
2.7704952 0.1361894 0.61702812 138 49605120 1114 7 1038 1114
2.8042281 0.10336597 0.62382722 348 49780736 2866 7 1147 2866
2.8062637 0.068969898 0.62403327 326 49993216 2687 7 1132 2687
2.8088558 0.034551334 0.62444532 175 50170624 1447 7 1076 1447
2.8022184 8.0500402e-05 0.62300307 35 50381312 292 7 1021 292
2.8088577 -0.034391839 0.62444532 51 50562048 424 7 1069 424
2.8336585 -0.069485411 0.62980217 93 50770688 785 7 1013 785
2.8296587 -0.10414515 0.62918407 37 50952448 314 7 1051 314
2.8350093 -0.13919844 0.63062632 48 51159808 408 7 1058 408
2.8116002 -0.17265542 0.62609357 84 51345152 700 7 1076 700
2.8239081 -0.20822647 0.62918407 384 51550208 3221 7 1102 3221
2.8455133 -0.24496606 0.63433492 267 51737088 2279 7 1100 2279
2.8637171 -0.28197891 0.63886768 82 51940608 714 7 1015 714
2.8483703 -0.3158043 0.63639528 403 52129024 3461 7 1116 3461
2.732605 0.64903319 0.55540913 252 46662400 2059 8 1209 2059
2.7528346 0.61825001 0.55778491 356 46864896 2938 8 1003 2938
2.7457862 0.58136916 0.55504364 296 47052032 2419 8 969 2419
2.7768209 0.55242288 0.55961239 50 47256832 415 8 835 415
2.7379622 0.50985241 0.55102313 136 47441920 1092 8 847 1092
2.7517624 0.47755879 0.55248517 361 47648512 2923 8 883 2923
2.7603276 0.44422272 0.55303341 387 47831808 3137 8 924 3137
2.7626534 0.40988335 0.55248517 344 48039168 2785 8 890 2785
2.7713723 0.3764793 0.55321616 235 48220416 1910 8 893 1910
2.7748077 0.34232169 0.55303341 392 48431360 3178 8 959 3178
2.770005 0.30727044 0.55138862 309 48611072 2491 8 955 2491
2.7882438 0.27469897 0.5541299 69 48823040 560 8 847 560
2.8051183 0.24164169 0.55668837 70 49000960 581 8 903 581
2.8157165 0.20777813 0.55815041 69 49214976 577 8 859 577
2.8170729 0.17314912 0.55796766 81 49391360 668 8 793 668
2.8022919 0.13774799 0.55486089 74 49605120 611 8 859 611
2.7919812 0.10291623 0.55266792 54 49780736 444 8 864 444
2.814657 0.069175027 0.55668837 253 49993216 2082 8 913 2082
2.8113616 0.034581814 0.55595738 325 50170624 2667 8 868 2667
2.7899449 8.1839244e-05 0.55193686 209 50381312 1691 8 928 1691
2.8103805 -0.034410696 0.55577463 201 50562048 1643 8 854 1643
2.8274381 -0.069332026 0.55906415 297 50770688 2465 8 947 2465
2.8312869 -0.1042053 0.55997789 379 50952448 3155 8 952 3155
2.8170292 -0.13831316 0.55760217 229 51159808 1893 8 881 1893
2.8268955 -0.17359677 0.55979514 85 51345152 713 8 902 713
2.8353376 -0.20907082 0.56180543 368 51550208 3085 8 979 3085
2.8354971 -0.2441024 0.56235367 357 51737088 2998 8 965 2998
2.8391371 -0.27955526 0.56363291 384 51940608 3242 8 908 3242
2.7369831 0.68514889 0.48814481 367 46472960 3000 9 1206 3000
2.7423029 0.65082675 0.48766774 360 46662400 2940 9 1008 2940
2.7423763 0.61539716 0.4863956 433 46864896 3515 9 1049 3515
2.7477899 0.58128923 0.48607755 384 47052032 3114 9 1034 3114
2.7576213 0.54810286 0.48655459 290 47256832 2357 9 1015 2357
2.7505505 0.51169527 0.48432833 62 47441920 498 9 851 498
2.7546773 0.47756621 0.48401028 68 47648512 553 9 869 553
2.7496076 0.44200397 0.48226106 229 47831808 1829 9 961 1829
2.7753339 0.41126508 0.4856005 73 48039168 596 9 960 596
2.7772367 0.37677872 0.48512343 80 48220416 651 9 953 651
2.7728324 0.34158421 0.48369226 117 48431360 943 9 928 943
2.7777967 0.30764011 0.48385128 430 48611072 3451 9 1094 3451
2.7882404 0.27420455 0.4849644 420 48823040 3388 9 1032 3388
2.7923791 0.24005233 0.48512343 104 49000960 843 9 1006 843
2.7921607 0.20555042 0.48464638 415 49214976 3343 9 998 3343
2.7865896 0.17078874 0.48337421 476 49391360 3813 9 1030 3813
2.7924199 0.1367728 0.48401028 488 49605120 3919 9 1023 3919
2.8067141 0.10296398 0.48607755 127 49780736 1034 9 948 1034
2.8196101 0.068800911 0.48798579 221 49993216 1811 9 961 1811
2.8074083 0.034040917 0.48591852 420 50170624 3401 9 1083 3401
2.811564 -0.00041398735 0.48655459 160 50381312 1303 9 988 1303
2.8093727 -0.034891378 0.48623657 65 50562048 534 9 893 534
2.80972 -0.069388583 0.4863956 59 50770688 484 9 947 484
2.8422012 -0.10510799 0.49180225 233 50952448 1941 9 934 1941
2.8170316 -0.13880889 0.48798579 58 51159808 479 9 944 479
2.8141308 -0.17330694 0.48782676 47 51345152 390 9 901 390
2.8245916 -0.2087754 0.48989403 159 51550208 1316 9 917 1316
2.8336203 -0.24444158 0.49180225 384 51737088 3194 9 1028 3194
2.7390432 0.72149444 0.42155406 466 46270976 3814 10 1135 3814
2.7265456 0.68253762 0.41857213 239 46472960 1928 10 1063 1928
2.7453203 0.65154248 0.42006308 69 46662400 566 10 946 566
2.7511756 0.61737049 0.419792 83 46864896 678 10 954 678
2.7352803 0.57864463 0.41653898 297 47052032 2370 10 1029 2370
2.7528648 0.54715812 0.41802993 451 47256832 3623 10 1162 3623
2.748657 0.51134324 0.41653898 192 47441920 1534 10 1026 1534
2.7703447 0.48028022 0.41870767 247 47648512 1994 10 1056 1994
2.7672257 0.44483361 0.41748777 573 47831808 4589 10 1110 4589
2.7636554 0.40953612 0.4162679 513 48039168 4086 10 1061 4086
2.7625821 0.37479261 0.41545463 430 48220416 3410 10 999 3410
2.7836905 0.3429203 0.41775885 162 48431360 1303 10 1023 1303
2.7817805 0.30808076 0.41694561 511 48611072 4083 10 1037 4083
2.7883096 0.27421135 0.41735223 495 48823040 3962 10 1172 3962
2.7855418 0.23946549 0.41653898 158 49000960 1262 10 1059 1262
2.791235 0.20548239 0.41694561 132 49214976 1058 10 1018 1058
2.7915685 0.17109323 0.41667452 138 49391360 1105 10 993 1105
2.7805934 0.13619515 0.41491246 331 49605120 2620 10 969 2620
2.798887 0.10267791 0.41721669 114 49780736 917 10 938 917
2.8048887 0.068443701 0.41789439 101 49993216 816 10 980 816
2.8015547 0.033970736 0.41735223 408 50170624 3268 10 1021 3268
2.812659 -0.00041429797 0.41884321 471 50381312 3800 10 1124 3800
2.8144236 -0.034954797 0.41911429 453 50562048 3660 10 1070 3660
2.7969449 -0.069071345 0.41681007 334 50770688 2667 10 1129 2667
2.8275695 -0.10456491 0.42114744 487 50952448 3978 10 1114 3978
2.8290422 -0.13940234 0.42155406 453 51159808 3708 10 1086 3708
2.8350296 -0.17459683 0.42263839 464 51345152 3817 10 1130 3817
2.8346496 -0.20952019 0.42290947 418 51550208 3445 10 1088 3445
2.7220562 0.75286108 0.35072264 454 46080256 3675 11 876 3675
2.7272456 0.71838856 0.35027745 485 46270976 3915 11 879 3915
2.7329638 0.68414336 0.34994358 499 46472960 4019 11 893 4019
2.7382526 0.6498661 0.34960967 507 46662400 4068 11 841 4068
2.7450516 0.61599714 0.34949839 259 46864896 2077 11 775 2077
2.7494872 0.58164811 0.34916449 427 47052032 3417 11 854 3417
2.7583675 0.54825109 0.34938708 492 47256832 3949 11 875 3949
2.7658646 0.51454204 0.34949839 322 47441920 2581 11 823 2581
2.7553241 0.47767827 0.34760636 163 47648512 1293 11 753 1293
2.7649033 0.44446063 0.34805155 148 47831808 1177 11 747 1177
2.7475388 0.40715012 0.34549174 264 48039168 2062 11 836 2062
2.7730086 0.37620571 0.34782895 181 48220416 1436 11 840 1436
2.7774165 0.34214827 0.34782895 171 48431360 1358 11 780 1358
2.7725163 0.30705604 0.3468273 257 48611072 2026 11 804 2026
2.7770646 0.27310699 0.34693858 535 48823040 4227 11 865 4227
2.787138 0.23960248 0.34771764 507 49000960 4026 11 861 4026
2.7938328 0.20567326 0.34816283 355 49214976 2822 11 797 2822
2.7901947 0.1710092 0.34749505 527 49391360 4170 11 852 4170
2.7980387 0.13704723 0.34816283 532 49605120 4235 11 867 4235
2.8064618 0.10295475 0.34894189 540 49780736 4322 11 869 4322
2.8005593 0.068338647 0.34816283 159 49993216 1265 11 816 1265
2.7982061 0.033930589 0.34782895 132 50170624 1047 11 793 1047
2.8073556 -0.00041279386 0.34883061 421 50381312 3360 11 813 3360
2.8061457 -0.034850858 0.34871933 170 50562048 1356 11 825 1356
2.8392849 -0.070122756 0.35250336 85 50770688 696 11 760 696
2.8481417 -0.10532847 0.35361633 65 50952448 536 11 750 536
2.8406792 -0.13997735 0.35294855 301 51159808 2466 11 833 2466
2.824861 -0.17396922 0.35139039 360 51345152 2928 11 880 2928
2.7201772 0.78839964 0.28258619 470 45882624 3806 12 1391 3806
2.728687 0.7546941 0.28249905 115 46080256 936 12 1288 936
2.7319627 0.71963036 0.2819761 86 46270976 691 12 1283 691
2.7367222 0.68508363 0.28162748 122 46472960 979 12 1251 979
2.7429845 0.65098846 0.28145316 156 46662400 1250 12 1247 1250
2.7546549 0.61815077 0.28180179 107 46864896 867 12 1307 867
2.7522867 0.58223993 0.28093022 164 47052032 1309 12 1213 1309
2.7611785 0.54880941 0.28110453 397 47256832 3178 12 1336 3178
2.7520347 0.51197112 0.27971005 495 47441920 3916 12 1384 3916
2.7532022 0.47731072 0.27927428 508 47648512 4005 12 1338 4005
2.7568851 0.44317281 0.27909997 370 47831808 2909 12 1269 2909
2.7660577 0.40989178 0.2794486 534 48039168 4209 12 1284 4209
2.7669308 0.37538198 0.27909997 502 48220416 3954 12 1310 3954
2.7624304 0.34030423 0.27831557 464 48431360 3631 12 1321 3631
2.7812507 0.30802217 0.27962291 303 48611072 2391 12 1284 2391
2.7868042 0.27406347 0.2797972 458 48823040 3627 12 1339 3627
2.7959127 0.24035561 0.28032014 548 49000960 4354 12 1472 4354
2.7946777 0.20573534 0.27997151 272 49214976 2160 12 1332 2160
2.7959976 0.17136405 0.27988437 254 49391360 2010 12 1205 2010
2.7958999 0.13694276 0.27971005 228 49605120 1808 12 1326 1808
2.8073251 0.10298631 0.28058162 557 49780736 4437 12 1350 4437
2.8004105 0.068335034 0.27988437 148 49993216 1171 12 1250 1171
2.801038 0.033964545 0.27988437 139 50170624 1099 12 1245 1099
2.8161869 -0.00041529853 0.28119171 409 50381312 3275 12 1359 3275
2.818958 -0.035011735 0.28145316 443 50562048 3556 12 1304 3556
2.8183162 -0.06960205 0.28145316 514 50770688 4123 12 1362 4123
2.8222275 -0.10436663 0.28188896 534 50952448 4299 12 1369 4299
2.8396387 -0.13992594 0.2835449 303 51159808 2476 12 1336 2476
2.7059546 0.85680014 0.21376377 68 45494528 551 13 802 551
2.7219958 0.82526606 0.21414052 453 45690368 3689 13 907 3689
2.7319181 0.79180086 0.21414052 484 45882624 3939 13 877 3939
2.7337334 0.75608909 0.21363819 502 46080256 4054 13 853 4054
2.7360499 0.7207064 0.21319866 135 46270976 1086 13 772 1086
2.7359743 0.68489653 0.21263354 498 46472960 3978 13 825 3978
2.7354333 0.64919746 0.21206842 601 46662400 4771 13 796 4771
2.7422202 0.61536217 0.21200563 589 46864896 4673 13 807 4673
2.7368715 0.57898104 0.21118936 273 47052032 2148 13 737 2148
2.7506225 0.54671282 0.2116289 297 47256832 2346 13 820 2346
2.763993 0.51419407 0.21206842 545 47441920 4325 13 838 4325
2.7553442 0.47768173 0.21112657 441 47648512 3464 13 788 3464
2.7649403 0.44446653 0.21137773 351 47831808 2765 13 835 2765
2.7613008 0.40918753 0.21081261 426 48039168 3336 13 761 3336
2.7700703 0.37580746 0.21106377 438 48220416 3438 13 794 3438
2.7665489 0.34081104 0.21056145 513 48431360 4006 13 784 4006
2.7715149 0.30694526 0.21062425 536 48611072 4188 13 752 4188
2.7780526 0.27320403 0.21081261 549 48823040 4295 13 818 4295
2.7881567 0.23968992 0.21125215 637 49000960 5017 13 890 5017
2.7958648 0.20582257 0.21156611 644 49214976 5089 13 872 5089
2.7981801 0.17149752 0.21156611 588 49391360 4649 13 870 4649
2.8020675 0.137244 0.21169168 591 49605120 4671 13 818 4671
2.809525 0.10306671 0.21206842 614 49780736 4876 13 828 4876
2.8115759 0.068605959 0.21213122 586 49993216 4656 13 845 4656
2.8032246 0.033990756 0.21156611 177 50170624 1397 13 801 1397
2.8044286 -0.00041196367 0.2116289 162 50381312 1281 13 734 1281
2.8052104 -0.034839116 0.21169168 363 50562048 2870 13 788 2870
2.8175418 -0.06958282 0.21250796 481 50770688 3845 13 868 3845
2.799521 -0.10352386 0.21144052 261 50952448 2057 13 851 2057
2.713974 0.85986233 0.14395186 408 45494528 3312 14 1256 3312
2.6994581 0.81895369 0.14296284 81 45690368 649 14 1058 649
2.7217817 0.78938228 0.14345735 419 45882624 3373 14 1163 3373
2.7245219 0.75405753 0.14319108 506 46080256 4051 14 1198 4051
2.720042 0.71700257 0.14265853 135 46270976 1073 14 1126 1073
2.7266972 0.68308413 0.14258246 135 46472960 1072 14 1069 1072
2.744597 0.65187973 0.14296284 157 46662400 1254 14 1136 1254
2.7377646 0.61486769 0.14239226 381 46864896 3007 14 1105 3007
2.7568355 0.58370703 0.14284873 212 47052032 1690 14 1082 1690
2.7520297 0.54749441 0.14239226 255 47256832 2014 14 1093 2014
2.7526464 0.51258475 0.14216402 506 47441920 3977 14 1161 3977
2.7616832 0.47927913 0.14227815 584 47648512 4597 14 1147 4597
2.7673569 0.44535294 0.14227815 566 47831808 4455 14 1193 4455
2.7696481 0.41092011 0.14216402 570 48039168 4479 14 1192 4479
2.7734921 0.37676695 0.14212599 536 48220416 4209 14 1117 4209
2.7808819 0.34307021 0.14224011 523 48431360 4114 14 1218 4114
2.7838893 0.30880865 0.14220206 586 48611072 4608 14 1152 4608
2.7884638 0.27472064 0.14224011 593 48823040 4664 14 1203 4664
2.7906294 0.24039558 0.14220206 597 49000960 4695 14 1135 4695
2.7943659 0.20620556 0.14224011 559 49214976 4398 14 1142 4398
2.7946911 0.17177653 0.14216402 495 49391360 3890 14 1069 3890
2.7965887 0.13746844 0.14216402 413 49605120 3246 14 1157 3246
2.7860818 0.10269958 0.14170755 344 49780736 2682 14 1130 2682
2.806113 0.06896621 0.14243031 550 49993216 4343 14 1176 4343
2.8047495 0.034501392 0.14235422 357 50170624 2816 14 1099 2816
2.8119566 7.9438119e-05 0.1426205 188 50381312 1492 14 1138 1492
2.8067498 -0.034365743 0.14243031 460 50562048 3633 14 1170 3633
2.8061168 -0.068806298 0.14243031 179 50770688 1414 14 1227 1414
2.7068269 0.89429408 0.075270705 439 45298176 3575 15 948 3575
2.7090182 0.85829294 0.075146616 108 45494528 879 15 921 879
2.7078643 0.82150263 0.07498116 64 45690368 520 15 889 520
2.7302263 0.79183018 0.075160399 104 45882624 848 15 872 848
2.7223909 0.75346798 0.07491222 476 46080256 3806 15 1019 3806
2.7256305 0.71847492 0.074829496 526 46270976 4188 15 962 4188
2.7264824 0.68303031 0.074719198 391 46472960 3098 15 883 3098
2.7395234 0.65067542 0.074788138 557 46662400 4425 15 941 4425
2.7414482 0.6156944 0.074705407 509 46864896 4025 15 966 4025
2.7458625 0.58138531 0.074664049 545 47052032 4300 15 949 4300
2.7586744 0.54881537 0.074746773 332 47256832 2634 15 891 2634
2.7573373 0.51345754 0.074636467 432 47441920 3407 15 926 3407
2.7604749 0.47906959 0.074595109 510 47648512 4011 15 976 4011
2.7710822 0.44595194 0.074664049 550 47831808 4340 15 900 4340
2.7714005 0.41117987 0.074595109 657 48039168 5166 15 947 5166
2.7851551 0.37834969 0.074719198 740 48220416 5855 15 962 5855
2.7796643 0.34292015 0.074581318 627 48431360 4925 15 965 4925
2.7866447 0.30911389 0.074622683 608 48611072 4785 15 999 4785
2.7902281 0.27489421 0.074622683 706 48823040 5559 15 980 5559
2.7933915 0.24063312 0.074622683 646 49000960 5088 15 945 5088
2.7981284 0.20648268 0.074650258 633 49214976 4990 15 972 4990
2.7984555 0.17200738 0.074622683 624 49391360 4912 15 959 4912
2.8033516 0.13779993 0.074664049 571 49605120 4507 15 987 4507
2.7988362 0.10316796 0.074581318 536 49780736 4211 15 950 4211
2.8058891 0.068960741 0.074664049 568 49993216 4483 15 991 4483
2.8045244 0.034498651 0.074636467 543 50170624 4280 15 962 4280
2.8167355 7.8916833e-05 0.074801922 512 50381312 4070 15 994 4070
2.7234547 0.79038543 0.0046787858 369 45882624 2972 16 1105 2972
2.7184932 0.75290352 0.004846334 519 46080256 4132 16 802 4132
2.7197926 0.71744746 0.004935693 510 46270976 4040 16 754 4040
2.7342119 0.68547553 0.0048686736 167 46472960 1329 16 745 1329
2.7326891 0.64955986 0.0049803723 207 46662400 1637 16 638 1637
2.7355764 0.61488092 0.0050362218 228 46864896 1795 16 707 1795
2.7458506 0.58188635 0.0050027119 509 47052032 4012 16 778 4012
2.7498424 0.54756129 0.0050362218 347 47256832 2732 16 709 2732
2.7514396 0.51285982 0.0050920709 425 47441920 3332 16 775 3332
2.7466888 0.47717565 0.0052149398 492 47648512 3827 16 746 3827
2.7503631 0.4431158 0.0052372795 531 47831808 4123 16 784 4123
2.7555938 0.40933123 0.0052372795 518 48039168 4025 16 735 4025
2.7752719 0.37750459 0.0050697313 608 48220416 4772 16 740 4772
2.7757258 0.34292945 0.005114411 516 48431360 4040 16 745 4040
2.774756 0.3082898 0.0051702601 530 48611072 4134 16 728 4134
2.7912667 0.27549106 0.005025052 620 48823040 4881 16 808 4881
2.7994184 0.24164645 0.0049692024 804 49000960 6354 16 736 6354
2.8021729 0.20727509 0.0049692024 647 49214976 5113 16 795 5113
2.7985172 0.17250422 0.0050362218 557 49391360 4384 16 734 4384
2.8014221 0.13819824 0.005025052 439 49605120 3458 16 725 3458
2.8049057 0.10388382 0.0050027119 349 49780736 2753 16 690 2753
2.8079686 0.069504701 0.0049803723 274 49993216 2165 16 700 2165
2.8106098 0.035066046 0.0049580326 447 50170624 3535 16 783 3535
2.7978292 0.00057205034 0.0051032412 33 50381312 260 16 747 260
2.7366214 0.68556881 -0.06423787 117 46472960 934 17 736 934
2.7331603 0.64916497 -0.063808605 496 46662400 3922 17 760 3922
2.7370203 0.61470062 -0.063665524 477 46864896 3760 17 742 3760
2.7443573 0.58106691 -0.063665524 504 47052032 3973 17 729 3973
2.7503011 0.54715079 -0.063629746 464 47256832 3656 17 715 3656
2.757791 0.513542 -0.063665524 470 47441920 3707 17 734 3707
2.7520692 0.47761202 -0.063236259 514 47648512 4019 17 741 4019
2.7666032 0.44523177 -0.063558206 553 47831808 4351 17 768 4351
2.7777901 0.41212696 -0.063772835 684 48039168 5402 17 757 5402
2.7766967 0.37720183 -0.063558206 627 48220416 4931 17 781 4931
2.7741733 0.34224352 -0.063307807 650 48431360 5090 17 771 5090
2.7761776 0.30795428 -0.063236259 596 48611072 4657 17 774 4657
2.7787533 0.2737653 -0.063200489 531 48823040 4147 17 786 4147
2.7888732 0.24024454 -0.063450888 554 49000960 4348 17 720 4348
2.7916114 0.20600268 -0.063450888 527 49214976 4136 17 735 4136
2.7919343 0.17160746 -0.063379347 511 49391360 4007 17 715 4007
2.7958262 0.13743106 -0.063450888 542 49605120 4253 17 769 4253
2.8082879 0.10351504 -0.063844375 534 49780736 4224 17 810 4224
2.8213353 0.06933824 -0.064273641 550 49993216 4389 17 714 4389
2.7470858 0.54651153 -0.13124074 419 47256832 3307 18 917 3307
2.7447531 0.51111603 -0.13070071 422 47441920 3310 18 901 3310
2.741967 0.47586024 -0.13016069 477 47648512 3707 18 852 3707
2.7495711 0.4424932 -0.13028069 538 47831808 4195 18 912 4195
2.7577565 0.40915748 -0.13046069 482 48039168 3768 18 861 3768
2.7665262 0.37582168 -0.13070071 497 48220416 3894 18 955 3894
2.7679579 0.3414776 -0.1305207 523 48431360 4091 18 959 4091
2.7739241 0.30770463 -0.13064072 565 48611072 4425 18 884 4425
2.7705374 0.272957 -0.13022068 534 48823040 4161 18 943 4161
2.7726839 0.23885217 -0.13016069 480 49000960 3736 18 967 3736
2.7863567 0.20561564 -0.13082072 374 49214976 2937 18 915 2937
2.7936518 0.17171279 -0.13112074 355 49391360 2798 18 918 2798
2.8055186 0.13790616 -0.13172077 369 49605120 2929 18 916 2929
2.8000169 0.10321132 -0.13130075 515 49780736 4065 18 927 4065
2.756798 0.40901542 -0.19847909 445 48039168 3483 19 792 3483
2.7566726 0.37448451 -0.19805722 429 48220416 3347 19 775 3347
2.7640276 0.34099329 -0.19831035 395 48431360 3090 19 708 3090
2.773946 0.30770707 -0.19881658 343 48611072 2694 19 764 2694
2.7765217 0.27354574 -0.19873221 426 48823040 3343 19 721 3343
2.7816551 0.23962373 -0.19890095 551 49000960 4328 19 806 4328
2.780411 0.20517772 -0.19856346 430 49214976 3368 19 733 3368
2.7966435 0.17189626 -0.19974469 333 49391360 2634 19 836 2634
2.8084948 0.13805205 -0.20058842 390 49605120 3107 19 758 3107
2.7672882 0.30746114 -0.26655215 318 48611072 2495 20 853 2495
2.7767885 0.27406412 -0.26720431 418 48823040 3301 20 915 3301
2.7759809 0.2396266 -0.26676953 409 49000960 3221 20 906 3221
2.7777212 0.20546982 -0.26666084 409 49214976 3218 20 961 3218
2.792932 0.17216071 -0.26807386 301 49391360 2393 20 892 2393
