# .PCD v0.7 - Point Cloud Data file format
VERSION 0.7
FIELDS x y z intensity t reflectivity ring noise range
SIZE 4 4 4 4 4 2 2 2 4
TYPE F F F F U U U U U
COUNT 1 1 1 1 1 1 1 1 1
WIDTH 428
HEIGHT 1
VIEWPOINT 0 0 0 1 0 0 0
POINTS 428
DATA ascii
2.7680469 -0.48122177 0.96987486 166 53091584 1465 2 946 1465
2.7432852 -0.51167297 0.96353871 30 53286656 267 2 903 267
2.7526128 -0.54845172 0.9689244 126 53481472 1105 2 830 1105
2.7326856 -0.57943302 0.9644891 200 53676032 1744 2 879 1744
2.7188919 -0.61146599 0.96227145 205 53871360 1772 2 845 1772
2.7084153 -0.64412618 0.96132106 207 54065664 1792 2 882 1792
2.7030668 -0.67800677 0.96227145 245 54258432 2124 2 869 2124
2.6890407 -0.70967358 0.9603706 207 54453504 1781 2 849 1781
2.6609352 -0.73729753 0.95371765 105 54647808 897 2 920 897
2.7700033 -0.48206308 0.90207052 100 53091584 873 3 975 873
2.7385254 -0.51128191 0.89408642 24 53286656 210 3 979 210
2.7329817 -0.54503626 0.89438212 25 53481472 219 3 953 219
2.7279565 -0.57893002 0.89497352 198 53676032 1693 3 1017 1693
2.7169189 -0.61152303 0.89379072 209 53871360 1783 3 1006 1783
2.6934121 -0.64105546 0.88876367 246 54065664 2073 3 1038 2073
2.6927545 -0.67592108 0.89112931 39 54258432 336 3 961 336
2.6897986 -0.71037877 0.89290357 35 54453504 303 3 958 303
2.6928453 -0.74665302 0.89674777 45 54647808 391 3 960 391
2.6697204 -0.77564251 0.89231217 226 54841856 1920 3 1045 1920
2.6627429 -0.80917931 0.89319932 206 55037952 1754 3 1081 1754
2.6389551 -0.83745819 0.88876367 148 55233536 1250 3 1002 1250
2.6230383 -0.8679778 0.88698941 108 55429120 909 3 1007 909
2.6230268 -0.90383714 0.89053792 200 55624448 1695 3 940 1695
2.6090403 -0.93499053 0.88965082 217 55820288 1832 3 1029 1832
2.5928938 -0.96527004 0.88817227 198 56016128 1668 3 985 1668
2.5853086 -0.99873793 0.88965082 206 56211968 1740 3 1009 1740
2.5808387 -1.0335859 0.89231217 142 56408576 1207 3 1088 1207
2.7683058 -0.44584131 0.83022803 207 52896768 1768 4 899 1768
2.760731 -0.47944972 0.8296805 237 53091584 2014 4 776 2014
2.7414026 -0.51082361 0.82584739 237 53286656 1994 4 846 1994
2.7207789 -0.54160786 0.82174051 163 53481472 1358 4 789 1358
2.7016962 -0.57236218 0.81818122 28 53676032 233 4 742 233
2.694469 -0.60547304 0.81818122 40 53871360 333 4 705 333
2.7008715 -0.64183015 0.8222881 122 54065664 1018 4 778 1018
2.6955905 -0.67562753 0.82310951 276 54258432 2306 4 782 2306
2.6787269 -0.70644718 0.82064533 233 54453504 1934 4 834 1934
2.6689293 -0.73900932 0.82037157 117 54647808 971 4 803 971
2.6698196 -0.77465504 0.82338327 224 54841856 1873 4 810 1873
2.6463079 -0.8031677 0.81927639 185 55037952 1531 4 802 1531
2.6215839 -0.83092988 0.81489575 37 55233536 304 4 743 304
2.6084502 -0.86213231 0.81407434 21 55429120 173 4 748 173
2.5994928 -0.89470339 0.81462193 25 55624448 207 4 704 207
2.6109548 -0.93464267 0.82146674 252 55820288 2098 4 771 2098
2.6046972 -0.96862489 0.82310951 244 56016128 2039 4 800 2039
2.5908201 -0.9998228 0.82256192 231 56211968 1929 4 732 1929
2.5801413 -1.0322556 0.82310951 37 56408576 311 4 740 311
2.554841 -1.0586838 0.81927639 24 56603392 200 4 756 200
2.5672898 -1.1009524 0.82721633 79 56798976 668 4 788 668
2.5447943 -1.128474 0.82447845 214 56995584 1795 4 782 1795
2.5255089 -1.157213 0.82283568 236 57190400 1972 4 758 1972
2.5119872 -1.1885291 0.82310951 235 57387008 1963 4 849 1963
2.5075836 -1.2243309 0.82639498 207 57583360 1745 4 773 1745
2.4949472 -1.2563086 0.82721633 230 57779456 1943 4 793 1943
2.4776354 -1.2859445 0.82666874 194 57974272 1636 4 821 1636
2.7648015 -0.44527644 0.76022607 106 52896768 895 5 890 895
2.7705717 -0.4811601 0.76324481 28 53091584 244 5 873 244
2.7597013 -0.51423591 0.76198697 24 53286656 210 5 876 210
2.7332499 -0.54409218 0.75670421 206 53481472 1716 5 906 1716
2.7405694 -0.58060318 0.7604776 308 53676032 2588 5 912 2588
2.7124643 -0.60951936 0.75494325 108 53871360 899 5 883 899
2.7066634 -0.64320737 0.75544637 228 54065664 1885 5 850 1885
2.7023215 -0.67731559 0.75645262 235 54258432 1954 5 971 1954
2.6863198 -0.70845073 0.75444013 259 54453504 2142 5 899 2142
2.6578369 -0.73593628 0.74915731 40 54647808 325 5 831 325
2.6402407 -0.76606816 0.74689323 24 54841856 201 5 886 201
2.66398 -0.80853397 0.7559495 85 55037952 711 5 873 711
2.6400189 -0.83677584 0.75217605 238 55233536 1950 5 844 1950
2.6222005 -0.86667913 0.75016356 265 55429120 2166 5 923 2166
2.6232638 -0.90288872 0.75343388 144 55624448 1184 5 848 1184
2.5946743 -0.92881221 0.74865419 29 55820288 235 5 842 235
2.5858023 -0.96159536 0.74940884 23 56016128 187 5 816 187
2.5918651 -1.0002263 0.75444013 146 56211968 1212 5 858 1212
2.5605261 -1.0244049 0.74915731 220 56408576 1795 5 888 1795
2.5692198 -1.0646445 0.75519478 30 56603392 248 5 837 248
2.5630772 -1.0991452 0.75720733 191 56798976 1594 5 918 1594
2.5396643 -1.1261982 0.75444013 254 56995584 2095 5 840 2095
2.5256529 -1.157279 0.75444013 241 57190400 1994 5 896 1994
2.5261328 -1.1952244 0.7587167 43 57387008 366 5 868 366
2.5112753 -1.2261339 0.7587167 16 57583360 141 5 868 141
2.5003614 -1.2590358 0.75997448 22 57779456 192 5 869 192
2.4838638 -1.2891784 0.75972295 259 57974272 2173 5 909 2173
2.4652965 -1.3181927 0.75896823 226 58170112 1893 5 963 1893
2.4616511 -1.3553501 0.76274168 215 58367488 1821 5 869 1821
2.4726183 -1.4012067 0.77104324 36 58562816 311 5 840 311
2.4343359 -1.4192545 0.76475418 217 58757120 1848 5 872 1848
2.4242063 -1.453501 0.76701826 247 58953216 2115 5 893 2115
2.4168968 -1.4897437 0.77028859 260 59147776 2247 5 875 2247
2.3951633 -1.5172185 0.76928234 279 59342848 2404 5 868 2404
2.7861128 -0.41370076 0.69537419 160 52703488 1346 6 975 1346
2.7664111 -0.44553587 0.69193876 234 52896768 1940 6 789 1940
2.754981 -0.47845033 0.69056457 86 53091584 710 6 805 710
2.7345483 -0.50954545 0.68712914 68 53286656 556 6 798 556
2.7357268 -0.54458559 0.68896139 249 53481472 2045 6 848 2045
2.7221723 -0.57670307 0.68735814 276 53676032 2264 6 890 2264
2.7148902 -0.61006486 0.68735814 202 53871360 1651 6 848 1651
2.6929941 -0.63995701 0.68392271 43 54065664 349 6 792 349
2.6830497 -0.67248243 0.68346465 40 54258432 324 6 768 324
2.664242 -0.70262504 0.68094528 188 54453504 1508 6 806 1508
2.6694903 -0.73916477 0.68438077 274 54647808 2220 6 811 2220
2.6555445 -0.77051097 0.68323559 285 54841856 2301 6 852 2301
2.6552036 -0.80586892 0.68552589 71 55037952 578 6 772 578
2.6543932 -0.8413341 0.6878162 20 55233536 164 6 814 164
2.6429446 -0.87353861 0.6875872 35 55429120 288 6 732 288
2.6025739 -0.89576423 0.68025821 231 55624448 1855 6 858 1855
2.6234603 -0.93912119 0.68827426 94 55820288 773 6 730 773
2.6035273 -0.96818966 0.68621302 46 56016128 376 6 755 376
2.5923581 -1.0004166 0.68644202 283 56211968 2307 6 836 2307
2.5717528 -1.0288981 0.68438077 279 56408576 2268 6 871 2268
2.5643282 -1.0626167 0.68575495 243 56603392 1976 6 852 1976
2.5528843 -1.0947725 0.68621302 34 56798976 279 6 733 279
2.5356984 -1.124439 0.68529689 28 56995584 228 6 806 228
2.5270183 -1.1579049 0.68667108 87 57190400 710 6 842 710
2.5170178 -1.1909102 0.6878162 250 57387008 2055 6 862 2055
2.507462 -1.2242715 0.68919039 233 57583360 1915 6 853 1915
2.4948575 -1.2562635 0.68987751 136 57779456 1121 6 805 1121
2.5077627 -1.3015865 0.6974355 39 57974272 329 6 798 329
2.4727178 -1.3221622 0.69239682 193 58170112 1603 6 817 1603
2.4418116 -1.3444233 0.68850332 97 58367488 796 6 823 796
2.4429128 -1.3843677 0.69331294 22 58562816 185 6 748 185
2.423218 -1.4127705 0.69262582 32 58757120 268 6 726 268
2.4157162 -1.4484088 0.69537419 225 58953216 1886 6 802 1886
2.4085317 -1.4845858 0.69835162 259 59147776 2190 6 824 2190
2.3967102 -1.5181985 0.70018387 297 59342848 2523 6 847 2523
2.3925831 -1.5570546 0.70430642 221 59536896 1901 6 840 1901
2.7660928 -0.41022909 0.62176687 297 52703488 2430 7 1070 2430
2.7560198 -0.44336462 0.62073672 339 52896768 2763 7 1119 2763
2.7436228 -0.47598004 0.61929446 322 53091584 2612 7 1143 2612
2.7318032 -0.50853735 0.61805826 130 53286656 1053 7 1073 1053
2.7378333 -0.54450566 0.62073672 38 53481472 313 7 1067 313
2.7299879 -0.57785928 0.62053066 44 53676032 362 7 1035 362
2.696913 -0.60552531 0.61496776 346 53871360 2766 7 1120 2766
2.6902313 -0.63880116 0.61517382 383 54065664 3064 7 1051 3064
2.6897831 -0.67366934 0.61682206 358 54258432 2878 7 1152 2878
2.6850984 -0.70762438 0.61764622 57 54453504 463 7 1041 463
2.668668 -0.73843265 0.61599797 41 54647808 332 7 1080 332
2.6547065 -0.76976246 0.61496776 66 54841856 532 7 1003 532
2.6478696 -0.80313432 0.61558586 108 55037952 868 7 1077 868
2.6378145 -0.8355673 0.61558586 38 55233536 308 7 1054 308
2.6013467 -0.85927689 0.60981697 114 55429120 898 7 1052 898
2.6044855 -0.89591122 0.61290747 364 55624448 2888 7 1118 2888
2.5877674 -0.92582619 0.61167127 361 55820288 2853 7 1056 2853
2.5853832 -0.96092284 0.61373156 225 56016128 1791 7 1107 1791
2.5715704 -0.99187255 0.61331952 53 56211968 424 7 1110 424
2.5619307 -1.0244453 0.61393762 39 56408576 315 7 1015 315
2.5554943 -1.058429 0.61537987 224 56603392 1795 7 1052 1795
2.5585017 -1.0966506 0.61908847 332 56798976 2692 7 1053 2692
2.5457461 -1.1283615 0.61929446 319 56995584 2588 7 1101 2588
2.5219219 -1.1550332 0.61702812 128 57190400 1033 7 1033 1033
2.5137498 -1.1888235 0.61847037 75 57387008 611 7 993 611
2.5139208 -1.2268796 0.62197292 263 57583360 2154 7 1103 2154
2.5100379 -1.2633578 0.62465137 66 57779456 550 7 996 550
2.4873972 -1.2904586 0.62300307 25 57974272 208 7 1102 208
2.4696481 -1.3199629 0.62259102 45 58170112 373 7 1015 373
2.4618363 -1.3548892 0.62465137 319 58367488 2635 7 1097 2635
2.4484298 -1.3869274 0.62547547 273 58562816 2260 7 1167 2260
2.4388342 -1.4213043 0.62732977 274 58757120 2284 7 1166 2284
2.4086199 -1.4435781 0.62423927 34 58953216 286 7 968 286
2.3990541 -1.4781611 0.62629962 42 59147776 353 7 1010 353
2.3972673 -1.5179621 0.63042027 172 59342848 1453 7 979 1453
2.7782135 -0.37724555 0.55449539 225 52508928 1833 8 1126 1833
2.7724025 -0.41116571 0.55431265 60 52703488 495 8 861 495
2.7661774 -0.44500011 0.5541299 39 52896768 317 8 810 317
2.7585709 -0.4785755 0.5537644 58 53091584 478 8 880 478
2.7302601 -0.50824994 0.54956114 347 53286656 2777 8 868 2777
2.7286389 -0.54267567 0.55047488 339 53481472 2723 8 896 2723
2.7217739 -0.57611942 0.55047488 300 53676032 2410 8 951 2410
2.6905179 -0.60408849 0.54590613 46 53871360 362 8 810 362
2.6781194 -0.63592345 0.54499239 70 54065664 549 8 850 549
2.6748824 -0.66993517 0.54590613 189 54258432 1493 8 949 1493
2.6579039 -0.70045352 0.5442614 59 54453504 468 8 885 468
2.6528983 -0.73406667 0.54499239 62 54647808 486 8 832 486
2.6455789 -0.7671144 0.54535788 238 54841856 1869 8 838 1869
2.6434922 -0.80180597 0.54681987 360 55037952 2843 8 849 2843
2.6259561 -0.8318091 0.54535788 357 55233536 2810 8 898 2810
2.5875456 -0.85471594 0.53987539 94 55429120 729 8 889 729
2.6001034 -0.8944031 0.54444414 54 55624448 423 8 797 423
2.5991139 -0.92988753 0.54645437 41 55820288 323 8 845 323
2.5773704 -0.95794344 0.54444414 371 56016128 2910 8 915 2910
2.5580831 -0.98666817 0.5429821 423 56211968 3297 8 920 3297
2.5603876 -1.0238281 0.54590613 374 56408576 2949 8 934 2949
2.5394564 -1.0517838 0.5442614 58 56603392 453 8 837 453
2.5525625 -1.0941039 0.54956114 266 56798976 2131 8 881 2131
2.5344501 -1.1233528 0.5486474 379 56995584 3016 8 845 3016
2.5177925 -1.1531413 0.54809916 59 57190400 469 8 799 469
2.5070069 -1.1856334 0.54883015 49 57387008 391 8 800 391
2.5046375 -1.2223476 0.55138862 102 57583360 826 8 926 826
2.4868145 -1.2516649 0.55084038 338 57779456 2720 8 870 2720
2.4799938 -1.2866164 0.55266792 323 57974272 2617 8 887 2617
2.4657524 -1.31788 0.55303341 184 58170112 1496 8 864 1496
2.4580069 -1.3527809 0.55486089 45 58367488 366 8 852 366
2.4326673 -1.3779957 0.55303341 22 58562816 185 8 872 185
2.4308627 -1.4166572 0.55632287 236 58757120 1940 8 960 1940
2.4217274 -1.4514364 0.55815041 283 58953216 2343 8 878 2343
2.395364 -1.4758869 0.55632287 69 59147776 573 8 859 573
2.3878696 -1.5120096 0.55869865 236 59342848 1959 8 895 1959
2.7732131 -0.37706158 0.48448735 392 52508928 3155 9 1058 3155
2.7527523 -0.40874255 0.48194304 429 52703488 3415 9 1008 3415
2.7407062 -0.44139248 0.48082989 410 52896768 3250 9 953 3250
2.7496738 -0.47752786 0.48321518 217 53091584 1740 9 960 1740
2.7261369 -0.50797689 0.48035285 92 53286656 732 9 950 732
2.7206662 -0.54158539 0.48051184 362 53481472 2864 9 1003 2864
2.725405 -0.57738841 0.48242009 136 53676032 1090 9 901 1090
2.6795852 -0.60212636 0.47605932 58 53871360 449 9 843 449
2.6633501 -0.63290817 0.47462812 64 54065664 497 9 988 497
2.677408 -0.67106754 0.47828558 481 54258432 3767 9 953 3767
2.6641984 -0.70261347 0.47749048 455 54453504 3551 9 988 3551
2.6544242 -0.73499078 0.47733146 454 54647808 3541 9 949 3541
2.6584787 -0.77136272 0.47955775 68 54841856 535 9 832 535
2.6478679 -0.80364144 0.47939873 58 55037952 462 9 908 462
2.6321602 -0.83428377 0.47844461 97 55233536 765 9 973 765
2.6217241 -0.8665216 0.47844461 391 55429120 3065 9 962 3065
2.6052921 -0.89670032 0.47749048 454 55624448 3542 9 975 3542
2.5829384 -0.92460936 0.47558224 329 55820288 2547 9 934 2547
2.5686216 -0.95520359 0.4751052 214 56016128 1655 9 948 1655
2.5714428 -0.99234182 0.47764951 493 56211968 3850 9 947 3850
2.5499058 -1.0201541 0.47605932 265 56408576 2058 9 964 2058
2.5663793 -1.0634669 0.48114794 60 56603392 481 9 950 481
2.5594869 -1.0976049 0.48226106 59 56798976 475 9 967 475
2.5377028 -1.1253281 0.48082989 281 56995584 2229 9 934 2229
2.5147274 -1.152271 0.4792397 491 57190400 3861 9 963 3861
2.5021825 -1.1838886 0.47955775 418 57387008 3292 9 1014 3292
2.5052083 -1.2231708 0.48273814 118 57583360 947 9 940 947
2.4759018 -1.2467152 0.48019382 49 57779456 392 9 941 392
2.4560351 -1.2747297 0.47939873 51 57974272 407 9 914 407
2.4593599 -1.3150173 0.48289716 382 58170112 3055 9 982 3055
2.4378486 -1.3422407 0.48194304 315 58367488 2509 9 1002 2509
2.4126048 -1.367187 0.48035285 87 58562816 693 9 909 693
2.4314649 -1.4175801 0.48703167 320 58757120 2607 9 1046 2607
2.4189661 -1.450358 0.48798579 347 58953216 2838 9 1045 2838
2.4043472 -1.4820058 0.48862186 339 59147776 2780 9 1038 2780
2.7585456 -0.3750653 0.41491246 194 52508928 1537 10 1002 1537
2.7605953 -0.40990824 0.41586128 411 52703488 3268 10 1039 3268
2.7612262 -0.44470012 0.41667452 508 52896768 4051 10 1149 4051
2.7262771 -0.4734613 0.41260824 85 53091584 668 10 1036 668
2.7095478 -0.50488335 0.41111729 65 53286656 507 10 1043 507
2.7167516 -0.54080558 0.41301486 132 53481472 1037 10 1008 1037
2.703126 -0.57266527 0.41206607 463 53676032 3606 10 1057 3606
2.6949282 -0.60557628 0.41193053 528 53871360 4109 10 1083 4109
2.6747634 -0.63562202 0.41016847 396 54065664 3055 10 990 3055
2.668684 -0.66887963 0.41043955 73 54258432 569 10 953 569
2.6698546 -0.70410597 0.41179499 96 54453504 752 10 959 752
2.6552842 -0.73522907 0.41098171 306 54647808 2372 10 1018 2372
2.6336925 -0.76416725 0.40921968 482 54841856 3698 10 1014 3698
2.6222208 -0.79585344 0.4089486 504 55037952 3861 10 1002 3861
2.6320899 -0.83426142 0.41179499 307 55233536 2392 10 955 2392
2.6207132 -0.86618733 0.41165945 440 55429120 3420 10 1019 3420
2.6108232 -0.89860487 0.41179499 486 55624448 3780 10 1012 3780
2.5884063 -0.92656749 0.41016847 191 55820288 1476 10 1049 1476
2.567555 -0.9548068 0.40881306 112 56016128 862 10 927 862
2.5648875 -0.98981106 0.41016847 94 56211968 729 10 973 729
2.5562272 -1.0226843 0.41071063 524 56408576 4053 10 1027 4053
2.539824 -1.0524585 0.41016847 497 56603392 3835 10 965 3835
2.5340016 -1.0866717 0.41125283 569 56798976 4412 10 1027 4412
2.543117 -1.1277299 0.41464138 75 56995584 596 10 987 596
2.5317886 -1.1600915 0.415048 79 57190400 631 10 934 631
2.5245261 -1.194464 0.41613236 110 57387008 879 10 999 879
2.489202 -1.215353 0.41301486 468 57583360 3665 10 1054 3665
2.4749854 -1.2462535 0.4131504 215 57779456 1687 10 1008 1687
2.4586263 -1.276075 0.41301486 202 57974272 1585 10 952 1585
2.4628756 -1.3168979 0.41613236 437 58170112 3479 10 988 3479
2.4447942 -1.346066 0.41586128 455 58367488 3617 10 1061 3617
2.4280918 -1.375966 0.41586128 249 58562816 1982 10 1012 1982
2.4110236 -1.4056588 0.41586128 54 58757120 433 10 1004 433
2.3952918 -1.4361591 0.41613236 43 58953216 347 10 960 347
2.3985713 -1.4784446 0.41952091 364 59147776 2950 10 1045 2950
2.7713983 -0.34223107 0.34716117 384 52314880 3035 11 796 3035
2.7581277 -0.3750084 0.34615952 63 52508928 497 11 707 497
2.7385731 -0.40663517 0.34449008 73 52703488 569 11 742 569
2.7373013 -0.44084364 0.34493527 274 52896768 2134 11 822 2134
2.7326646 -0.47457153 0.34504655 469 53091584 3656 11 760 3656
2.7188196 -0.50661236 0.34415621 474 53286656 3671 11 831 3671
2.7114232 -0.53974414 0.34404489 203 53481472 1573 11 772 1573
2.6880686 -0.56947315 0.34215289 92 53676032 706 11 725 706
2.6769996 -0.60154492 0.34170771 89 53871360 680 11 769 680
2.6674824 -0.63389075 0.34148511 488 54065664 3717 11 837 3717
2.6768537 -0.67092854 0.34348843 560 54258432 4322 11 787 4322
2.6616924 -0.70195222 0.34270936 396 54453504 3040 11 778 3040
2.6567087 -0.73562372 0.34315455 520 54647808 4004 11 847 4004
2.6446183 -0.76733905 0.34282064 513 54841856 3939 11 834 3939
2.6302483 -0.79829109 0.34226418 477 55037952 3651 11 816 3651
2.6174121 -0.82960695 0.3419303 107 55233536 819 11 713 819
2.6079779 -0.86197615 0.34204158 100 55429120 765 11 778 765
2.6206949 -0.90200406 0.34482399 158 55624448 1230 11 767 1230
2.5907166 -0.92739487 0.34259805 542 55820288 4159 11 743 4159
2.5837979 -0.9608497 0.34315455 563 56016128 4335 11 843 4335
2.5662496 -0.99033695 0.34248677 437 56211968 3352 11 742 3352
2.564975 -1.0261855 0.3438223 99 56408576 766 11 786 766
2.5439267 -1.0541593 0.34282064 86 56603392 662 11 768 662
2.5289726 -1.0845143 0.34259805 277 56798976 2125 11 791 2125
2.514565 -1.115064 0.34248677 403 56995584 3089 11 785 3089
2.5088227 -1.1495645 0.34348843 95 57190400 734 11 749 734
2.4981198 -1.1819656 0.34393361 332 57387008 2569 11 833 2569
2.4834273 -1.2125324 0.34393361 547 57583360 4233 11 775 4233
2.473686 -1.245599 0.34460139 421 57779456 3272 11 788 3272
2.4546862 -1.2740295 0.34415621 118 57974272 915 11 790 915
2.4625275 -1.3167117 0.34716117 51 58170112 404 11 793 404
2.4435725 -1.3453932 0.3468273 60 58367488 474 11 765 474
2.4312012 -1.3777287 0.34738377 437 58562816 3457 11 812 3457
2.4192622 -1.4104635 0.34805155 461 58757120 3662 11 810 3662
2.407737 -1.4436233 0.34883061 402 58953216 3208 11 837 3208
2.3940699 -1.4756691 0.34938708 227 59147776 1825 11 900 1825
2.7791383 -0.3431879 0.2797972 457 52314880 3612 12 1247 3612
2.7668209 -0.37619159 0.27909997 475 52508928 3742 12 1304 3742
2.7570693 -0.40938416 0.27866417 524 52703488 4104 12 1273 4104
2.7410195 -0.44144294 0.27770546 98 52896768 762 12 1240 762
2.7304883 -0.47419327 0.27726969 92 53091584 714 12 1194 714
2.712712 -0.50547343 0.27622384 111 53286656 852 12 1261 852
2.7082589 -0.53911376 0.27639812 468 53481472 3597 12 1255 3597
2.7004645 -0.57210106 0.27631098 346 53676032 2665 12 1285 2665
2.6747739 -0.60104454 0.27465501 184 53871360 1394 12 1261 1394
2.6846421 -0.63797104 0.27622384 559 54065664 4292 12 1271 4292
2.6911051 -0.67450261 0.27753115 565 54258432 4390 12 1295 4390
2.6508389 -0.69908822 0.27465501 363 54453504 2750 12 1258 2750
2.662221 -0.73715085 0.27648529 148 54647808 1139 12 1240 1139
2.6386242 -0.76559889 0.27517796 136 54841856 1035 12 1211 1035
2.6261706 -0.79705292 0.2749165 359 55037952 2726 12 1274 2726
2.6142926 -0.82861775 0.27474219 517 55233536 3921 12 1210 3921
2.6067648 -0.86157507 0.27500364 585 55429120 4451 12 1366 4451
2.5884604 -0.89090449 0.27430639 293 55624448 2220 12 1312 2220
2.5848358 -0.9252888 0.27500364 150 55820288 1140 12 1244 1140
2.5723526 -0.95659167 0.2749165 174 56016128 1328 12 1304 1328
2.56042 -0.98808634 0.2749165 457 56211968 3471 12 1259 3471
2.5508766 -1.0205427 0.27517796 197 56408576 1499 12 1265 1499
2.5556457 -1.0590173 0.27683392 132 56603392 1019 12 1228 1019
2.5314715 -1.0855863 0.27578804 536 56798976 4099 12 1281 4099
2.5188696 -1.1169735 0.27587521 548 56995584 4194 12 1264 4194
2.5031619 -1.1469697 0.2757009 535 57190400 4096 12 1377 4096
2.5024047 -1.1839937 0.27700824 98 57387008 764 12 1285 764
2.4921625 -1.2167989 0.27744401 87 57583360 682 12 1296 682
2.4877193 -1.2526678 0.27848989 120 57779456 939 12 1236 939
2.466855 -1.2803473 0.27796695 487 57974272 3798 12 1357 3798
2.4509573 -1.310523 0.27796695 477 58170112 3714 12 1248 3714
2.442544 -1.3448268 0.27875134 306 58367488 2405 12 1307 2405
2.4423232 -1.3840333 0.28040731 61 58562816 484 12 1270 484
2.4010599 -1.399848 0.27796695 240 58757120 1876 12 1310 1876
2.4076216 -1.4435542 0.28040731 448 58953216 3567 12 1324 3567
2.7843199 -0.3091889 0.21144052 520 52119296 4105 13 918 4105
2.7743731 -0.3425988 0.21106377 477 52314880 3744 13 797 3744
2.7669933 -0.37621504 0.21087541 558 52508928 4377 13 858 4377
2.7621682 -0.41014197 0.21087541 564 52703488 4417 13 844 4417
2.7313092 -0.43987772 0.20924285 346 52896768 2662 13 769 2662
2.7355382 -0.47507101 0.20987076 90 53091584 698 13 732 698
2.7226348 -0.5073238 0.20943123 314 53286656 2419 13 782 2419
2.7103312 -0.53952664 0.20905448 575 53481472 4410 13 816 4410
2.6927669 -0.57046914 0.20836379 616 53676032 4687 13 761 4687
2.6816685 -0.60259479 0.20811263 249 53871360 1891 13 755 1891
2.6896071 -0.63915169 0.20911728 167 54065664 1284 13 738 1284
2.6825294 -0.67235196 0.20918006 158 54258432 1215 13 762 1215
2.6634617 -0.7024191 0.20848937 634 54453504 4831 13 816 4831
2.6488705 -0.7334522 0.20811263 606 54647808 4600 13 786 4600
2.6425459 -0.7667374 0.20830099 563 54841856 4280 13 830 4280
2.6186132 -0.79475802 0.20735914 256 55037952 1926 13 760 1926
2.6143713 -0.82864267 0.20773588 242 55233536 1829 13 769 1829
2.5992677 -0.85909599 0.20742193 300 55429120 2259 13 741 2259
2.5885296 -0.89092833 0.20742193 316 55624448 2379 13 746 2379
2.5792809 -0.92329943 0.20754752 253 55820288 1908 13 746 1908
2.5714979 -0.95627367 0.20779867 354 56016128 2677 13 722 2677
2.5698109 -0.99171185 0.20848937 591 56211968 4506 13 770 4506
2.5574477 -1.0231727 0.20848937 580 56408576 4422 13 786 4422
2.5410113 -1.0529507 0.2082382 502 56603392 3815 13 778 3815
2.5288157 -1.084447 0.20830099 199 56798976 1514 13 737 1514
2.5326512 -1.1230872 0.20949401 146 56995584 1126 13 793 1126
2.4996259 -1.1453489 0.20817542 359 57190400 2727 13 787 2727
2.4953055 -1.1806335 0.2088661 571 57387008 4370 13 811 4370
2.4842165 -1.2129179 0.20911728 560 57583360 4299 13 709 4299
2.4727104 -1.2451077 0.20936844 202 57779456 1556 13 748 1556
2.4563591 -1.2748979 0.20930564 125 57974272 963 13 733 963
2.4493296 -1.3096524 0.20993355 500 58170112 3875 13 790 3875
2.4391932 -1.3429812 0.21037309 132 58367488 1030 13 726 1030
2.4268703 -1.3752736 0.21068704 73 58562816 572 13 746 572
2.4244671 -1.4134989 0.21175447 69 58757120 547 13 775 547
2.4060826 -1.4426311 0.21169168 368 58953216 2910 13 763 2910
2.6864817 -0.56864399 0.14010993 308 53676032 2328 14 1229 2328
2.6939259 -0.60485417 0.14068051 589 53871360 4501 14 1132 4501
2.6882451 -0.63832927 0.14075659 598 54065664 4574 14 1197 4574
2.6782708 -0.67078429 0.14068051 556 54258432 4247 14 1142 4247
2.6611412 -0.70130718 0.14033815 638 54453504 4841 14 1152 4841
2.6484826 -0.73284417 0.140186 606 54647808 4586 14 1125 4586
2.6268139 -0.76167047 0.13969149 421 54841856 3157 14 1125 3157
2.6172693 -0.79384816 0.13969149 307 55037952 2303 14 1099 2303
2.6101882 -0.82681197 0.13980561 335 55233536 2520 14 1049 2520
2.5941525 -0.85689938 0.13957737 470 55429120 3517 14 1118 3517
2.6004496 -0.89452231 0.14026208 654 55624448 4957 14 1138 4957
2.587395 -0.92569298 0.140186 575 55820288 4351 14 1139 4351
2.5627279 -0.95249879 0.13965346 432 56016128 3236 14 1156 3236
2.5555077 -0.98567438 0.13984364 295 56211968 2220 14 1059 2220
2.5497141 -1.0195582 0.14010993 269 56408576 2037 14 1026 2037
2.5453191 -1.0542129 0.14045228 563 56603392 4282 14 1139 4282
2.5349457 -1.08655 0.14056639 617 56798976 4702 14 1132 4702
2.5214212 -1.1175759 0.14056639 603 56995584 4599 14 1082 4599
2.495707 -1.1430224 0.14007188 222 57190400 1679 14 1055 1679
2.4923317 -1.1786907 0.14052835 483 57387008 3681 14 1052 3681
2.4767818 -1.2087482 0.14049031 509 57583360 3876 14 1113 3876
2.4671173 -1.2417475 0.14071855 98 57779456 752 14 1072 752
2.4632237 -1.2779132 0.14121306 90 57974272 698 14 1068 698
2.4323754 -1.300035 0.14056639 150 58170112 1145 14 1114 1145
2.4416249 -1.343762 0.14166953 497 58367488 3868 14 1165 3868
2.4249511 -1.3736234 0.14166953 603 58562816 4692 14 1229 4692
2.411365 -1.4052908 0.14182168 529 58757120 4132 14 1079 4132
2.3965096 -1.4363177 0.1419358 109 58953216 855 14 1122 855
2.5881987 -0.85493183 0.073547244 216 55429120 1610 15 1008 1610
2.6030405 -0.89541394 0.073919512 638 55624448 4845 15 892 4845
2.5946808 -0.92830068 0.073960878 681 55820288 5182 15 876 5182
2.580282 -0.95902604 0.073919512 607 56016128 4609 15 945 4609
2.5664532 -0.98989797 0.073891938 599 56211968 4540 15 965 4540
2.553184 -1.0209464 0.073878147 665 56408576 5036 15 907 5036
2.5413868 -1.0525837 0.073891938 694 56603392 5260 15 953 5260
2.5328736 -1.0856615 0.073960878 672 56798976 5113 15 954 5113
2.5211885 -1.1174726 0.073988453 560 56995584 4266 15 982 4266
2.494559 -1.1424965 0.073795423 241 57190400 1822 15 875 1822
2.504755 -1.184568 0.074167691 176 57387008 1359 15 895 1359
2.4765518 -1.2086359 0.073960878 402 57583360 3060 15 893 3060
2.485647 -1.2510771 0.074333139 607 57779456 4711 15 896 4711
2.4736571 -1.2833279 0.074388295 640 57974272 4979 15 953 4979
2.4489048 -1.3088723 0.074250415 278 58170112 2151 15 909 2151
2.4300306 -1.337379 0.074209049 93 58367488 722 15 915 722
2.4212654 -1.3715349 0.074333139 75 58562816 588 15 872 588
2.4172099 -1.4086981 0.074539959 442 58757120 3469 15 922 3469
2.3277032 -1.3950666 0.073381796 11 58953216 87 15 928 87
2.5964694 -0.96452636 0.0054159975 475 56016128 3647 16 767 3647
2.5032375 -1.1833124 0.0054271673 629 57387008 4826 16 764 4826
2.4903252 -1.214819 0.0054048277 610 57583360 4688 16 770 4688
2.4725504 -1.243939 0.0054383371 621 57779456 4760 16 744 4760
2.4570992 -1.2741873 0.0054383371 610 57974272 4677 16 705 4677
2.4439235 -1.3056577 0.0054048277 659 58170112 5062 16 767 5062
2.4329734 -1.3384427 0.0053378083 307 58367488 2370 16 714 2370
2.4137552 -1.3667197 0.0053713182 199 58562816 1534 16 674 1534
2.4114888 -1.404796 0.0051814299 301 58757120 2348 16 693 2348
