# .PCD v0.7 - Point Cloud Data file format
VERSION 0.7
FIELDS x y z intensity t reflectivity ring noise range
SIZE 4 4 4 4 4 2 2 2 4
TYPE F F F F U U U U U
COUNT 1 1 1 1 1 1 1 1 1
WIDTH 582
HEIGHT 1
VIEWPOINT 0 0 0 1 0 0 0
POINTS 582
DATA ascii
4.4565845 -0.85807806 -0.14149356 1 2586745344 0 34 0 0
4.43858 -0.79825264 -0.1969018 1 2586745344 0 35 0 0
4.4385095 -0.82638657 -0.19711977 1 2586745344 0 35 0 0
4.4384365 -0.85458356 -0.19734561 1 2586745344 0 35 0 0
4.4383602 -0.88284391 -0.1975795 1 2586745344 0 35 0 0
4.4382815 -0.91117358 -0.19782108 1 2586745344 0 35 0 0
4.4207702 -0.73916459 -0.25171167 1 2586745344 0 36 0 0
4.4206862 -0.76706284 -0.25197011 1 2586745344 0 36 0 0
4.420599 -0.79501891 -0.25223845 1 2586745344 0 36 0 0
4.4205089 -0.823035 -0.25251669 1 2586745344 0 36 0 0
4.4204154 -0.8511138 -0.25280493 1 2586745344 0 36 0 0
4.4203186 -0.87925518 -0.25310308 1 2586745344 0 36 0 0
4.4202185 -0.90746534 -0.25341147 1 2586745344 0 36 0 0
4.4201145 -0.9357447 -0.25372988 1 2586745344 0 36 0 0
4.4200082 -0.96409589 -0.25405842 1 2586745344 0 36 0 0
4.4032288 -0.65315765 -0.30569679 1 2586745344 0 37 0 0
4.4031382 -0.68078148 -0.3059749 1 2586745344 0 37 0 0
4.4030437 -0.70845634 -0.3062647 1 2586745344 0 37 0 0
4.402946 -0.73618394 -0.3065663 1 2586745344 0 37 0 0
4.402844 -0.7639668 -0.30687982 1 2586745344 0 37 0 0
4.4027386 -0.79180664 -0.30720514 1 2586745344 0 37 0 0
4.4026289 -0.81970584 -0.30754262 1 2586745344 0 37 0 0
4.4025154 -0.84766722 -0.30789226 1 2586745344 0 37 0 0
4.4023981 -0.87569022 -0.30825406 1 2586745344 0 37 0 0
4.402276 -0.90378159 -0.30862826 1 2586745344 0 37 0 0
4.4021506 -0.93194169 -0.30901438 1 2586745344 0 37 0 0
4.4020209 -0.96017236 -0.30941266 1 2586745344 0 37 0 0
4.4018874 -0.9884764 -0.30982405 1 2586745344 0 37 0 0
4.4017496 -1.0168556 -0.3102476 1 2586745344 0 37 0 0
4.3857646 -0.59565854 -0.35944241 1 2586745344 0 38 0 0
4.3856673 -0.62307531 -0.35974103 1 2586745344 0 38 0 0
4.3855662 -0.65053791 -0.36005324 1 2586745344 0 38 0 0
4.3854599 -0.67804861 -0.3603794 1 2586745344 0 38 0 0
4.3853498 -0.70560926 -0.36071926 1 2586745344 0 38 0 0
4.3852348 -0.73322272 -0.3610732 1 2586745344 0 38 0 0
4.3851156 -0.76089048 -0.36144096 1 2586745344 0 38 0 0
4.3849912 -0.78861517 -0.36182278 1 2586745344 0 38 0 0
4.3848624 -0.81639808 -0.36221868 1 2586745344 0 38 0 0
4.3847294 -0.84424275 -0.36262876 1 2586745344 0 38 0 0
4.3845911 -0.87214875 -0.36305314 1 2586745344 0 38 0 0
4.3844485 -0.90012193 -0.36349171 1 2586745344 0 38 0 0
4.3843017 -0.92816287 -0.36394483 1 2586745344 0 38 0 0
4.3841496 -0.95627439 -0.36441237 1 2586745344 0 38 0 0
4.3839927 -0.98445785 -0.36489469 1 2586745344 0 38 0 0
4.3838315 -1.0127163 -0.36539167 1 2586745344 0 38 0 0
4.3836651 -1.0410519 -0.3659032 1 2586745344 0 38 0 0
4.3834939 -1.0694667 -0.36642987 1 2586745344 0 38 0 0
4.3685398 -0.51161569 -0.41245168 1 2586745344 0 39 0 0
4.368444 -0.53879637 -0.41274709 1 2586745344 0 39 0 0
4.3683429 -0.56601655 -0.41305774 1 2586745344 0 39 0 0
4.368237 -0.59327799 -0.41338426 1 2586745344 0 39 0 0
4.3681259 -0.620583 -0.41372615 1 2586745344 0 39 0 0
4.3680096 -0.64793342 -0.41408414 1 2586745344 0 39 0 0
4.367888 -0.67533177 -0.41445762 1 2586745344 0 39 0 0
4.3677611 -0.70277935 -0.41484696 1 2586745344 0 39 0 0
4.36763 -0.73027921 -0.41525227 1 2586745344 0 39 0 0
4.3674932 -0.75783277 -0.41567367 1 2586745344 0 39 0 0
4.3673511 -0.78544247 -0.41611081 1 2586745344 0 39 0 0
4.3672037 -0.81311047 -0.41656452 1 2586745344 0 39 0 0
4.3670511 -0.84083921 -0.41703421 1 2586745344 0 39 0 0
4.3668928 -0.8686282 -0.41751999 1 2586745344 0 39 0 0
4.3667297 -0.89648396 -0.41802257 1 2586745344 0 39 0 0
4.3665609 -0.9244073 -0.41854161 1 2586745344 0 39 0 0
4.3663874 -0.95239967 -0.41907722 1 2586745344 0 39 0 0
4.3662076 -0.98046392 -0.4196294 1 2586745344 0 39 0 0
4.3660226 -1.0086023 -0.42019838 1 2586745344 0 39 0 0
4.3658323 -1.0368166 -0.42078441 1 2586745344 0 39 0 0
4.3656363 -1.0651097 -0.42138761 1 2586745344 0 39 0 0
4.3654346 -1.093484 -0.42200786 1 2586745344 0 39 0 0
4.3652277 -1.1219419 -0.42264539 1 2586745344 0 39 0 0
4.3513479 -0.45554551 -0.46535999 1 2586745344 0 40 0 0
4.3512511 -0.48254475 -0.46565753 1 2586745344 0 40 0 0
4.3511491 -0.50957882 -0.4659726 1 2586745344 0 40 0 0
4.3510413 -0.53664988 -0.46630484 1 2586745344 0 40 0 0
4.3509274 -0.56375998 -0.46665436 1 2586745344 0 40 0 0
4.3508081 -0.59091097 -0.46702176 1 2586745344 0 40 0 0
4.3506827 -0.61810493 -0.46740657 1 2586745344 0 40 0 0
4.3505521 -0.6453439 -0.46780914 1 2586745344 0 40 0 0
4.3504157 -0.67263007 -0.46822947 1 2586745344 0 40 0 0
4.3502731 -0.69996542 -0.46866745 1 2586745344 0 40 0 0
4.3501248 -0.72735226 -0.46912354 1 2586745344 0 40 0 0
4.3499708 -0.75479245 -0.46959764 1 2586745344 0 40 0 0
4.3498111 -0.78228796 -0.47008961 1 2586745344 0 40 0 0
4.3496451 -0.80984145 -0.47060019 1 2586745344 0 40 0 0
4.3494735 -0.83745474 -0.47112852 1 2586745344 0 40 0 0
4.3492956 -0.86512792 -0.47167522 1 2586745344 0 40 0 0
4.349112 -0.89286703 -0.47224075 1 2586745344 0 40 0 0
4.3489223 -0.92067289 -0.47282475 1 2586745344 0 40 0 0
4.3487267 -0.94854772 -0.47342724 1 2586745344 0 40 0 0
4.348525 -0.97649312 -0.47404867 1 2586745344 0 40 0 0
4.3483167 -1.0045117 -0.47468907 1 2586745344 0 40 0 0
4.3481021 -1.0326064 -0.47534841 1 2586745344 0 40 0 0
4.3478818 -1.0607784 -0.47602695 1 2586745344 0 40 0 0
4.3476553 -1.0890306 -0.47672468 1 2586745344 0 40 0 0
4.3474221 -1.1173654 -0.47744185 1 2586745344 0 40 0 0
4.3471823 -1.1457852 -0.47817892 1 2586745344 0 40 0 0
4.3469372 -1.1742929 -0.47893506 1 2586745344 0 40 0 0
4.3342671 -0.40005106 -0.51792651 1 2586745344 0 41 0 0
4.3341727 -0.42687845 -0.51821834 1 2586745344 0 41 0 0
4.3340716 -0.45373675 -0.51852936 1 2586745344 0 41 0 0
4.3339639 -0.48062751 -0.51885957 1 2586745344 0 41 0 0
4.3338504 -0.50755286 -0.51920897 1 2586745344 0 41 0 0
4.3337307 -0.5345149 -0.51957768 1 2586745344 0 41 0 0
4.3336043 -0.56151545 -0.51996595 1 2586745344 0 41 0 0
4.3334718 -0.58855629 -0.52037352 1 2586745344 0 41 0 0
4.333333 -0.61563998 -0.52080077 1 2586745344 0 41 0 0
4.3331881 -0.64276826 -0.52124745 1 2586745344 0 41 0 0
4.3330364 -0.66994315 -0.52171403 1 2586745344 0 41 0 0
4.3328786 -0.69716656 -0.52220017 1 2586745344 0 41 0 0
4.3327141 -0.72444123 -0.52270633 1 2586745344 0 41 0 0
4.3325434 -0.75176847 -0.52323216 1 2586745344 0 41 0 0
4.3323655 -0.77915061 -0.52377826 1 2586745344 0 41 0 0
4.3321815 -0.80659002 -0.5243445 1 2586745344 0 41 0 0
4.3319907 -0.83408862 -0.52493089 1 2586745344 0 41 0 0
4.3317938 -0.86164618 -0.52553791 1 2586745344 0 41 0 0
4.3315897 -0.88926977 -0.52616519 1 2586745344 0 41 0 0
4.3313794 -0.91695929 -0.52681321 1 2586745344 0 41 0 0
4.331162 -0.94471633 -0.52748197 1 2586745344 0 41 0 0
4.3309379 -0.97254413 -0.52817136 1 2586745344 0 41 0 0
4.3307071 -1.0004438 -0.52888197 1 2586745344 0 41 0 0
4.3304696 -1.0284185 -0.52961355 1 2586745344 0 41 0 0
4.3302245 -1.0564705 -0.53036636 1 2586745344 0 41 0 0
4.3299732 -1.0846015 -0.53114086 1 2586745344 0 41 0 0
4.3297148 -1.1128143 -0.53193659 1 2586745344 0 41 0 0
4.3294492 -1.1411113 -0.53275412 1 2586745344 0 41 0 0
4.3291764 -1.1694946 -0.53359371 1 2586745344 0 41 0 0
4.3288965 -1.1979668 -0.534455 1 2586745344 0 41 0 0
4.3286095 -1.2265308 -0.5353387 1 2586745344 0 41 0 0
4.3173666 -0.31846789 -0.56993645 1 2574745088 0 42 0 0
4.3172832 -0.34510872 -0.57019418 1 2586745344 0 42 0 0
4.3171926 -0.37177417 -0.57047278 1 2586745344 0 42 0 0
4.3170953 -0.39846626 -0.57077247 1 2586745344 0 42 0 0
4.3169913 -0.42518628 -0.57109267 1 2586745344 0 42 0 0
4.3168802 -0.45193708 -0.57143444 1 2586745344 0 42 0 0
4.3167624 -0.47872004 -0.5717966 1 2586745344 0 42 0 0
4.316638 -0.50553703 -0.57218045 1 2586745344 0 42 0 0
4.3165064 -0.53239048 -0.57258493 1 2586745344 0 42 0 0
4.3163681 -0.55928195 -0.57301122 1 2586745344 0 42 0 0
4.3162227 -0.58621359 -0.57345849 1 2586745344 0 42 0 0
4.3160706 -0.61318737 -0.57392734 1 2586745344 0 42 0 0
4.3159113 -0.64020544 -0.57441765 1 2586745344 0 42 0 0
4.3157449 -0.66726965 -0.57492954 1 2586745344 0 42 0 0
4.3155713 -0.69438201 -0.57546335 1 2586745344 0 42 0 0
4.3153906 -0.72154492 -0.57601887 1 2586745344 0 42 0 0
4.3152032 -0.74876004 -0.57659632 1 2586745344 0 42 0 0
4.3150082 -0.77602911 -0.57719535 1 2586745344 0 42 0 0
4.3148065 -0.80335498 -0.57781702 1 2586745344 0 42 0 0
4.3145971 -0.83073956 -0.57846087 1 2586745344 0 42 0 0
4.3143806 -0.85818291 -0.57912666 1 2586745344 0 42 0 0
4.314157 -0.88569099 -0.57981545 1 2586745344 0 42 0 0
4.3139257 -0.91326427 -0.58052665 1 2586745344 0 42 0 0
4.3136873 -0.94090474 -0.5812605 1 2586745344 0 42 0 0
4.3134418 -0.96861494 -0.58201724 1 2586745344 0 42 0 0
4.3131881 -0.9963969 -0.58279699 1 2586745344 0 42 0 0
4.3129272 -1.0242529 -0.58359998 1 2586745344 0 42 0 0
4.3126588 -1.0521841 -0.58442646 1 2586745344 0 42 0 0
4.3123827 -1.0801951 -0.58527607 1 2586745344 0 42 0 0
4.312099 -1.1082866 -0.58614963 1 2586745344 0 42 0 0
4.3118072 -1.1364614 -0.58704656 1 2586745344 0 42 0 0
4.3115082 -1.1647221 -0.58796781 1 2586745344 0 42 0 0
4.3112006 -1.1930701 -0.58891314 1 2586745344 0 42 0 0
4.3108859 -1.2215085 -0.58988291 1 2586745344 0 42 0 0
4.3105626 -1.2500401 -0.59087712 1 2586745344 0 42 0 0
4.3004589 -0.26420406 -0.62197059 1 2574745088 0 43 0 0
4.3003826 -0.29069614 -0.62220603 1 2574745088 0 43 0 0
4.3002987 -0.31720877 -0.62246376 1 2574745088 0 43 0 0
4.3002076 -0.34374374 -0.6227439 1 2586745344 0 43 0 0
4.3001089 -0.37030309 -0.62304705 1 2586745344 0 43 0 0
4.3000035 -0.39688867 -0.62337309 1 2586745344 0 43 0 0
4.29989 -0.42350218 -0.62372166 1 2586745344 0 43 0 0
4.2997694 -0.4501456 -0.624093 1 2586745344 0 43 0 0
4.2996411 -0.47682136 -0.62448734 1 2586745344 0 43 0 0
4.2995057 -0.50353074 -0.62490469 1 2586745344 0 43 0 0
4.2993627 -0.530276 -0.62534493 1 2586745344 0 43 0 0
4.299212 -0.55705917 -0.6258083 1 2586745344 0 43 0 0
4.2990541 -0.58388191 -0.62629527 1 2586745344 0 43 0 0
4.2988882 -0.61074626 -0.62680525 1 2586745344 0 43 0 0
4.2987151 -0.63765466 -0.62733847 1 2586745344 0 43 0 0
4.2985339 -0.6646086 -0.62789541 1 2586745344 0 43 0 0
4.2983456 -0.69161034 -0.62847608 1 2586745344 0 43 0 0
4.2981491 -0.71866208 -0.62908012 1 2586745344 0 43 0 0
4.2979445 -0.74576521 -0.62970823 1 2586745344 0 43 0 0
4.2977328 -0.77292222 -0.63036031 1 2586745344 0 43 0 0
4.2975135 -0.80013549 -0.63103634 1 2586745344 0 43 0 0
4.297286 -0.82740629 -0.63173622 1 2586745344 0 43 0 0
4.2970505 -0.85473567 -0.63246089 1 2586745344 0 43 0 0
4.2968073 -0.88212889 -0.63320988 1 2586745344 0 43 0 0
4.296556 -0.90958714 -0.63398355 1 2586745344 0 43 0 0
4.2962966 -0.93711144 -0.63478154 1 2586745344 0 43 0 0
4.2960291 -0.96470511 -0.6356048 1 2586745344 0 43 0 0
4.295753 -0.99236923 -0.63645273 1 2586745344 0 43 0 0
4.2954693 -1.0201072 -0.6373263 1 2586745344 0 43 0 0
4.2951775 -1.0479199 -0.6382249 1 2586745344 0 43 0 0
4.2948771 -1.0758103 -0.63914913 1 2586745344 0 43 0 0
4.2945685 -1.103781 -0.64009911 1 2586745344 0 43 0 0
4.2942514 -1.1318344 -0.64107507 1 2586745344 0 43 0 0
4.2939258 -1.1599721 -0.64207679 1 2586745344 0 43 0 0
4.293592 -1.1881969 -0.64310473 1 2586745344 0 43 0 0
4.2932491 -1.2165112 -0.6441595 1 2586745344 0 43 0 0
4.2928977 -1.2449175 -0.64524072 1 2586745344 0 43 0 0
4.2925377 -1.2734181 -0.64634854 1 2586745344 0 43 0 0
4.2921686 -1.3020152 -0.64748389 1 2586745344 0 43 0 0
4.2836776 -0.18410257 -0.67361611 1 2574745088 0 44 0 0
4.2836185 -0.21043989 -0.67379719 1 2574745088 0 44 0 0
4.2835522 -0.23679192 -0.67400259 1 2574745088 0 44 0 0
4.2834773 -0.26316062 -0.67423207 1 2574745088 0 44 0 0
4.2833948 -0.28954783 -0.67448598 1 2574745088 0 44 0 0
4.2833042 -0.31595516 -0.67476445 1 2574745088 0 44 0 0
4.283206 -0.34238476 -0.67506725 1 2586745344 0 44 0 0
4.2830997 -0.36883837 -0.67539448 1 2586745344 0 44 0 0
4.2829852 -0.39531776 -0.67574626 1 2586745344 0 44 0 0
4.2828631 -0.42182517 -0.67612284 1 2586745344 0 44 0 0
4.2827325 -0.44836223 -0.67652363 1 2586745344 0 44 0 0
4.2825942 -0.47493091 -0.67694944 1 2586745344 0 44 0 0
4.2824478 -0.50153291 -0.67739981 1 2586745344 0 44 0 0
4.2822933 -0.5281707 -0.67787546 1 2586745344 0 44 0 0
4.2821307 -0.55484593 -0.67837578 1 2586745344 0 44 0 0
4.28196 -0.58156008 -0.67890114 1 2586745344 0 44 0 0
4.2817812 -0.60831589 -0.67945188 1 2586745344 0 44 0 0
4.2815943 -0.63511497 -0.6800279 1 2586745344 0 44 0 0
4.2813988 -0.66195935 -0.68062907 1 2586745344 0 44 0 0
4.2811952 -0.68885094 -0.68125588 1 2586745344 0 44 0 0
4.280983 -0.71579146 -0.68190807 1 2586745344 0 44 0 0
4.2807627 -0.74278373 -0.68258625 1 2586745344 0 44 0 0
4.2805343 -0.7698288 -0.68329006 1 2586745344 0 44 0 0
4.2802973 -0.79692978 -0.68401974 1 2586745344 0 44 0 0
4.2800512 -0.8240878 -0.68477565 1 2586745344 0 44 0 0
4.2797971 -0.85130352 -0.68555778 1 2586745344 0 44 0 0
4.2795343 -0.87858284 -0.68636662 1 2586745344 0 44 0 0
4.279263 -0.90592617 -0.6872018 1 2586745344 0 44 0 0
4.2789831 -0.93333501 -0.68806344 1 2586745344 0 44 0 0
4.2786942 -0.96081221 -0.68895191 1 2586745344 0 44 0 0
4.2783966 -0.98835981 -0.68986768 1 2586745344 0 44 0 0
4.2780905 -1.0159795 -0.6908105 1 2586745344 0 44 0 0
4.2777753 -1.0436739 -0.69178063 1 2586745344 0 44 0 0
4.277451 -1.0714455 -0.69277841 1 2586745344 0 44 0 0
4.2771177 -1.0992961 -0.69380385 1 2586745344 0 44 0 0
4.2767754 -1.1272284 -0.6948573 1 2586745344 0 44 0 0
4.2764239 -1.1552444 -0.69593877 1 2586745344 0 44 0 0
4.2760634 -1.1833463 -0.69704837 1 2586745344 0 44 0 0
4.2756934 -1.2115366 -0.6981867 1 2586745344 0 44 0 0
4.2753143 -1.239818 -0.69935387 1 2586745344 0 44 0 0
4.2749252 -1.2681935 -0.70055014 1 2586745344 0 44 0 0
4.2745271 -1.2966642 -0.70177549 1 2586745344 0 44 0 0
4.2741194 -1.3252332 -0.70303017 1 2586745344 0 44 0 0
4.2668791 -0.1309464 -0.72531337 1 2574745088 0 45 0 0
4.2668328 -0.15715589 -0.7254557 1 2574745088 0 45 0 0
4.266778 -0.18337624 -0.72562402 1 2574745088 0 45 0 0
4.266715 -0.20960948 -0.72581822 1 2574745088 0 45 0 0
4.2666435 -0.23585728 -0.72603863 1 2574745088 0 45 0 0
4.2665634 -0.2621215 -0.72628492 1 2574745088 0 45 0 0
4.2664752 -0.28840402 -0.72655767 1 2574745088 0 45 0 0
4.2663779 -0.31470656 -0.72685629 1 2574745088 0 45 0 0
4.2662725 -0.34103099 -0.72718114 1 2586745344 0 45 0 0
4.2661581 -0.36737934 -0.72753233 1 2586745344 0 45 0 0
4.2660356 -0.39375344 -0.72790962 1 2586745344 0 45 0 0
4.2659039 -0.42015484 -0.72831339 1 2586745344 0 45 0 0
4.2657642 -0.44658577 -0.72874349 1 2586745344 0 45 0 0
4.2656159 -0.47304809 -0.72920054 1 2586745344 0 45 0 0
4.2654586 -0.49954349 -0.72968382 1 2586745344 0 45 0 0
4.2652931 -0.52607405 -0.73019367 1 2586745344 0 45 0 0
4.2651191 -0.55264157 -0.73073071 1 2586745344 0 45 0 0
4.264936 -0.57924801 -0.73129445 1 2586745344 0 45 0 0
4.2647438 -0.6058954 -0.73188525 1 2586745344 0 45 0 0
4.2645431 -0.63258564 -0.73250324 1 2586745344 0 45 0 0
4.2643332 -0.65932071 -0.7331484 1 2586745344 0 45 0 0
4.2641149 -0.68610269 -0.73382074 1 2586745344 0 45 0 0
4.2638869 -0.71293294 -0.73452061 1 2586745344 0 45 0 0
4.2636504 -0.73981428 -0.73524803 1 2586745344 0 45 0 0
4.2634053 -0.76674879 -0.73600334 1 2586745344 0 45 0 0
4.2631512 -0.79373753 -0.73678631 1 2586745344 0 45 0 0
4.2628875 -0.82078314 -0.73759729 1 2586745344 0 45 0 0
4.2626152 -0.84788585 -0.73843604 1 2586745344 0 45 0 0
4.2623334 -0.87505162 -0.73930365 1 2586745344 0 45 0 0
4.262042 -0.90228063 -0.74019951 1 2586745344 0 45 0 0
4.2617416 -0.92957455 -0.74112386 1 2586745344 0 45 0 0
4.2614317 -0.95693594 -0.74207741 1 2586745344 0 45 0 0
4.2611127 -0.98436689 -0.74305934 1 2586745344 0 45 0 0
4.2607841 -1.0118694 -0.74407083 1 2586745344 0 45 0 0
4.2604461 -1.0394464 -0.74511176 1 2586745344 0 45 0 0
4.260098 -1.0670991 -0.74618202 1 2586745344 0 45 0 0
4.2597408 -1.0948303 -0.74728209 1 2586745344 0 45 0 0
4.2593737 -1.1226417 -0.74841195 1 2586745344 0 45 0 0
4.2589965 -1.1505361 -0.7495721 1 2586745344 0 45 0 0
4.2586093 -1.1785158 -0.75076252 1 2586745344 0 45 0 0
4.2582126 -1.2065833 -0.75198358 1 2586745344 0 45 0 0
4.2578058 -1.2347409 -0.7532354 1 2586745344 0 45 0 0
4.2573891 -1.2629908 -0.75451833 1 2586745344 0 45 0 0
4.2501426 -0.05216061 -0.77682 1 2574745088 0 46 0 0
4.2501202 -0.078244954 -0.77688891 1 2574745088 0 46 0 0
4.2500892 -0.10433286 -0.7769857 1 2574745088 0 46 0 0
4.2500482 -0.13042988 -0.77711004 1 2574745088 0 46 0 0
4.249999 -0.15653582 -0.77726203 1 2574745088 0 46 0 0
4.2499404 -0.18265274 -0.77744168 1 2574745088 0 46 0 0
4.2498732 -0.20878214 -0.77764887 1 2574745088 0 46 0 0
4.2497964 -0.23492603 -0.77788395 1 2574745088 0 46 0 0
4.249711 -0.26108623 -0.77814704 1 2574745088 0 46 0 0
4.2496166 -0.28726435 -0.77843767 1 2574745088 0 46 0 0
4.2495131 -0.31346244 -0.77875644 1 2574745088 0 46 0 0
4.2494006 -0.33968246 -0.77910334 1 2586745344 0 46 0 0
4.249279 -0.36592594 -0.77947789 1 2586745344 0 46 0 0
4.2491479 -0.39219478 -0.7798807 1 2586745344 0 46 0 0
4.2490082 -0.41849077 -0.78031152 1 2586745344 0 46 0 0
4.2488589 -0.44481596 -0.78077084 1 2586745344 0 46 0 0
4.2487006 -0.47117218 -0.78125817 1 2586745344 0 46 0 0
4.2485328 -0.49756122 -0.78177422 1 2586745344 0 46 0 0
4.2483563 -0.52398503 -0.78231853 1 2586745344 0 46 0 0
4.2481699 -0.5504452 -0.78289133 1 2586745344 0 46 0 0
4.2479744 -0.57694447 -0.78349298 1 2586745344 0 46 0 0
4.2477698 -0.60348386 -0.78412348 1 2586745344 0 46 0 0
4.2475553 -0.63006574 -0.78478283 1 2586745344 0 46 0 0
4.2473311 -0.65669203 -0.78547114 1 2586745344 0 46 0 0
4.2470984 -0.68336457 -0.78618878 1 2586745344 0 46 0 0
4.2468557 -0.71008545 -0.78693551 1 2586745344 0 46 0 0
4.246603 -0.73685646 -0.78771168 1 2586745344 0 46 0 0
4.2463412 -0.76367962 -0.78851753 1 2586745344 0 46 0 0
4.2460699 -0.79055721 -0.78935307 1 2586745344 0 46 0 0
4.2457891 -0.81749099 -0.79021841 1 2586745344 0 46 0 0
4.2454982 -0.84448117 -0.79111367 1 2586745344 0 46 0 0
4.2451973 -0.87153369 -0.79203922 1 2586745344 0 46 0 0
4.2448864 -0.89864844 -0.79299504 1 2586745344 0 46 0 0
4.244566 -0.92582762 -0.79398161 1 2586745344 0 46 0 0
4.2442355 -0.95307416 -0.79499871 1 2586745344 0 46 0 0
4.2438951 -0.98038948 -0.79604667 1 2586745344 0 46 0 0
4.2435446 -1.0077754 -0.79712576 1 2586745344 0 46 0 0
4.2431836 -1.0352343 -0.79823619 1 2586745344 0 46 0 0
4.2428126 -1.0627691 -0.79937834 1 2586745344 0 46 0 0
4.2424312 -1.0903809 -0.80055183 1 2586745344 0 46 0 0
4.2420392 -1.1180726 -0.80175728 1 2586745344 0 46 0 0
4.2416372 -1.1458465 -0.80299503 1 2586745344 0 46 0 0
4.2412243 -1.1737049 -0.80426532 1 2586745344 0 46 0 0
4.2408013 -1.2016498 -0.80556816 1 2586745344 0 46 0 0
4.2333884 -0.025976876 -0.82838124 1 2574745088 0 47 0 0
4.2333741 -0.051954765 -0.82842535 1 2574745088 0 47 0 0
4.2333503 -0.077936321 -0.82849878 1 2574745088 0 47 0 0
4.2333169 -0.10392107 -0.82860142 1 2574745088 0 47 0 0
4.233274 -0.12991516 -0.8287335 1 2574745088 0 47 0 0
4.2332211 -0.15591799 -0.82889491 1 2574745088 0 47 0 0
4.2331595 -0.18193147 -0.82908565 1 2574745088 0 47 0 0
4.233088 -0.20795767 -0.82930595 1 2574745088 0 47 0 0
4.233007 -0.233998 -0.82955569 1 2574745088 0 47 0 0
4.2329159 -0.26005429 -0.829835 1 2574745088 0 47 0 0
4.2328157 -0.28612873 -0.83014411 1 2574745088 0 47 0 0
4.2327056 -0.31222275 -0.83048254 1 2574745088 0 47 0 0
4.2325859 -0.33833832 -0.83085078 1 2586745344 0 47 0 0
4.2324567 -0.36447719 -0.8312487 1 2586745344 0 47 0 0
4.2323174 -0.39064139 -0.83167654 1 2586745344 0 47 0 0
4.2321687 -0.41683242 -0.83213419 1 2586745344 0 47 0 0
4.2320104 -0.44305205 -0.83262211 1 2586745344 0 47 0 0
4.231842 -0.46930233 -0.8331396 1 2586745344 0 47 0 0
4.2316642 -0.49558562 -0.83368772 1 2586745344 0 47 0 0
4.2314763 -0.52190304 -0.83426601 1 2586745344 0 47 0 0
4.2312784 -0.5482567 -0.83487445 1 2586745344 0 47 0 0
4.2310705 -0.57464886 -0.83551353 1 2586745344 0 47 0 0
4.2308536 -0.60108072 -0.83618313 1 2586745344 0 47 0 0
4.2306256 -0.62755442 -0.83688349 1 2586745344 0 47 0 0
4.2303882 -0.65407223 -0.83761448 1 2586745344 0 47 0 0
4.2301402 -0.68063611 -0.8383767 1 2586745344 0 47 0 0
4.2298827 -0.70724744 -0.83917016 1 2586745344 0 47 0 0
4.2296152 -0.73390877 -0.83999425 1 2586745344 0 47 0 0
4.2293367 -0.76062149 -0.84085017 1 2586745344 0 47 0 0
4.2290483 -0.78738838 -0.84173781 1 2586745344 0 47 0 0
4.2287498 -0.81421036 -0.84265679 1 2586745344 0 47 0 0
4.2284408 -0.84108847 -0.84360772 1 2586745344 0 47 0 0
4.2281213 -0.86802781 -0.84459025 1 2586745344 0 47 0 0
4.2277913 -0.89502895 -0.84560543 1 2586745344 0 47 0 0
4.2274508 -0.92209452 -0.84665316 1 2586745344 0 47 0 0
4.2270999 -0.94922608 -0.84773356 1 2586745344 0 47 0 0
4.2267385 -0.97642535 -0.84884626 1 2586745344 0 47 0 0
4.226366 -1.0036955 -0.84999245 1 2586745344 0 47 0 0
4.2259827 -1.0310379 -0.85117179 1 2586745344 0 47 0 0
4.2255888 -1.0584548 -0.85238451 1 2586745344 0 47 0 0
4.225184 -1.0859482 -0.8536306 1 2586745344 0 47 0 0
4.2247677 -1.1135207 -0.85491115 1 2586745344 0 47 0 0
4.2166562 -0.051749673 -0.87987429 1 2574745088 0 48 0 0
4.2166309 -0.077628493 -0.87995189 1 2574745088 0 48 0 0
4.2165956 -0.10351058 -0.88006061 1 2574745088 0 48 0 0
4.2165504 -0.12940189 -0.88020045 1 2574745088 0 48 0 0
4.216495 -0.15530188 -0.88037115 1 2574745088 0 48 0 0
4.2164292 -0.18121259 -0.88057309 1 2574745088 0 48 0 0
4.2163534 -0.20713551 -0.88080603 1 2574745088 0 48 0 0
4.2162676 -0.23307271 -0.88107044 1 2574745088 0 48 0 0
4.2161717 -0.25902569 -0.88136584 1 2574745088 0 48 0 0
4.2160654 -0.28499651 -0.88169259 1 2574745088 0 48 0 0
4.2159491 -0.31098685 -0.88205069 1 2574745088 0 48 0 0
4.2158227 -0.33699831 -0.88244015 1 2586745344 0 48 0 0
4.2156854 -0.36303288 -0.8828612 1 2586745344 0 48 0 0
4.2155385 -0.38909245 -0.88331383 1 2586745344 0 48 0 0
4.2153811 -0.41517863 -0.88379782 1 2586745344 0 48 0 0
4.2152133 -0.44129351 -0.88431388 1 2586745344 0 48 0 0
4.2150354 -0.46743876 -0.88486153 1 2586745344 0 48 0 0
4.2148471 -0.49361613 -0.88544124 1 2586745344 0 48 0 0
4.2146487 -0.51982737 -0.88605291 1 2586745344 0 48 0 0
4.2144394 -0.54607487 -0.88669652 1 2586745344 0 48 0 0
4.2142196 -0.5723601 -0.88737255 1 2586745344 0 48 0 0
4.2139897 -0.59868491 -0.88808101 1 2586745344 0 48 0 0
4.2137489 -0.6250512 -0.88882178 1 2586745344 0 48 0 0
4.2134976 -0.65146065 -0.88959509 1 2586745344 0 48 0 0
4.2132354 -0.67791617 -0.89040154 1 2586745344 0 48 0 0
4.2129631 -0.70441878 -0.89124066 1 2586745344 0 48 0 0
4.2126794 -0.73097014 -0.89211255 1 2586745344 0 48 0 0
4.2123852 -0.75757301 -0.89301795 1 2586745344 0 48 0 0
4.2120805 -0.7842288 -0.89395672 1 2586745344 0 48 0 0
4.2117643 -0.81093979 -0.89492863 1 2586745344 0 48 0 0
4.2114377 -0.83770597 -0.89593452 1 2586745344 0 48 0 0
4.2110996 -0.86453336 -0.89697427 1 2586745344 0 48 0 0
4.2107511 -0.89142215 -0.89804798 1 2586745344 0 48 0 0
4.2103906 -0.91837364 -0.89915591 1 2586745344 0 48 0 0
4.2100196 -0.94539088 -0.90029889 1 2586745344 0 48 0 0
4.2096372 -0.97247523 -0.90147585 1 2586745344 0 48 0 0
4.2092428 -0.9996292 -0.90268821 1 2586745344 0 48 0 0
4.2088375 -1.0268551 -0.90393549 1 2586745344 0 48 0 0
4.2084212 -1.0541542 -0.90521806 1 2586745344 0 48 0 0
4.1999197 -0.10310126 -0.93138033 1 2574745088 0 49 0 0
4.199872 -0.12888998 -0.93152767 1 2574745088 0 49 0 0
4.1998134 -0.15468749 -0.93170756 1 2574745088 0 49 0 0
4.1997442 -0.18049541 -0.93192035 1 2574745088 0 49 0 0
4.1996646 -0.20631552 -0.93216592 1 2574745088 0 49 0 0
4.199574 -0.23214982 -0.93244463 1 2574745088 0 49 0 0
4.1994729 -0.25799987 -0.93275613 1 2574745088 0 49 0 0
4.1993613 -0.28386721 -0.93310064 1 2574745088 0 49 0 0
4.1992383 -0.30975401 -0.93347818 1 2574745088 0 49 0 0
4.1991048 -0.33566189 -0.93388897 1 2586745344 0 49 0 0
4.1989608 -0.36159262 -0.93433255 1 2586745344 0 49 0 0
4.1988058 -0.38754809 -0.93480951 1 2586745344 0 49 0 0
4.1986399 -0.41352981 -0.93531972 1 2586745344 0 49 0 0
4.198463 -0.43953967 -0.93586367 1 2586745344 0 49 0 0
4.1982756 -0.46557999 -0.936441 1 2586745344 0 49 0 0
4.1980767 -0.49165198 -0.93705195 1 2586745344 0 49 0 0
4.1978674 -0.51775771 -0.93769675 1 2586745344 0 49 0 0
4.1976471 -0.54389894 -0.93837529 1 2586745344 0 49 0 0
4.1974158 -0.57007766 -0.93908805 1 2586745344 0 49 0 0
4.1971726 -0.5962956 -0.93983442 1 2586745344 0 49 0 0
4.196919 -0.6225546 -0.94061512 1 2586745344 0 49 0 0
4.1966543 -0.64885664 -0.94143039 1 2586745344 0 49 0 0
4.1963782 -0.67520362 -0.94228023 1 2586745344 0 49 0 0
4.1960907 -0.70159709 -0.94316465 1 2586745344 0 49 0 0
4.1957922 -0.72803998 -0.94408411 1 2586745344 0 49 0 0
4.1954818 -0.75453299 -0.94503802 1 2586745344 0 49 0 0
4.1951609 -0.7810787 -0.94602734 1 2586745344 0 49 0 0
4.1948276 -0.80767864 -0.94705218 1 2586745344 0 49 0 0
4.1944833 -0.83433342 -0.94811231 1 2586745344 0 49 0 0
4.1941271 -0.86104912 -0.9492082 1 2586745344 0 49 0 0
4.1937594 -0.88782489 -0.95034009 1 2586745344 0 49 0 0
4.1933799 -0.91466337 -0.95150775 1 2586745344 0 49 0 0
4.1929889 -0.94156635 -0.952712 1 2586745344 0 49 0 0
4.1925855 -0.9685362 -0.95395261 1 2586745344 0 49 0 0
4.1921701 -0.99557471 -0.9552303 1 2586745344 0 49 0 0
4.1831722 -0.15407455 -0.98292094 1 2574745088 0 50 0 0
4.1830993 -0.17978007 -0.98314446 1 2574745088 0 50 0 0
4.1830158 -0.2054977 -0.98340267 1 2574745088 0 50 0 0
4.1829209 -0.2312292 -0.98369509 1 2574745088 0 50 0 0
4.1828146 -0.2569764 -0.9840228 1 2574745088 0 50 0 0
4.1826968 -0.28274086 -0.98438472 1 2574745088 0 50 0 0
4.1825681 -0.30852437 -0.98478121 1 2574745088 0 50 0 0
4.1824279 -0.33432883 -0.98521262 1 2586745344 0 50 0 0
4.1822762 -0.36015594 -0.98567909 1 2586745344 0 50 0 0
4.1821132 -0.38600719 -0.98618025 1 2586745344 0 50 0 0
4.1819391 -0.41188517 -0.98671669 1 2586745344 0 50 0 0
4.1817532 -0.43779066 -0.98728818 1 2586745344 0 50 0 0
4.1815562 -0.46372607 -0.98789483 1 2586745344 0 50 0 0
4.1813478 -0.48969296 -0.98853666 1 2586745344 0 50 0 0
4.1811275 -0.51569307 -0.98921388 1 2586745344 0 50 0 0
4.1808958 -0.54172862 -0.98992699 1 2586745344 0 50 0 0
4.1806526 -0.56780106 -0.99067563 1 2586745344 0 50 0 0
4.1803975 -0.59391248 -0.99146014 1 2586745344 0 50 0 0
4.180131 -0.62006444 -0.99228078 1 2586745344 0 50 0 0
4.179853 -0.64625877 -0.99313718 1 2586745344 0 50 0 0
4.1795626 -0.67249829 -0.99403018 1 2586745344 0 50 0 0
4.1792607 -0.69878358 -0.99495929 1 2586745344 0 50 0 0
4.178947 -0.72511715 -0.99592501 1 2586745344 0 50 0 0
4.1786213 -0.75150055 -0.99692756 1 2586745344 0 50 0 0
4.1782832 -0.77793622 -0.99796718 1 2586745344 0 50 0 0
4.1779337 -0.80442595 -0.99904352 1 2586745344 0 50 0 0
4.1775718 -0.83096981 -1.0001574 1 2586745344 0 50 0 0
4.1771975 -0.85757327 -1.0013087 1 2586745344 0 50 0 0
4.1768112 -0.88423711 -1.0024979 1 2586745344 0 50 0 0
4.1764126 -0.91096252 -1.0037248 1 2586745344 0 50 0 0
4.1760015 -0.93775177 -1.0049901 1 2586745344 0 50 0 0
4.1664023 -0.2046815 -1.0345318 1 2574745088 0 51 0 0
4.1663022 -0.23031059 -1.0348387 1 2574745088 0 51 0 0
4.1661911 -0.25595504 -1.0351815 1 2574745088 0 51 0 0
4.1660681 -0.28161672 -1.0355606 1 2574745088 0 51 0 0
4.1659327 -0.30729729 -1.0359762 1 2574745088 0 51 0 0
4.1657858 -0.33299834 -1.0364285 1 2586745344 0 51 0 0
4.165627 -0.358722 -1.036917 1 2586745344 0 51 0 0
4.1654563 -0.38446984 -1.0374422 1 2586745344 0 51 0 0
4.1652737 -0.41024336 -1.0380042 1 2586745344 0 51 0 0
4.1650796 -0.4360449 -1.0386026 1 2586745344 0 51 0 0
4.1648726 -0.46187583 -1.0392385 1 2586745344 0 51 0 0
4.1646543 -0.48773772 -1.0399113 1 2586745344 0 51 0 0
4.1644235 -0.51363277 -1.0406208 1 2586745344 0 51 0 0
4.1641808 -0.53956264 -1.0413678 1 2586745344 0 51 0 0
4.1639256 -0.56552923 -1.0421524 1 2586745344 0 51 0 0
4.1636586 -0.59153408 -1.0429742 1 2586745344 0 51 0 0
4.1633797 -0.61757958 -1.043834 1 2586745344 0 51 0 0
4.1630878 -0.64366692 -1.0447314 1 2586745344 0 51 0 0
4.1627841 -0.66979825 -1.0456667 1 2586745344 0 51 0 0
4.1624675 -0.6959756 -1.0466406 1 2586745344 0 51 0 0
4.1621389 -0.72220069 -1.0476525 1 2586745344 0 51 0 0
4.1617975 -0.7484749 -1.0487025 1 2586745344 0 51 0 0
4.1614432 -0.77480096 -1.0497918 1 2586745344 0 51 0 0
4.161077 -0.8011803 -1.0509195 1 2586745344 0 51 0 0
4.1606979 -0.82761329 -1.0520864 1 2586745344 0 51 0 0
4.1603055 -0.85410553 -1.0532928 1 2586745344 0 51 0 0
4.1599011 -0.8806569 -1.0545382 1 2586745344 0 51 0 0
4.149714 -0.22939362 -1.0858901 1 2574745088 0 52 0 0
4.1495972 -0.25493553 -1.0862484 1 2574745088 0 52 0 0
4.1494684 -0.28049469 -1.0866451 1 2574745088 0 52 0 0
4.1493273 -0.30607244 -1.0870793 1 2574745088 0 52 0 0
4.1491737 -0.33167061 -1.0875518 1 2586745344 0 52 0 0
4.1490078 -0.35729074 -1.0880623 1 2586745344 0 52 0 0
4.1488295 -0.38293526 -1.0886116 1 2586745344 0 52 0 0
4.1486387 -0.4086051 -1.0891986 1 2586745344 0 52 0 0
4.1484356 -0.43430245 -1.0898244 1 2586745344 0 52 0 0
4.1482196 -0.46002886 -1.0904887 1 2586745344 0 52 0 0
4.1479912 -0.48578632 -1.0911918 1 2586745344 0 52 0 0
4.1477499 -0.51157653 -1.0919337 1 2586745344 0 52 0 0
4.1474962 -0.53740084 -1.0927143 1 2586745344 0 52 0 0
4.1472297 -0.56326175 -1.093534 1 2586745344 0 52 0 0
4.1469507 -0.58916032 -1.094393 1 2586745344 0 52 0 0
4.1466589 -0.61509919 -1.0952914 1 2586745344 0 52 0 0
4.1463542 -0.64107949 -1.0962293 1 2586745344 0 52 0 0
4.1460366 -0.66710347 -1.0972068 1 2586745344 0 52 0 0
4.1457057 -0.69317305 -1.0982246 1 2586745344 0 52 0 0
4.1453624 -0.7192893 -1.0992818 1 2586745344 0 52 0 0
4.1450057 -0.74545503 -1.1003795 1 2586745344 0 52 0 0
4.1446357 -0.77167165 -1.1015179 1 2586745344 0 52 0 0
4.1442528 -0.79794121 -1.1026964 1 2586745344 0 52 0 0
4.132894 -0.27937415 -1.1376538 1 2574745088 0 53 0 0
4.1327462 -0.30484933 -1.1381066 1 2574745088 0 53 0 0
4.1325865 -0.33034477 -1.1385994 1 2586745344 0 53 0 0
4.1324134 -0.35586196 -1.139132 1 2586745344 0 53 0 0
4.1322274 -0.38140285 -1.1397042 1 2586745344 0 53 0 0
4.1320281 -0.40696928 -1.1403167 1 2586745344 0 53 0 0
4.1318164 -0.43256268 -1.1409693 1 2586745344 0 53 0 0
4.1315913 -0.45818481 -1.1416621 1 2586745344 0 53 0 0
4.1313529 -0.48383787 -1.142395 1 2586745344 0 53 0 0
4.1311016 -0.50952309 -1.1431687 1 2586745344 0 53 0 0
4.1308374 -0.53524244 -1.1439824 1 2586745344 0 53 0 0
4.1305594 -0.56099755 -1.1448371 1 2586745344 0 53 0 0
4.1302686 -0.5867905 -1.1457331 1 2586745344 0 53 0 0
4.1299639 -0.61262292 -1.1466699 1 2586745344 0 53 0 0
4.1296463 -0.6384964 -1.1476476 1 2586745344 0 53 0 0
4.1293154 -0.66441298 -1.1486669 1 2586745344 0 53 0 0
4.1289706 -0.69037473 -1.1497278 1 2586745344 0 53 0 0
4.128612 -0.71638304 -1.1508305 1 2586745344 0 53 0 0
4.1282401 -0.74243993 -1.1519754 1 2586745344 0 53 0 0
4.1160183 -0.3290202 -1.1895871 1 2586745344 0 54 0 0
4.1158385 -0.35443455 -1.1901414 1 2586745344 0 54 0 0
4.1156449 -0.37987226 -1.190737 1 2586745344 0 54 0 0
4.115438 -0.40533522 -1.1913745 1 2586745344 0 54 0 0
4.1152172 -0.43082485 -1.1920531 1 2586745344 0 54 0 0
4.1149831 -0.456343 -1.1927741 1 2586745344 0 54 0 0
4.1147351 -0.48189157 -1.1935365 1 2586745344 0 54 0 0
4.1144738 -0.50747216 -1.1943414 1 2586745344 0 54 0 0
4.1141982 -0.5330866 -1.1951888 1 2586745344 0 54 0 0
4.1139092 -0.55873626 -1.1960783 1 2586745344 0 54 0 0
4.1136065 -0.5844233 -1.1970103 1 2586745344 0 54 0 0
4.1132898 -0.61014938 -1.1979847 1 2586745344 0 54 0 0
4.1129589 -0.63591629 -1.1990025 1 2586745344 0 54 0 0
4.1126146 -0.661726 -1.200063 1 2586745344 0 54 0 0
4.1122556 -0.68757999 -1.2011671 1 2586745344 0 54 0 0
4.0990767 -0.37834308 -1.2417252 1 2586745344 0 55 0 0
4.0988617 -0.40370262 -1.2423871 1 2586745344 0 55 0 0
4.0986328 -0.4290885 -1.2430923 1 2586745344 0 55 0 0
4.0983896 -0.45450273 -1.2438409 1 2586745344 0 55 0 0
4.0981321 -0.47994712 -1.244633 1 2586745344 0 55 0 0
4.0978603 -0.50542301 -1.2454691 1 2586745344 0 55 0 0
4.0975747 -0.53093255 -1.2463489 1 2586745344 0 55 0 0
4.0972743 -0.55647701 -1.247273 1 2586745344 0 55 0 0
4.0969601 -0.58205843 -1.2482405 1 2586745344 0 55 0 0
4.0966311 -0.60767823 -1.2492528 1 2586745344 0 55 0 0
4.0962873 -0.63333881 -1.2503099 1 2586745344 0 55 0 0
4.0820575 -0.42735335 -1.294102 1 2586745344 0 56 0 0
4.0818052 -0.45266375 -1.294878 1 2586745344 0 56 0 0
4.0815387 -0.47800386 -1.2956996 1 2586745344 0 56 0 0
4.0812569 -0.50337529 -1.2965662 1 2586745344 0 56 0 0
4.0809608 -0.5287798 -1.2974784 1 2586745344 0 56 0 0
4.0806494 -0.55421925 -1.2984366 1 2586745344 0 56 0 0
4.0649495 -0.47606108 -1.3467524 1 2586745344 0 57 0 0
4.0646577 -0.50132787 -1.3476496 1 2586745344 0 57 0 0
