# .PCD v0.7 - Point Cloud Data file format
VERSION 0.7
FIELDS x y z intensity t reflectivity ring noise range
SIZE 4 4 4 4 4 2 2 2 4
TYPE F F F F U U U U U
COUNT 1 1 1 1 1 1 1 1 1
WIDTH 891
HEIGHT 1
VIEWPOINT 0 0 0 1 0 0 0
POINTS 891
DATA ascii
3.2664495 -0.34196684 0.39079857 1 26754560 0 22 0 0
3.2663851 -0.3622354 0.39104947 1 26754560 0 22 0 0
3.2663167 -0.38253033 0.39131492 1 26754560 0 22 0 0
3.2662451 -0.40285313 0.39159513 1 26754560 0 22 0 0
3.2661691 -0.42320541 0.39188993 1 26754560 0 22 0 0
3.2660894 -0.44358844 0.39219964 1 26754560 0 22 0 0
3.2660065 -0.4640041 0.39252424 1 26754560 0 22 0 0
3.2659192 -0.4844538 0.3928636 1 26754560 0 22 0 0
3.2658281 -0.50493902 0.39321798 1 26754560 0 22 0 0
3.2657332 -0.52546144 0.39358735 1 26754560 0 22 0 0
3.2656348 -0.54602277 0.39397177 1 26754560 0 22 0 0
3.2655323 -0.5666244 0.39437139 1 26754560 0 22 0 0
3.2770882 -0.22152372 0.34936237 1 26754560 0 23 0 0
3.2770505 -0.24172944 0.34950989 1 26754560 0 23 0 0
3.2770092 -0.26195279 0.34967032 1 26754560 0 23 0 0
3.2769647 -0.28219515 0.34984383 1 26754560 0 23 0 0
3.2769167 -0.30245802 0.35003021 1 26754560 0 23 0 0
3.2768657 -0.32274306 0.35022968 1 26754560 0 23 0 0
3.2768111 -0.34305152 0.35044229 1 26754560 0 23 0 0
3.2767532 -0.36338511 0.3506678 1 26754560 0 23 0 0
3.2766919 -0.38374534 0.3509067 1 26754560 0 23 0 0
3.2766271 -0.40413359 0.35115868 1 26754560 0 23 0 0
3.2765586 -0.42455146 0.35142395 1 26754560 0 23 0 0
3.2764874 -0.44500068 0.35170251 1 26754560 0 23 0 0
3.2764125 -0.46548247 0.35199448 1 26754560 0 23 0 0
3.276334 -0.48599863 0.35229975 1 26754560 0 23 0 0
3.2762523 -0.50655067 0.35261855 1 26754560 0 23 0 0
3.2761672 -0.5271402 0.3529509 1 26754560 0 23 0 0
3.2760785 -0.54776883 0.35329679 1 26754560 0 23 0 0
3.275986 -0.56843811 0.35365629 1 26754560 0 23 0 0
3.2758901 -0.58914948 0.3540296 1 26754560 0 23 0 0
3.2757907 -0.60990494 0.35441664 1 26754560 0 23 0 0
3.2875152 -0.18173176 0.30875146 1 26754560 0 24 0 0
3.2874877 -0.20197085 0.30885941 1 26754560 0 24 0 0
3.287457 -0.22222461 0.30897886 1 26754560 0 24 0 0
3.2874234 -0.24249461 0.30910969 1 26754560 0 24 0 0
3.2873867 -0.26278231 0.30925205 1 26754560 0 24 0 0
3.2873473 -0.28308931 0.30940586 1 26754560 0 24 0 0
3.2873049 -0.30341679 0.30957144 1 26754560 0 24 0 0
3.2872593 -0.32376671 0.30974835 1 26754560 0 24 0 0
3.2872109 -0.34414032 0.30993694 1 26754560 0 24 0 0
3.2871594 -0.36453909 0.31013715 1 26754560 0 24 0 0
3.2871051 -0.38496485 0.31034911 1 26754560 0 24 0 0
3.2870476 -0.40541884 0.31057268 1 26754560 0 24 0 0
3.2869873 -0.42590269 0.310808 1 26754560 0 24 0 0
3.2869236 -0.44641814 0.31105503 1 26754560 0 24 0 0
3.2868576 -0.46696639 0.31131425 1 26754560 0 24 0 0
3.286788 -0.48754928 0.31158513 1 26754560 0 24 0 0
3.2867153 -0.50816846 0.31186798 1 26754560 0 24 0 0
3.2866397 -0.52882534 0.31216273 1 26754560 0 24 0 0
3.2865608 -0.54952157 0.3124696 1 26754560 0 24 0 0
3.286479 -0.57025886 0.31278867 1 26754560 0 24 0 0
3.2863939 -0.59103882 0.31311974 1 26754560 0 24 0 0
3.2863057 -0.6118629 0.31346318 1 26754560 0 24 0 0
3.2862141 -0.63273293 0.31381905 1 26754560 0 24 0 0
3.2861199 -0.65364903 0.31418699 1 26754560 0 24 0 0
3.2979586 -0.14173871 0.26807755 1 26754560 0 25 0 0
3.2979393 -0.16201688 0.26815176 1 26754560 0 25 0 0
3.2979181 -0.18230686 0.26823589 1 26754560 0 25 0 0
3.297894 -0.20261018 0.26833001 1 26754560 0 25 0 0
3.2978671 -0.2229284 0.26843411 1 26754560 0 25 0 0
3.2978377 -0.24326281 0.26854819 1 26754560 0 25 0 0
3.297806 -0.26361519 0.2686722 1 26754560 0 25 0 0
3.2977715 -0.2839869 0.26880646 1 26754560 0 25 0 0
3.2977345 -0.30437952 0.26895058 1 26754560 0 25 0 0
3.2976947 -0.3247945 0.26910481 1 26754560 0 25 0 0
3.2976525 -0.3452335 0.26926905 1 26754560 0 25 0 0
3.2976077 -0.3656978 0.26944363 1 26754560 0 25 0 0
3.2975605 -0.38618925 0.26962835 1 26754560 0 25 0 0
3.2975104 -0.40670934 0.26982313 1 26754560 0 25 0 0
3.2974577 -0.42725956 0.2700282 1 26754560 0 25 0 0
3.2974026 -0.44784123 0.27024373 1 26754560 0 25 0 0
3.2973447 -0.46845636 0.27046949 1 26754560 0 25 0 0
3.2972839 -0.48910624 0.27070558 1 26754560 0 25 0 0
3.2972207 -0.50979275 0.27095214 1 26754560 0 25 0 0
3.2971547 -0.53051716 0.27120903 1 26754560 0 25 0 0
3.2970858 -0.55128139 0.27147657 1 26754560 0 25 0 0
3.2970145 -0.57208687 0.27175462 1 26754560 0 25 0 0
3.2969406 -0.59293556 0.27204329 1 26754560 0 25 0 0
3.2968636 -0.61382848 0.27234253 1 26754560 0 25 0 0
3.2967839 -0.63476813 0.27265257 1 26754560 0 25 0 0
3.2967017 -0.65575409 0.27297339 1 26754560 0 25 0 0
3.2966163 -0.67679113 0.27330515 1 26754560 0 25 0 0
3.2965286 -0.69787979 0.27364764 1 26754560 0 25 0 0
3.3084259 -0.1015324 0.2273103 1 26754560 0 26 0 0
3.308414 -0.12185547 0.22735661 1 26754560 0 26 0 0
3.3083999 -0.14218746 0.22741133 1 26754560 0 26 0 0
3.3083837 -0.16252995 0.22747451 1 26754560 0 26 0 0
3.3083651 -0.18288435 0.22754598 1 26754560 0 26 0 0
3.3083446 -0.2032522 0.22762614 1 26754560 0 26 0 0
3.308322 -0.22363506 0.22771484 1 26754560 0 26 0 0
3.3082974 -0.24403434 0.22781187 1 26754560 0 26 0 0
3.3082702 -0.26445162 0.22791743 1 26754560 0 26 0 0
3.3082409 -0.28488851 0.22803158 1 26754560 0 26 0 0
3.3082092 -0.30534634 0.2281543 1 26754560 0 26 0 0
3.3081756 -0.32582679 0.22828549 1 26754560 0 26 0 0
3.3081396 -0.34633133 0.22842532 1 26754560 0 26 0 0
3.3081014 -0.36686164 0.22857374 1 26754560 0 26 0 0
3.3080611 -0.38741916 0.22873092 1 26754560 0 26 0 0
3.3080187 -0.40800545 0.22889674 1 26754560 0 26 0 0
3.3079739 -0.42862204 0.22907138 1 26754560 0 26 0 0
3.3079267 -0.44927061 0.22925466 1 26754560 0 26 0 0
3.3078773 -0.46995276 0.22944671 1 26754560 0 26 0 0
3.3078258 -0.49067 0.22964776 1 26754560 0 26 0 0
3.3077719 -0.51142395 0.22985756 1 26754560 0 26 0 0
3.3077157 -0.53221649 0.23007625 1 26754560 0 26 0 0
3.307657 -0.55304885 0.230304 1 26754560 0 26 0 0
3.3075964 -0.57392305 0.23054069 1 26754560 0 26 0 0
3.3075335 -0.59484029 0.23078626 1 26754560 0 26 0 0
3.3074679 -0.61580271 0.23104101 1 26754560 0 26 0 0
3.3074002 -0.63681209 0.23130476 1 26754560 0 26 0 0
3.3073299 -0.65786809 0.23157781 1 26754560 0 26 0 0
3.3072577 -0.67897588 0.2318601 1 26754560 0 26 0 0
3.3071828 -0.70013535 0.23215163 1 26754560 0 26 0 0
3.3071055 -0.72134858 0.23245239 1 26754560 0 26 0 0
3.3189297 -0.04073213 0.18640101 1 26754560 0 27 0 0
3.3189251 -0.061101701 0.18641835 1 26754560 0 27 0 0
3.3189189 -0.08147414 0.18644255 1 26754560 0 27 0 0
3.3189111 -0.10185415 0.18647373 1 26754560 0 27 0 0
3.3189013 -0.12224175 0.18651181 1 26754560 0 27 0 0
3.3188894 -0.14263828 0.18655676 1 26754560 0 27 0 0
3.318876 -0.16304541 0.18660885 1 26754560 0 27 0 0
3.318861 -0.18346454 0.18666774 1 26754560 0 27 0 0
3.3188443 -0.20389727 0.1867336 1 26754560 0 27 0 0
3.3188255 -0.2243451 0.18680644 1 26754560 0 27 0 0
3.3188047 -0.24480946 0.18688637 1 26754560 0 27 0 0
3.3187826 -0.26529196 0.18697339 1 26754560 0 27 0 0
3.3187585 -0.28579423 0.18706733 1 26754560 0 27 0 0
3.3187325 -0.30631766 0.18716824 1 26754560 0 27 0 0
3.3187048 -0.32686374 0.1872763 1 26754560 0 27 0 0
3.318675 -0.34743434 0.18739134 1 26754560 0 27 0 0
3.318644 -0.36803073 0.18751347 1 26754560 0 27 0 0
3.3186107 -0.38865459 0.18764293 1 26754560 0 27 0 0
3.3185756 -0.4093076 0.18777919 1 26754560 0 27 0 0
3.3185387 -0.42999107 0.18792289 1 26754560 0 27 0 0
3.3185 -0.45070669 0.18807387 1 26754560 0 27 0 0
3.3184593 -0.47145626 0.18823189 1 26754560 0 27 0 0
3.3184171 -0.49224108 0.18839735 1 26754560 0 27 0 0
3.3183725 -0.51306313 0.18857002 1 26754560 0 27 0 0
3.3183262 -0.5339238 0.18875003 1 26754560 0 27 0 0
3.3182781 -0.55482483 0.18893749 1 26754560 0 27 0 0
3.3182285 -0.57576793 0.18913221 1 26754560 0 27 0 0
3.3181765 -0.59675455 0.18933433 1 26754560 0 27 0 0
3.3181229 -0.61778682 0.1895439 1 26754560 0 27 0 0
3.3180668 -0.63886601 0.18976104 1 26754560 0 27 0 0
3.3180089 -0.65999252 0.18998581 1 26754560 0 27 0 0
3.3179495 -0.68117094 0.19021809 1 26754560 0 27 0 0
3.3178878 -0.70240164 0.19045806 1 26754560 0 27 0 0
3.3178244 -0.72368652 0.19070578 1 26754560 0 27 0 0
3.3177588 -0.74502712 0.19096112 1 26754560 0 27 0 0
3.3176913 -0.76642531 0.1912244 1 26754560 0 27 0 0
3.3294652 -5.1736828e-07 0.14536756 1 14754304 0 28 0 0
3.3294647 -0.020430233 0.1453703 1 14754304 0 28 0 0
3.3294625 -0.040861402 0.14537829 1 26754560 0 28 0 0
3.329459 -0.061295576 0.145392 1 26754560 0 28 0 0
3.3294542 -0.08173275 0.1454109 1 26754560 0 28 0 0
3.3294477 -0.1021776 0.14543521 1 26754560 0 28 0 0
3.3294401 -0.12262989 0.14546508 1 26754560 0 28 0 0
3.3294311 -0.14309131 0.14550024 1 26754560 0 28 0 0
3.3294208 -0.1635634 0.14554089 1 26754560 0 28 0 0
3.3294089 -0.18404765 0.14558697 1 26754560 0 28 0 0
3.3293958 -0.20454556 0.14563864 1 26754560 0 28 0 0
3.329381 -0.22505859 0.14569563 1 26754560 0 28 0 0
3.3293648 -0.24558844 0.14575803 1 26754560 0 28 0 0
3.3293474 -0.26613653 0.1458261 1 26754560 0 28 0 0
3.3293285 -0.28670439 0.14589965 1 26754560 0 28 0 0
3.329308 -0.3072938 0.14597869 1 26754560 0 28 0 0
3.3292863 -0.3279061 0.14606315 1 26754560 0 28 0 0
3.3292634 -0.34854278 0.14615321 1 26754560 0 28 0 0
3.3292389 -0.36920574 0.14624882 1 26754560 0 28 0 0
3.3292129 -0.38989612 0.14635009 1 26754560 0 28 0 0
3.3291855 -0.41061598 0.14645696 1 26754560 0 28 0 0
3.3291564 -0.43136677 0.14656913 1 26754560 0 28 0 0
3.3291261 -0.45214993 0.14668721 1 26754560 0 28 0 0
3.3290944 -0.47296718 0.14681089 1 26754560 0 28 0 0
3.3290613 -0.49382025 0.14694029 1 26754560 0 28 0 0
3.3290265 -0.51471043 0.14707536 1 26754560 0 28 0 0
3.3289905 -0.53563982 0.14721626 1 26754560 0 28 0 0
3.3289528 -0.55660975 0.14736289 1 26754560 0 28 0 0
3.3289137 -0.57762206 0.1475153 1 26754560 0 28 0 0
3.3288732 -0.59867847 0.14767331 1 26754560 0 28 0 0
3.3288312 -0.61978054 0.1478374 1 26754560 0 28 0 0
3.3287876 -0.64093024 0.14800739 1 26754560 0 28 0 0
3.3287423 -0.66212749 0.14818329 1 26754560 0 28 0 0
3.3286955 -0.68337697 0.14836502 1 26754560 0 28 0 0
3.3286474 -0.70467949 0.14855283 1 26754560 0 28 0 0
3.3285975 -0.72603631 0.14874679 1 26754560 0 28 0 0
3.328546 -0.74744964 0.14894658 1 26754560 0 28 0 0
3.3284934 -0.76892072 0.14915258 1 26754560 0 28 0 0
3.328439 -0.79045188 0.14936465 1 26754560 0 28 0 0
3.3283827 -0.81204504 0.14958298 1 26754560 0 28 0 0
3.3400505 0.040990204 0.10413951 1 14754304 0 29 0 0
3.3400521 0.020494057 0.10413367 1 14754304 0 29 0 0
3.3400526 -5.1736828e-07 0.1041317 1 14754304 0 29 0 0
3.3400524 -0.020495133 0.10413361 1 14754304 0 29 0 0
3.3400505 -0.040991344 0.10413951 1 26754560 0 29 0 0
3.3400481 -0.061490536 0.10414922 1 26754560 0 29 0 0
3.3400447 -0.081992768 0.10416281 1 26754560 0 29 0 0
3.3400402 -0.1025026 0.10418034 1 26754560 0 29 0 0
3.3400347 -0.12302011 0.10420173 1 26754560 0 29 0 0
3.3400283 -0.14354675 0.10422707 1 26754560 0 29 0 0
3.3400207 -0.16408418 0.10425627 1 26754560 0 29 0 0
3.3400121 -0.1846337 0.10428935 1 26754560 0 29 0 0
3.3400028 -0.2051971 0.10432655 1 26754560 0 29 0 0
3.3399923 -0.22577599 0.10436743 1 26754560 0 29 0 0
3.3399804 -0.24637143 0.10441226 1 26754560 0 29 0 0
3.339968 -0.26698542 0.10446119 1 26754560 0 29 0 0
3.3399544 -0.28761953 0.104514 1 26754560 0 29 0 0
3.3399398 -0.30827507 0.10457081 1 26754560 0 29 0 0
3.3399243 -0.3289538 0.10463148 1 26754560 0 29 0 0
3.3399076 -0.34965712 0.10469633 1 26754560 0 29 0 0
3.33989 -0.37038696 0.10476494 1 26754560 0 29 0 0
3.3398714 -0.39114442 0.10483772 1 26754560 0 29 0 0
3.3398519 -0.41193163 0.10491443 1 26754560 0 29 0 0
3.3398311 -0.43274987 0.10499525 1 26754560 0 29 0 0
3.3398092 -0.45360088 0.10507995 1 26754560 0 29 0 0
3.3397863 -0.47448611 0.10516888 1 26754560 0 29 0 0
3.3397624 -0.49540752 0.1052618 1 26754560 0 29 0 0
3.3397374 -0.51636642 0.10535902 1 26754560 0 29 0 0
3.3397114 -0.53736472 0.10546029 1 26754560 0 29 0 0
3.3396847 -0.55840421 0.10556555 1 26754560 0 29 0 0
3.3396566 -0.57948613 0.10567504 1 26754560 0 29 0 0
3.3396273 -0.60061246 0.10578877 1 26754560 0 29 0 0
3.339597 -0.62178499 0.10590672 1 26754560 0 29 0 0
3.3395658 -0.64300561 0.1060288 1 26754560 0 29 0 0
3.3395331 -0.66427374 0.10615516 1 26754560 0 29 0 0
3.3394995 -0.6855951 0.10628581 1 26754560 0 29 0 0
3.3394649 -0.7069695 0.10642087 1 26754560 0 29 0 0
3.3394291 -0.72839904 0.10656005 1 26754560 0 29 0 0
3.3393924 -0.74988532 0.10670376 1 26754560 0 29 0 0
3.3393543 -0.7714299 0.1068517 1 26754560 0 29 0 0
3.3393152 -0.79303503 0.10700423 1 26754560 0 29 0 0
3.3392749 -0.81470245 0.10716116 1 26754560 0 29 0 0
3.3392334 -0.83643413 0.10732245 1 26754560 0 29 0 0
3.339191 -0.85823208 0.10748821 1 26754560 0 29 0 0
3.3506944 0.082254574 0.062684059 1 14754304 0 30 0 0
3.3506966 0.061685394 0.062675774 1 14754304 0 30 0 0
3.3506982 0.041120775 0.062669873 1 14754304 0 30 0 0
3.3506992 0.020559324 0.062666476 1 14754304 0 30 0 0
3.3506994 -5.0902366e-07 0.062665224 1 14754304 0 30 0 0
3.3506992 -0.02056052 0.062666357 1 14754304 0 30 0 0
3.3506982 -0.041122034 0.062669873 1 26754560 0 30 0 0
3.3506966 -0.061686654 0.062675655 1 26754560 0 30 0 0
3.3506944 -0.082254238 0.06268394 1 26754560 0 30 0 0
3.3506918 -0.10282951 0.06269455 1 26754560 0 30 0 0
3.3506885 -0.12341255 0.062707484 1 26754560 0 30 0 0
3.3506846 -0.14400475 0.062722683 1 26754560 0 30 0 0
3.3506801 -0.16460781 0.062740445 1 26754560 0 30 0 0
3.3506749 -0.18522318 0.062760592 1 26754560 0 30 0 0
3.3506694 -0.20585252 0.062782705 1 26754560 0 30 0 0
3.3506629 -0.22649723 0.06280762 1 26754560 0 30 0 0
3.350656 -0.24715883 0.06283474 1 26754560 0 30 0 0
3.3506482 -0.26783922 0.062864125 1 26754560 0 30 0 0
3.3506401 -0.28853962 0.062896073 1 26754560 0 30 0 0
3.3506312 -0.30926189 0.062930226 1 26754560 0 30 0 0
3.3506222 -0.33000746 0.062966824 1 26754560 0 30 0 0
3.3506122 -0.35077789 0.063005984 1 26754560 0 30 0 0
3.3506014 -0.37157482 0.063047469 1 26754560 0 30 0 0
3.3505902 -0.39239973 0.063091457 1 26754560 0 30 0 0
3.3505783 -0.41325462 0.06313777 1 26754560 0 30 0 0
3.3505657 -0.43414065 0.063186526 1 26754560 0 30 0 0
3.3505526 -0.45505986 0.063237727 1 26754560 0 30 0 0
3.3505385 -0.47601372 0.063291371 1 26754560 0 30 0 0
3.3505242 -0.49700373 0.063347518 1 26754560 0 30 0 0
3.3505092 -0.51803184 0.06340611 1 26754560 0 30 0 0
3.3504937 -0.53909963 0.063467205 1 26754560 0 30 0 0
3.3504772 -0.56020862 0.063530803 1 26754560 0 30 0 0
3.3504601 -0.58136076 0.063596904 1 26754560 0 30 0 0
3.3504424 -0.6025576 0.063665569 1 26754560 0 30 0 0
3.3504241 -0.62380099 0.063736677 1 26754560 0 30 0 0
3.3504052 -0.64509243 0.063810647 1 26754560 0 30 0 0
3.3503857 -0.66643238 0.063886821 1 26754560 0 30 0 0
3.3503654 -0.68782586 0.063965738 1 26754560 0 30 0 0
3.3503444 -0.7092728 0.064047277 1 26754560 0 30 0 0
3.3503232 -0.73077518 0.0641312 1 26754560 0 30 0 0
3.3503008 -0.75233459 0.064218104 1 26754560 0 30 0 0
3.3502777 -0.77395314 0.064307511 1 26754560 0 30 0 0
3.3502541 -0.7956329 0.064399481 1 26754560 0 30 0 0
3.3502297 -0.81737524 0.064494252 1 26754560 0 30 0 0
3.3502047 -0.83918232 0.064591706 1 26754560 0 30 0 0
3.350179 -0.86105597 0.064691901 1 26754560 0 30 0 0
3.3501527 -0.88299876 0.06479454 1 26754560 0 30 0 0
3.3614056 0.12380772 0.020967007 1 14754304 0 31 0 0
3.3614068 0.10315875 0.020962834 1 14754304 0 31 0 0
3.3614078 0.082517587 0.020959198 1 14754304 0 31 0 0
3.3614082 0.061882649 0.020956576 1 14754304 0 31 0 0
3.3614089 0.041252278 0.02095443 1 14754304 0 31 0 0
3.3614092 0.020625032 0.020953357 1 14754304 0 31 0 0
3.3614094 -5.6982037e-07 0.020952821 1 14754304 0 31 0 0
3.3614092 -0.020626217 0.020953178 1 14754304 0 31 0 0
3.3614089 -0.041253503 0.02095437 1 26754560 0 31 0 0
3.3614082 -0.061883818 0.020956457 1 26754560 0 31 0 0
3.3614078 -0.082517177 0.020959139 1 26754560 0 31 0 0
3.3614068 -0.10315834 0.020962656 1 26754560 0 31 0 0
3.3614056 -0.12380734 0.020967007 1 26754560 0 31 0 0
3.3614044 -0.1444656 0.020972013 1 26754560 0 31 0 0
3.3614032 -0.16513456 0.020978153 1 26754560 0 31 0 0
3.3614013 -0.18581612 0.020984888 1 26754560 0 31 0 0
3.3613994 -0.20651168 0.020992339 1 26754560 0 31 0 0
3.3613973 -0.22722276 0.021000624 1 26754560 0 31 0 0
3.3613949 -0.24795106 0.021009803 1 26754560 0 31 0 0
3.3613925 -0.26869801 0.021019697 1 26754560 0 31 0 0
3.3613894 -0.28946537 0.021030188 1 26754560 0 31 0 0
3.3613865 -0.31025463 0.021041691 1 26754560 0 31 0 0
3.3613832 -0.33106741 0.02105397 1 26754560 0 31 0 0
3.3613799 -0.35190517 0.021067023 1 26754560 0 31 0 0
3.3613765 -0.37276989 0.021080911 1 26754560 0 31 0 0
3.3613727 -0.39366263 0.021095872 1 26754560 0 31 0 0
3.3613687 -0.41458547 0.02111125 1 26754560 0 31 0 0
3.3613644 -0.43554008 0.021127522 1 26754560 0 31 0 0
3.3613601 -0.4565278 0.021144867 1 26754560 0 31 0 0
3.3613555 -0.47755045 0.021162868 1 26754560 0 31 0 0
3.3613505 -0.49860981 0.021181643 1 26754560 0 31 0 0
3.3613455 -0.51970726 0.021201372 1 26754560 0 31 0 0
3.3613403 -0.5408448 0.021221817 1 26754560 0 31 0 0
3.3613348 -0.56202406 0.021243215 1 26754560 0 31 0 0
3.3613288 -0.58324677 0.021265268 1 26754560 0 31 0 0
3.3613231 -0.60451436 0.021288455 1 26754560 0 31 0 0
3.3613172 -0.62582898 0.021312296 1 26754560 0 31 0 0
3.3613107 -0.6471923 0.021337092 1 26754560 0 31 0 0
3.361304 -0.66860449 0.021362603 1 26754560 0 31 0 0
3.3612971 -0.69007027 0.021389246 1 26754560 0 31 0 0
3.3612905 -0.71159005 0.021416545 1 26754560 0 31 0 0
3.3612831 -0.73316586 0.021444678 1 26754560 0 31 0 0
3.3612754 -0.75479943 0.021473765 1 26754560 0 31 0 0
3.3612678 -0.77649212 0.021503985 1 26754560 0 31 0 0
3.3612599 -0.79824662 0.021534801 1 26754560 0 31 0 0
3.3612518 -0.82006437 0.021566451 1 26754560 0 31 0 0
3.3612435 -0.84194767 0.021599054 1 26754560 0 31 0 0
3.3612349 -0.86389786 0.021632493 1 26754560 0 31 0 0
3.3612261 -0.88591748 0.021667004 1 26754560 0 31 0 0
3.361217 -0.90800792 0.021702528 1 26754560 0 31 0 0
3.3612075 -0.93017167 0.021738887 1 26754560 0 31 0 0
3.3721945 0.1864133 -0.02105242 1 14754304 0 32 0 0
3.3721926 0.16566509 -0.021045625 1 14754304 0 32 0 0
3.3721912 0.14492957 -0.021039724 1 14754304 0 32 0 0
3.3721898 0.12420491 -0.021034658 1 14754304 0 32 0 0
3.3721886 0.10348959 -0.021030128 1 14754304 0 32 0 0
3.3721876 0.082782179 -0.021026611 1 14754304 0 32 0 0
3.3721871 0.062081058 -0.02102387 1 14754304 0 32 0 0
3.3721869 0.041384585 -0.021021843 1 14754304 0 32 0 0
3.3721864 0.020691207 -0.021020651 1 14754304 0 32 0 0
3.3721862 -6.1631204e-07 -0.021020293 1 14754304 0 32 0 0
3.3721864 -0.020692386 -0.021020591 1 14754304 0 32 0 0
3.3721869 -0.041385718 -0.021021903 1 26754560 0 32 0 0
3.3721871 -0.062082238 -0.02102387 1 26754560 0 32 0 0
3.3721876 -0.082781799 -0.021026611 1 26754560 0 32 0 0
3.3721886 -0.10348921 -0.021030128 1 26754560 0 32 0 0
3.3721898 -0.12420449 -0.021034658 1 26754560 0 32 0 0
3.3721914 -0.14492914 -0.021039665 1 26754560 0 32 0 0
3.3721929 -0.16566463 -0.021045625 1 26754560 0 32 0 0
3.3721945 -0.18641278 -0.02105242 1 26754560 0 32 0 0
3.3721967 -0.207175 -0.021059871 1 26754560 0 32 0 0
3.3721983 -0.22795296 -0.021068454 1 26754560 0 32 0 0
3.3722007 -0.24874817 -0.021077514 1 26754560 0 32 0 0
3.3722034 -0.26956224 -0.021087527 1 26754560 0 32 0 0
3.372206 -0.29039684 -0.021098197 1 26754560 0 32 0 0
3.3722091 -0.31125349 -0.021109819 1 26754560 0 32 0 0
3.3722124 -0.33213386 -0.021122158 1 26754560 0 32 0 0
3.3722157 -0.35303953 -0.021135449 1 26754560 0 32 0 0
3.3722191 -0.37397227 -0.021149397 1 26754560 0 32 0 0
3.3722231 -0.39493343 -0.021164179 1 26754560 0 32 0 0
3.3722272 -0.41592482 -0.021179974 1 26754560 0 32 0 0
3.3722312 -0.43694809 -0.021196306 1 26754560 0 32 0 0
3.3722355 -0.45800495 -0.02121371 1 26754560 0 32 0 0
3.3722405 -0.47909686 -0.021231771 1 26754560 0 32 0 0
3.3722453 -0.50022578 -0.021250784 1 26754560 0 32 0 0
3.3722506 -0.52139336 -0.021270633 1 26754560 0 32 0 0
3.3722558 -0.54260117 -0.021291196 1 26754560 0 32 0 0
3.3722613 -0.56385106 -0.021312714 1 26754560 0 32 0 0
3.372267 -0.58514464 -0.021335006 1 26754560 0 32 0 0
3.372273 -0.60648358 -0.021358073 1 26754560 0 32 0 0
3.3722789 -0.6278699 -0.021382093 1 26754560 0 32 0 0
3.3722854 -0.6493054 -0.021406889 1 26754560 0 32 0 0
3.372292 -0.67078996 -0.021432638 1 26754560 0 32 0 0
3.3722992 -0.69232881 -0.021459222 1 26754560 0 32 0 0
3.3723061 -0.71392202 -0.021486819 1 26754560 0 32 0 0
3.3723135 -0.73557168 -0.021515191 1 26754560 0 32 0 0
3.3723209 -0.75727957 -0.021544516 1 26754560 0 32 0 0
3.3723288 -0.77904731 -0.021574676 1 26754560 0 32 0 0
3.3723364 -0.80087703 -0.02160579 1 26754560 0 32 0 0
3.3723445 -0.82277083 -0.021637917 1 26754560 0 32 0 0
3.3723531 -0.84473038 -0.021670699 1 26754560 0 32 0 0
3.3723619 -0.86675763 -0.021704733 1 26754560 0 32 0 0
3.3723707 -0.88885486 -0.021739602 1 26754560 0 32 0 0
3.37238 -0.91102368 -0.021775305 1 26754560 0 32 0 0
3.3830714 0.22868846 -0.06341511 1 14754304 0 33 0 0
3.383065 0.20784323 -0.063389897 1 14754304 0 33 0 0
3.383059 0.18701385 -0.063367009 1 14754304 0 33 0 0
3.3830538 0.16619875 -0.063346624 1 14754304 0 33 0 0
3.383049 0.14539622 -0.063328803 1 14754304 0 33 0 0
3.383045 0.12460479 -0.063313067 1 14754304 0 33 0 0
3.3830416 0.10382275 -0.063299894 1 14754304 0 33 0 0
3.3830388 0.083048679 -0.063289225 1 14754304 0 33 0 0
3.3830371 0.062280841 -0.06328088 1 14754304 0 33 0 0
3.3830352 0.041517783 -0.06327486 1 14754304 0 33 0 0
3.3830342 0.020757798 -0.063271284 1 14754304 0 33 0 0
3.3830342 -5.6266782e-07 -0.063270152 1 14754304 0 33 0 0
3.3830345 -0.020758994 -0.063271284 1 14754304 0 33 0 0
3.3830354 -0.041518908 -0.06327486 1 26754560 0 33 0 0
3.3830366 -0.062282 -0.063280761 1 26754560 0 33 0 0
3.3830388 -0.08304818 -0.063289225 1 26754560 0 33 0 0
3.3830416 -0.1038223 -0.063299954 1 26754560 0 33 0 0
3.3830452 -0.12460427 -0.063313246 1 26754560 0 33 0 0
3.3830492 -0.14539573 -0.063328803 1 26754560 0 33 0 0
3.3830538 -0.16619827 -0.063346982 1 26754560 0 33 0 0
3.383059 -0.18701342 -0.063367009 1 26754560 0 33 0 0
3.3830647 -0.20784277 -0.063389778 1 26754560 0 33 0 0
3.3830712 -0.228688 -0.06341517 1 26754560 0 33 0 0
3.3830783 -0.24955049 -0.063442767 1 26754560 0 33 0 0
3.3830862 -0.2704322 -0.063472927 1 26754560 0 33 0 0
3.3830943 -0.29133454 -0.063505471 1 26754560 0 33 0 0
3.3831036 -0.31225902 -0.063540339 1 26754560 0 33 0 0
3.3831129 -0.33320758 -0.063577652 1 26754560 0 33 0 0
3.3831234 -0.3541815 -0.063617408 1 26754560 0 33 0 0
3.3831341 -0.37518272 -0.063659906 1 26754560 0 33 0 0
3.3831453 -0.39621261 -0.063704669 1 26754560 0 33 0 0
3.3831575 -0.41727298 -0.063751757 1 26754560 0 33 0 0
3.3831704 -0.4383654 -0.063801527 1 26754560 0 33 0 0
3.3831842 -0.45949188 -0.06385386 1 26754560 0 33 0 0
3.3831983 -0.48065367 -0.063908398 1 26754560 0 33 0 0
3.3832128 -0.50185269 -0.063965678 1 26754560 0 33 0 0
3.3832281 -0.52309072 -0.06402564 1 26754560 0 33 0 0
3.3832443 -0.54436934 -0.064087927 1 26754560 0 33 0 0
3.3832607 -0.56569022 -0.064152777 1 26754560 0 33 0 0
3.3832781 -0.58705527 -0.06422013 1 26754560 0 33 0 0
3.3832958 -0.60846609 -0.064290106 1 26754560 0 33 0 0
3.3833144 -0.6299246 -0.064362645 1 26754560 0 33 0 0
3.3833339 -0.65143263 -0.064437747 1 26754560 0 33 0 0
3.3833537 -0.67299008 -0.064515471 1 26754560 0 33 0 0
3.3833745 -0.69460249 -0.064596057 1 26754560 0 33 0 0
3.3833959 -0.71626979 -0.064679027 1 26754560 0 33 0 0
3.3834176 -0.73799366 -0.064764977 1 26754560 0 33 0 0
3.3834405 -0.75977635 -0.064853311 1 26754560 0 33 0 0
3.3834639 -0.78161961 -0.064944565 1 26754560 0 33 0 0
3.3834882 -0.80352551 -0.065038443 1 26754560 0 33 0 0
3.3835127 -0.82549542 -0.065135002 1 26754560 0 33 0 0
3.3835385 -0.84753203 -0.065234363 1 26754560 0 33 0 0
3.3835647 -0.86963665 -0.065336466 1 26754560 0 33 0 0
3.3940444 0.2713086 -0.10615259 1 14754304 0 34 0 0
3.3940315 0.250359 -0.10610217 1 14754304 0 34 0 0
3.3940196 0.2294285 -0.10605592 1 14754304 0 34 0 0
3.3940086 0.20851557 -0.1060136 1 14754304 0 34 0 0
3.3939989 0.18761863 -0.10597527 1 14754304 0 34 0 0
3.39399 0.16673593 -0.10594112 1 14754304 0 34 0 0
3.3939824 0.14586611 -0.10591084 1 14754304 0 34 0 0
3.3939757 0.12500733 -0.10588485 1 14754304 0 34 0 0
3.39397 0.10415819 -0.10586274 1 14754304 0 34 0 0
3.3939655 0.083316818 -0.1058445 1 14754304 0 34 0 0
3.3939617 0.062481958 -0.10583049 1 14754304 0 34 0 0
3.3939593 0.041651815 -0.10582048 1 14754304 0 34 0 0
3.3939574 0.020824766 -0.10581428 1 14754304 0 34 0 0
3.3939569 -6.1035155e-07 -0.10581237 1 14754304 0 34 0 0
3.3939574 -0.020825963 -0.10581446 1 14754304 0 34 0 0
3.393959 -0.041653011 -0.10582042 1 26754560 0 34 0 0
3.3939617 -0.062483124 -0.10583055 1 26754560 0 34 0 0
3.3939655 -0.08331646 -0.1058445 1 26754560 0 34 0 0
3.39397 -0.10415777 -0.10586274 1 26754560 0 34 0 0
3.3939757 -0.1250069 -0.10588485 1 26754560 0 34 0 0
3.3939824 -0.14586563 -0.1059109 1 26754560 0 34 0 0
3.39399 -0.16673553 -0.105941 1 26754560 0 34 0 0
3.3939986 -0.18761814 -0.10597527 1 26754560 0 34 0 0
3.3940086 -0.20851503 -0.1060136 1 26754560 0 34 0 0
3.3940194 -0.22942811 -0.10605592 1 26754560 0 34 0 0
3.3940313 -0.25035849 -0.10610229 1 26754560 0 34 0 0
3.3940444 -0.27130821 -0.10615259 1 26754560 0 34 0 0
3.3940585 -0.29227865 -0.10620719 1 26754560 0 34 0 0
3.3940737 -0.31327158 -0.10626572 1 26754560 0 34 0 0
3.3940895 -0.3342886 -0.10632855 1 26754560 0 34 0 0
3.3941069 -0.3553313 -0.1063953 1 26754560 0 34 0 0
3.394125 -0.37640148 -0.10646623 1 26754560 0 34 0 0
3.3941445 -0.39750057 -0.10654145 1 26754560 0 34 0 0
3.3941646 -0.41863054 -0.10662079 1 26754560 0 34 0 0
3.394186 -0.43979278 -0.10670418 1 26754560 0 34 0 0
3.3942087 -0.46098918 -0.10679191 1 26754560 0 34 0 0
3.394232 -0.48222128 -0.1068837 1 26754560 0 34 0 0
3.3942568 -0.50349098 -0.10697985 1 26754560 0 34 0 0
3.3942828 -0.52479988 -0.10708016 1 26754560 0 34 0 0
3.3943093 -0.54614973 -0.10718459 1 26754560 0 34 0 0
3.3943374 -0.5675422 -0.10729331 1 26754560 0 34 0 0
3.3943663 -0.58897918 -0.10740656 1 26754560 0 34 0 0
3.3943965 -0.61046243 -0.10752392 1 26754560 0 34 0 0
3.3944278 -0.63199377 -0.10764581 1 26754560 0 34 0 0
3.39446 -0.65357506 -0.10777193 1 26754560 0 34 0 0
3.3944936 -0.67520612 -0.10790253 1 26754560 0 34 0 0
3.3945282 -0.6968922 -0.10803753 1 26754560 0 34 0 0
3.3945639 -0.71863401 -0.10817683 1 26754560 0 34 0 0
3.3946011 -0.74043298 -0.10832071 1 26754560 0 34 0 0
3.3946393 -0.76229131 -0.10846931 1 26754560 0 34 0 0
3.3946784 -0.78421026 -0.10862225 1 26754560 0 34 0 0
3.3947189 -0.80619264 -0.10877985 1 26754560 0 34 0 0
3.4051235 0.31429204 -0.14930302 1 14754304 0 35 0 0
3.4051025 0.29323027 -0.14922023 1 14754304 0 35 0 0
3.4050827 0.27219105 -0.14914346 1 14754304 0 35 0 0
3.4050643 0.25117275 -0.14907211 1 14754304 0 35 0 0
3.4050474 0.23017395 -0.14900684 1 14754304 0 35 0 0
3.4050322 0.20919284 -0.14894724 1 14754304 0 35 0 0
3.4050183 0.18822773 -0.1488933 1 14754304 0 35 0 0
3.4050059 0.16727713 -0.14884508 1 14754304 0 35 0 0
3.404995 0.14633937 -0.14880252 1 14754304 0 35 0 0
3.4049857 0.12541284 -0.14876574 1 14754304 0 35 0 0
3.4049776 0.10449588 -0.14873463 1 14754304 0 35 0 0
3.4049709 0.083586976 -0.14870912 1 14754304 0 35 0 0
3.4049661 0.062684551 -0.14868945 1 14754304 0 35 0 0
3.4049621 0.041786883 -0.14867514 1 14754304 0 35 0 0
3.4049599 0.020892343 -0.14866662 1 14754304 0 35 0 0
3.4049594 -5.5253503e-07 -0.14866388 1 14754304 0 35 0 0
3.4049599 -0.020893432 -0.14866668 1 14754304 0 35 0 0
3.4049621 -0.041787963 -0.14867514 1 26754560 0 35 0 0
3.4049656 -0.062685661 -0.14868927 1 26754560 0 35 0 0
3.4049709 -0.083586574 -0.14870912 1 26754560 0 35 0 0
3.4049776 -0.1044955 -0.14873451 1 26754560 0 35 0 0
3.4049857 -0.12541239 -0.1487658 1 26754560 0 35 0 0
3.404995 -0.14633889 -0.14880252 1 26754560 0 35 0 0
3.4050059 -0.16727667 -0.14884508 1 26754560 0 35 0 0
3.4050186 -0.18822724 -0.14889324 1 26754560 0 35 0 0
3.4050319 -0.20919237 -0.14894724 1 26754560 0 35 0 0
3.4050474 -0.23017348 -0.14900684 1 26754560 0 35 0 0
3.4050643 -0.25117233 -0.14907229 1 26754560 0 35 0 0
3.4050827 -0.27219057 -0.14914334 1 26754560 0 35 0 0
3.4051025 -0.2932297 -0.14922023 1 26754560 0 35 0 0
3.4051235 -0.31429154 -0.14930284 1 26754560 0 35 0 0
3.4051464 -0.33537763 -0.14939141 1 26754560 0 35 0 0
3.4051704 -0.35648957 -0.14948541 1 26754560 0 35 0 0
3.4051962 -0.37762922 -0.1495856 1 26754560 0 35 0 0
3.4052234 -0.39879811 -0.14969134 1 26754560 0 35 0 0
3.405252 -0.41999802 -0.14980328 1 26754560 0 35 0 0
3.4052823 -0.44123051 -0.14992082 1 26754560 0 35 0 0
3.405314 -0.4624975 -0.1500445 1 26754560 0 35 0 0
3.4053471 -0.4838005 -0.15017396 1 26754560 0 35 0 0
3.4053817 -0.5051412 -0.15030915 1 26754560 0 35 0 0
3.4054179 -0.52652133 -0.15045041 1 26754560 0 35 0 0
3.4054558 -0.54794323 -0.15059787 1 26754560 0 35 0 0
3.4054952 -0.56940782 -0.15075129 1 26754560 0 35 0 0
3.4055362 -0.59091729 -0.15091074 1 26754560 0 35 0 0
3.4055789 -0.61247349 -0.15107638 1 26754560 0 35 0 0
3.4056227 -0.63407803 -0.15124804 1 26754560 0 35 0 0
3.4056685 -0.65573299 -0.15142596 1 26754560 0 35 0 0
3.4057159 -0.6774385 -0.15161008 1 26754560 0 35 0 0
3.4057646 -0.6991992 -0.15180027 1 26754560 0 35 0 0
3.4058151 -0.72101605 -0.15199691 1 26754560 0 35 0 0
3.4058669 -0.74289036 -0.15219957 1 26754560 0 35 0 0
3.405921 -0.76482469 -0.15240902 1 26754560 0 35 0 0
3.4163187 0.35765702 -0.19290483 1 14754304 0 36 0 0
3.4162872 0.33647513 -0.19278282 1 14754304 0 36 0 0
3.4162579 0.31531963 -0.1926685 1 14754304 0 36 0 0
3.4162304 0.29418844 -0.19256145 1 14754304 0 36 0 0
3.4162047 0.27307999 -0.19246197 1 14754304 0 36 0 0
3.4161813 0.25199279 -0.19237 1 14754304 0 36 0 0
3.4161596 0.23092516 -0.19228554 1 14754304 0 36 0 0
3.4161398 0.20987524 -0.19220829 1 14754304 0 36 0 0
3.4161217 0.18884155 -0.19213843 1 14754304 0 36 0 0
3.4161055 0.16782247 -0.19207591 1 14754304 0 36 0 0
3.4160914 0.1468163 -0.19202089 1 14754304 0 36 0 0
3.4160793 0.1258215 -0.19197321 1 14754304 0 36 0 0
3.416069 0.10483627 -0.19193262 1 14754304 0 36 0 0
3.4160604 0.083859235 -0.1918999 1 14754304 0 36 0 0
3.4160538 0.062888615 -0.19187409 1 14754304 0 36 0 0
3.416049 0.041922834 -0.19185579 1 14754304 0 36 0 0
3.4160464 0.020960325 -0.19184494 1 14754304 0 36 0 0
3.4160454 -5.6028364e-07 -0.19184113 1 14754304 0 36 0 0
3.4160464 -0.020961471 -0.19184488 1 14754304 0 36 0 0
3.416049 -0.041924022 -0.19185579 1 26754560 0 36 0 0
3.416054 -0.062889747 -0.19187409 1 26754560 0 36 0 0
3.4160607 -0.083858795 -0.19189984 1 26754560 0 36 0 0
3.416069 -0.10483582 -0.1919328 1 26754560 0 36 0 0
3.4160793 -0.12582098 -0.19197297 1 26754560 0 36 0 0
3.4160914 -0.14681579 -0.19202071 1 26754560 0 36 0 0
3.416106 -0.16782199 -0.19207591 1 26754560 0 36 0 0
3.4161217 -0.18884107 -0.19213825 1 26754560 0 36 0 0
3.4161398 -0.20987466 -0.19220805 1 26754560 0 36 0 0
3.4161596 -0.23092458 -0.19228542 1 26754560 0 36 0 0
3.4161813 -0.25199232 -0.19236994 1 26754560 0 36 0 0
3.4162047 -0.27307954 -0.19246197 1 26754560 0 36 0 0
3.4162304 -0.29418814 -0.19256157 1 26754560 0 36 0 0
3.4162579 -0.31531924 -0.19266856 1 26754560 0 36 0 0
3.4162872 -0.33647484 -0.192783 1 26754560 0 36 0 0
3.4163187 -0.35765666 -0.19290489 1 26754560 0 36 0 0
3.4163518 -0.37886637 -0.19303459 1 26754560 0 36 0 0
3.4163868 -0.40010551 -0.1931715 1 26754560 0 36 0 0
3.4164243 -0.42137599 -0.19331628 1 26754560 0 36 0 0
3.4164631 -0.44267929 -0.19346851 1 26754560 0 36 0 0
3.4165044 -0.46401727 -0.19362843 1 26754560 0 36 0 0
3.4165475 -0.48539162 -0.19379592 1 26754560 0 36 0 0
3.4165924 -0.50680399 -0.19397128 1 26754560 0 36 0 0
3.4166393 -0.52825642 -0.19415438 1 26754560 0 36 0 0
3.4166882 -0.54975039 -0.19434512 1 26754560 0 36 0 0
3.4167392 -0.57128793 -0.19454378 1 26754560 0 36 0 0
3.4167926 -0.59287047 -0.19475025 1 26754560 0 36 0 0
3.4168475 -0.61450005 -0.19496459 1 26754560 0 36 0 0
3.4169044 -0.63617867 -0.19518703 1 26754560 0 36 0 0
3.4169638 -0.65790784 -0.19541752 1 26754560 0 36 0 0
3.4170249 -0.67968792 -0.19565558 1 26754560 0 36 0 0
3.4170883 -0.70152402 -0.19590211 1 26754560 0 36 0 0
3.4171536 -0.72341633 -0.19615662 1 26754560 0 36 0 0
3.4275558 0.35883361 -0.23667103 1 14754304 0 37 0 0
3.4275169 0.33758137 -0.23652089 1 14754304 0 37 0 0
3.4274809 0.31635544 -0.2363798 1 14754304 0 37 0 0
3.4274471 0.29515439 -0.23624825 1 14754304 0 37 0 0
3.4274156 0.27397627 -0.23612571 1 14754304 0 37 0 0
3.4273863 0.25281933 -0.23601246 1 14754304 0 37 0 0
3.4273598 0.2316823 -0.23590845 1 14754304 0 37 0 0
3.4273355 0.21056302 -0.23581338 1 14754304 0 37 0 0
3.4273136 0.18946017 -0.23572743 1 14754304 0 37 0 0
3.4272935 0.16837212 -0.23565066 1 14754304 0 37 0 0
3.4272766 0.14729694 -0.23558265 1 14754304 0 37 0 0
3.4272614 0.12623334 -0.23552418 1 14754304 0 37 0 0
3.4272482 0.10517932 -0.23547423 1 14754304 0 37 0 0
3.4272377 0.084133595 -0.23543382 1 14754304 0 37 0 0
3.4272299 0.063094459 -0.23540223 1 14754304 0 37 0 0
3.4272239 0.042060044 -0.23537964 1 14754304 0 37 0 0
3.4272203 0.021028833 -0.23536599 1 14754304 0 37 0 0
3.4272194 -5.9366226e-07 -0.23536158 1 14754304 0 37 0 0
3.4272206 -0.021030078 -0.23536617 1 14754304 0 37 0 0
3.4272244 -0.042061213 -0.23537976 1 26754560 0 37 0 0
3.4272301 -0.06309551 -0.23540223 1 26754560 0 37 0 0
3.427238 -0.084133193 -0.23543376 1 26754560 0 37 0 0
3.4272485 -0.10517894 -0.23547441 1 26754560 0 37 0 0
3.4272614 -0.12623282 -0.23552406 1 26754560 0 37 0 0
3.4272761 -0.14729646 -0.23558289 1 26754560 0 37 0 0
3.4272935 -0.1683716 -0.23565048 1 26754560 0 37 0 0
3.4273136 -0.18945964 -0.23572731 1 26754560 0 37 0 0
3.4273355 -0.21056254 -0.23581326 1 26754560 0 37 0 0
3.4273598 -0.23168175 -0.23590827 1 26754560 0 37 0 0
3.4273868 -0.25281897 -0.23601252 1 26754560 0 37 0 0
3.4274156 -0.2739757 -0.23612571 1 26754560 0 37 0 0
3.4274471 -0.29515395 -0.23624825 1 26754560 0 37 0 0
3.4274809 -0.31635514 -0.23638004 1 26754560 0 37 0 0
3.4275169 -0.33758086 -0.23652095 1 26754560 0 37 0 0
3.4275558 -0.3588331 -0.23667109 1 26754560 0 37 0 0
3.4275966 -0.38011336 -0.23683047 1 26754560 0 37 0 0
3.42764 -0.40142351 -0.23699939 1 26754560 0 37 0 0
3.4276857 -0.42276499 -0.23717719 1 26754560 0 37 0 0
3.4277339 -0.44413969 -0.23736459 1 26754560 0 37 0 0
3.4277847 -0.46554935 -0.2375614 1 26754560 0 37 0 0
3.4278374 -0.48699549 -0.23776782 1 26754560 0 37 0 0
3.4278929 -0.50848037 -0.23798358 1 26754560 0 37 0 0
3.4279506 -0.53000528 -0.23820895 1 26754560 0 37 0 0
3.4280112 -0.55157226 -0.23844391 1 26754560 0 37 0 0
3.4280736 -0.57318306 -0.23868847 1 26754560 0 37 0 0
3.428139 -0.59483933 -0.23894233 1 26754560 0 37 0 0
3.4282067 -0.61654282 -0.23920631 1 26754560 0 37 0 0
3.4282768 -0.63829583 -0.23948008 1 26754560 0 37 0 0
3.4283497 -0.6601001 -0.23976356 1 26754560 0 37 0 0
3.4387975 0.31740004 -0.28045529 1 14754304 0 38 0 0
3.4387572 0.29612824 -0.28029853 1 14754304 0 38 0 0
3.4387197 0.27487972 -0.28015262 1 14754304 0 38 0 0
3.4386849 0.25365275 -0.28001779 1 14754304 0 38 0 0
3.4386532 0.23244564 -0.2798937 1 14754304 0 38 0 0
3.4386241 0.21125656 -0.27978057 1 14754304 0 38 0 0
3.4385982 0.19008394 -0.2796784 1 14754304 0 38 0 0
3.4385748 0.16892618 -0.27958697 1 14754304 0 38 0 0
3.438554 0.14778154 -0.27950627 1 14754304 0 38 0 0
3.4385359 0.1266485 -0.27943653 1 14754304 0 38 0 0
3.4385211 0.1055253 -0.2793774 1 14754304 0 38 0 0
3.4385085 0.084410265 -0.27932888 1 14754304 0 38 0 0
3.4384985 0.063301757 -0.27929121 1 14754304 0 38 0 0
3.4384921 0.042198308 -0.27926475 1 14754304 0 38 0 0
3.4384878 0.021098036 -0.27924842 1 14754304 0 38 0 0
3.4384863 -5.3733584e-07 -0.27924305 1 14754304 0 38 0 0
3.4384878 -0.021099187 -0.27924854 1 14754304 0 38 0 0
3.4384918 -0.04219944 -0.27926451 1 26754560 0 38 0 0
3.4384987 -0.063303009 -0.27929145 1 26754560 0 38 0 0
3.4385083 -0.084409818 -0.279329 1 26754560 0 38 0 0
3.4385207 -0.10552485 -0.27937728 1 26754560 0 38 0 0
3.4385359 -0.12664808 -0.27943653 1 26754560 0 38 0 0
3.438554 -0.14778109 -0.27950627 1 26754560 0 38 0 0
3.4385746 -0.16892576 -0.27958709 1 26754560 0 38 0 0
3.4385979 -0.1900835 -0.2796784 1 26754560 0 38 0 0
3.4386244 -0.21125609 -0.27978069 1 26754560 0 38 0 0
3.4386535 -0.23244531 -0.27989393 1 26754560 0 38 0 0
3.4386852 -0.25365236 -0.28001767 1 26754560 0 38 0 0
3.4387197 -0.27487934 -0.28015262 1 26754560 0 38 0 0
3.4387572 -0.29612789 -0.28029841 1 26754560 0 38 0 0
3.4387975 -0.31739965 -0.28045529 1 26754560 0 38 0 0
3.4388406 -0.33869621 -0.28062302 1 26754560 0 38 0 0
3.4388866 -0.36001942 -0.28080207 1 26754560 0 38 0 0
3.4389355 -0.38137081 -0.28099161 1 26754560 0 38 0 0
3.438987 -0.4027524 -0.28119272 1 26754560 0 38 0 0
3.4390414 -0.42416552 -0.28140455 1 26754560 0 38 0 0
3.4390988 -0.44561225 -0.28162771 1 26754560 0 38 0 0
3.4391589 -0.46709409 -0.28186184 1 26754560 0 38 0 0
3.4392221 -0.48861301 -0.28210729 1 26754560 0 38 0 0
3.4392877 -0.51017058 -0.28236419 1 26754560 0 38 0 0
3.4393566 -0.53176874 -0.28263241 1 26754560 0 38 0 0
3.4394283 -0.55340916 -0.28291196 1 26754560 0 38 0 0
3.4395032 -0.57509398 -0.28320318 1 26754560 0 38 0 0
3.4395809 -0.59682453 -0.28350574 1 26754560 0 38 0 0
3.4396615 -0.61860311 -0.28381997 1 26754560 0 38 0 0
3.4501216 0.27579129 -0.32456106 1 14754304 0 39 0 0
3.4500813 0.25449345 -0.32440418 1 14754304 0 39 0 0
3.4500449 0.23321564 -0.32426041 1 14754304 0 39 0 0
3.450011 0.2119561 -0.32412893 1 14754304 0 39 0 0
3.4499805 0.19071317 -0.32400995 1 14754304 0 39 0 0
3.4499533 0.16948512 -0.32390338 1 14754304 0 39 0 0
3.449929 0.14827047 -0.3238098 1 14754304 0 39 0 0
3.4499083 0.12706739 -0.32372862 1 14754304 0 39 0 0
3.4498906 0.10587425 -0.32365984 1 14754304 0 39 0 0
3.4498761 0.084689327 -0.32360333 1 14754304 0 39 0 0
3.4498646 0.063511036 -0.3235597 1 14754304 0 39 0 0
3.4498568 0.042337731 -0.32352847 1 14754304 0 39 0 0
3.4498522 0.021167798 -0.32350987 1 14754304 0 39 0 0
3.4498508 -5.8352947e-07 -0.32350391 1 14754304 0 39 0 0
3.4498522 -0.021168845 -0.32350987 1 14754304 0 39 0 0
3.4498568 -0.04233896 -0.32352847 1 26754560 0 39 0 0
3.4498646 -0.063512236 -0.32355994 1 26754560 0 39 0 0
3.4498761 -0.084688939 -0.32360357 1 26754560 0 39 0 0
3.4498904 -0.10587373 -0.32365972 1 26754560 0 39 0 0
3.449908 -0.12706688 -0.32372862 1 26754560 0 39 0 0
3.449929 -0.14827006 -0.3238098 1 26754560 0 39 0 0
3.4499533 -0.16948469 -0.32390362 1 26754560 0 39 0 0
3.4499805 -0.19071274 -0.32400972 1 26754560 0 39 0 0
3.450011 -0.21195555 -0.32412857 1 26754560 0 39 0 0
3.4500449 -0.23321514 -0.32426006 1 26754560 0 39 0 0
3.4500816 -0.25449297 -0.32440418 1 26754560 0 39 0 0
3.4501219 -0.27579078 -0.32456106 1 26754560 0 39 0 0
3.4501653 -0.29711026 -0.32473034 1 26754560 0 39 0 0
3.4502122 -0.31845316 -0.32491285 1 26754560 0 39 0 0
3.4502623 -0.33982116 -0.32510787 1 26754560 0 39 0 0
3.4503157 -0.36121592 -0.32531577 1 26754560 0 39 0 0
3.4503725 -0.38263926 -0.32553631 1 26754560 0 39 0 0
3.4504323 -0.40409282 -0.32576984 1 26754560 0 39 0 0
3.4504957 -0.4255783 -0.32601613 1 26754560 0 39 0 0
3.450562 -0.44709766 -0.32627529 1 26754560 0 39 0 0
3.4506319 -0.4686524 -0.32654756 1 26754560 0 39 0 0
3.4507053 -0.49024448 -0.32683331 1 26754560 0 39 0 0
3.4507821 -0.51187563 -0.32713181 1 26754560 0 39 0 0
3.4508619 -0.53354764 -0.32744342 1 26754560 0 39 0 0
3.4509456 -0.55526251 -0.32776862 1 26754560 0 39 0 0
3.4510324 -0.57702172 -0.32810682 1 26754560 0 39 0 0
3.461539 0.23399267 -0.3690266 1 14754304 0 40 0 0
3.4615002 0.21266206 -0.3688764 1 14754304 0 40 0 0
3.4614654 0.19134805 -0.36874074 1 14754304 0 40 0 0
3.4614341 0.17004921 -0.36861926 1 14754304 0 40 0 0
3.4614065 0.14876379 -0.36851186 1 14754304 0 40 0 0
3.4613826 0.12749004 -0.36841923 1 14754304 0 40 0 0
3.4613626 0.10622635 -0.36834067 1 14754304 0 40 0 0
3.4613461 0.084970914 -0.36827666 1 14754304 0 40 0 0
3.4613333 0.063722193 -0.36822671 1 14754304 0 40 0 0
3.461324 0.042478476 -0.36819106 1 14754304 0 40 0 0
3.4613185 0.021238022 -0.36816961 1 14754304 0 40 0 0
3.4613171 -6.2409788e-07 -0.36816281 1 14754304 0 40 0 0
3.4613185 -0.021239342 -0.36816972 1 14754304 0 40 0 0
3.461324 -0.042479753 -0.36819118 1 26754560 0 40 0 0
3.4613333 -0.063723423 -0.36822695 1 26754560 0 40 0 0
3.4613461 -0.084970519 -0.36827689 1 26754560 0 40 0 0
3.4613626 -0.10622591 -0.36834079 1 26754560 0 40 0 0
3.4613829 -0.12748972 -0.36841911 1 26754560 0 40 0 0
3.4614067 -0.14876339 -0.36851209 1 26754560 0 40 0 0
3.4614341 -0.17004874 -0.36861914 1 26754560 0 40 0 0
3.4614654 -0.19134766 -0.3687405 1 26754560 0 40 0 0
3.4615002 -0.21266143 -0.36887628 1 26754560 0 40 0 0
3.461539 -0.23399219 -0.36902648 1 26754560 0 40 0 0
3.461581 -0.25534123 -0.36919111 1 26754560 0 40 0 0
3.4616268 -0.27671045 -0.36936992 1 26754560 0 40 0 0
3.4616766 -0.29810157 -0.36956364 1 26754560 0 40 0 0
3.4617302 -0.3195163 -0.36977178 1 26754560 0 40 0 0
3.4617872 -0.34095627 -0.36999446 1 26754560 0 40 0 0
3.4618483 -0.36242327 -0.37023181 1 26754560 0 40 0 0
3.4619129 -0.38391897 -0.37048346 1 26754560 0 40 0 0
3.4619811 -0.40544525 -0.37075001 1 26754560 0 40 0 0
3.4620535 -0.42700389 -0.37103146 1 26754560 0 40 0 0
3.4621294 -0.44859645 -0.37132758 1 26754560 0 40 0 0
3.4622095 -0.4702248 -0.3716386 1 26754560 0 40 0 0
3.4622929 -0.49189079 -0.37196463 1 26754560 0 40 0 0
3.4623806 -0.51359612 -0.37230557 1 26754560 0 40 0 0
3.4730575 0.19198883 -0.41388983 1 14754304 0 41 0 0
3.4730225 0.17061855 -0.41375321 1 14754304 0 41 0 0
3.4729915 0.14926168 -0.41363257 1 14754304 0 41 0 0
3.4729648 0.12791659 -0.41352803 1 14754304 0 41 0 0
3.4729419 0.10658155 -0.41343945 1 14754304 0 41 0 0
3.4729235 0.085255094 -0.41336733 1 14754304 0 41 0 0
3.4729092 0.063935272 -0.4133113 1 14754304 0 41 0 0
3.4728992 0.042620596 -0.41327137 1 14754304 0 41 0 0
3.4728928 0.021309029 -0.41324729 1 14754304 0 41 0 0
3.4728909 -5.6069342e-07 -0.41323918 1 14754304 0 41 0 0
3.4728928 -0.021310331 -0.41324729 1 14754304 0 41 0 0
3.4728987 -0.042621747 -0.41327125 1 26754560 0 41 0 0
3.4729087 -0.063936621 -0.41331118 1 26754560 0 41 0 0
3.4729235 -0.085254803 -0.41336733 1 26754560 0 41 0 0
3.4729421 -0.10658128 -0.41343945 1 26754560 0 41 0 0
3.4729648 -0.12791619 -0.41352779 1 26754560 0 41 0 0
3.4729915 -0.14926131 -0.41363257 1 26754560 0 41 0 0
3.4730227 -0.17061816 -0.41375309 1 26754560 0 41 0 0
3.4730577 -0.19198839 -0.41388994 1 26754560 0 41 0 0
3.4730968 -0.21337394 -0.41404265 1 26754560 0 41 0 0
3.4731402 -0.23477642 -0.41421169 1 26754560 0 41 0 0
3.4731877 -0.25619745 -0.41439694 1 26754560 0 41 0 0
3.4732397 -0.27763879 -0.41459888 1 26754560 0 41 0 0
3.4732955 -0.2991021 -0.4148168 1 26754560 0 41 0 0
3.473356 -0.32058948 -0.41505116 1 26754560 0 41 0 0
3.4734204 -0.34210196 -0.41530198 1 26754560 0 41 0 0
3.4734886 -0.36364186 -0.41556889 1 26754560 0 41 0 0
3.4735613 -0.38521072 -0.41585249 1 26754560 0 41 0 0
3.4736385 -0.40681037 -0.41615266 1 26754560 0 41 0 0
3.4737201 -0.42844269 -0.41646975 1 26754560 0 41 0 0
3.4738054 -0.45010924 -0.4168033 1 26754560 0 41 0 0
3.4738955 -0.47181201 -0.41715366 1 26754560 0 41 0 0
3.484689 0.14976442 -0.45919126 1 14754304 0 42 0 0
3.484659 0.12834743 -0.45907515 1 14754304 0 42 0 0
3.4846339 0.10694042 -0.45897657 1 14754304 0 42 0 0
3.4846132 0.085542075 -0.45889634 1 14754304 0 42 0 0
3.4845974 0.064150505 -0.45883352 1 14754304 0 42 0 0
3.4845858 0.042764001 -0.45878893 1 14754304 0 42 0 0
3.4845791 0.021380819 -0.45876247 1 14754304 0 42 0 0
3.4845767 -5.9559937e-07 -0.45875341 1 14754304 0 42 0 0
3.4845791 -0.021381957 -0.45876235 1 14754304 0 42 0 0
3.4845858 -0.042765163 -0.45878893 1 26754560 0 42 0 0
3.484597 -0.064151742 -0.45883363 1 26754560 0 42 0 0
3.4846132 -0.085541725 -0.45889622 1 26754560 0 42 0 0
3.4846339 -0.10694014 -0.45897681 1 26754560 0 42 0 0
3.4846594 -0.12834699 -0.45907515 1 26754560 0 42 0 0
3.4846892 -0.14976402 -0.4591915 1 26754560 0 42 0 0
3.4847233 -0.17119284 -0.45932573 1 26754560 0 42 0 0
3.4847624 -0.19263546 -0.45947832 1 26754560 0 42 0 0
3.4848065 -0.21409324 -0.45964855 1 26754560 0 42 0 0
3.4848547 -0.23556815 -0.4598369 1 26754560 0 42 0 0
3.4849079 -0.25706196 -0.46004337 1 26754560 0 42 0 0
3.4849653 -0.27857608 -0.46026796 1 26754560 0 42 0 0
3.485028 -0.30011246 -0.46051091 1 26754560 0 42 0 0
3.4850948 -0.32167283 -0.46077174 1 26754560 0 42 0 0
3.4851665 -0.34325871 -0.46105093 1 26754560 0 42 0 0
3.4852431 -0.3648724 -0.46134871 1 26754560 0 42 0 0
3.4853239 -0.38651508 -0.46166438 1 26754560 0 42 0 0
3.4854097 -0.408189 -0.46199912 1 26754560 0 42 0 0
3.4855003 -0.42989561 -0.46235186 1 26754560 0 42 0 0
3.4964437 0.10730292 -0.50497288 1 14754304 0 43 0 0
3.4964211 0.08583203 -0.50488418 1 14754304 0 43 0 0
3.4964032 0.064367868 -0.50481492 1 14754304 0 43 0 0
3.4963906 0.042908829 -0.50476545 1 14754304 0 43 0 0
3.4963827 0.021453185 -0.50473589 1 14754304 0 43 0 0
3.4963803 -6.3240526e-07 -0.50472599 1 14754304 0 43 0 0
3.496383 -0.021454453 -0.50473601 1 14754304 0 43 0 0
3.4963906 -0.042910069 -0.50476545 1 26754560 0 43 0 0
3.4964032 -0.064368978 -0.50481528 1 26754560 0 43 0 0
3.4964209 -0.085831515 -0.50488406 1 26754560 0 43 0 0
3.4964437 -0.10730247 -0.50497299 1 26754560 0 43 0 0
3.4964719 -0.12878197 -0.50508159 1 26754560 0 43 0 0
3.4965045 -0.15027171 -0.50520998 1 26754560 0 43 0 0
3.4965427 -0.17177339 -0.5053584 1 26754560 0 43 0 0
3.4965858 -0.19328901 -0.5055266 1 26754560 0 43 0 0
3.4966342 -0.21481986 -0.50571424 1 26754560 0 43 0 0
3.4966877 -0.23636802 -0.5059225 1 26754560 0 43 0 0
3.4967461 -0.25793514 -0.50615054 1 26754560 0 43 0 0
3.49681 -0.27952281 -0.50639814 1 26754560 0 43 0 0
3.4968786 -0.30113298 -0.5066666 1 26754560 0 43 0 0
3.4969525 -0.32276726 -0.50695437 1 26754560 0 43 0 0
3.4970317 -0.34442753 -0.50726324 1 26754560 0 43 0 0
3.4971161 -0.36611542 -0.50759155 1 26754560 0 43 0 0
3.508332 0.064587399 -0.55127591 1 14754304 0 44 0 0
3.5083184 0.04305518 -0.55122167 1 14754304 0 44 0 0
3.5083098 0.021526422 -0.55118948 1 14754304 0 44 0 0
3.5083072 -6.6250561e-07 -0.55117887 1 14754304 0 44 0 0
3.5083098 -0.021527702 -0.55118948 1 14754304 0 44 0 0
3.5083184 -0.043056525 -0.55122191 1 26754560 0 44 0 0
3.5083325 -0.064588733 -0.55127639 1 26754560 0 44 0 0
3.508352 -0.08612442 -0.55135196 1 26754560 0 44 0 0
3.5083771 -0.10766872 -0.55144924 1 26754560 0 44 0 0
3.5084076 -0.1292216 -0.55156833 1 26754560 0 44 0 0
3.5084438 -0.15078491 -0.55170923 1 26754560 0 44 0 0
3.5084853 -0.17236035 -0.5518716 1 26754560 0 44 0 0
3.5085325 -0.19394951 -0.5520559 1 26754560 0 44 0 0
3.5085855 -0.21555421 -0.55226189 1 26754560 0 44 0 0
3.5086441 -0.23717622 -0.5524897 1 26754560 0 44 0 0
3.508708 -0.25881743 -0.55273944 1 26754560 0 44 0 0
3.5087781 -0.28047946 -0.55301112 1 26754560 0 44 0 0
3.5088534 -0.30216405 -0.55330485 1 26754560 0 44 0 0
3.5089345 -0.3238731 -0.55362064 1 26754560 0 44 0 0
3.5203631 -6.5624715e-07 -0.59813362 1 14754304 0 45 0 0
3.5203664 -0.021601707 -0.59814578 1 14754304 0 45 0 0
3.5203755 -0.043204494 -0.59818095 1 26754560 0 45 0 0
3.5203905 -0.064810716 -0.59823984 1 26754560 0 45 0 0
3.520412 -0.086420439 -0.59832233 1 26754560 0 45 0 0
3.5204391 -0.10803884 -0.59842831 1 26754560 0 45 0 0
3.5204723 -0.12966597 -0.59855813 1 26754560 0 45 0 0
3.5205114 -0.15130366 -0.59871119 1 26754560 0 45 0 0
3.5205569 -0.17295349 -0.59888822 1 26754560 0 45 0 0
3.5206084 -0.1946172 -0.59908885 1 26754560 0 45 0 0
3.5206661 -0.2162966 -0.59931296 1 26754560 0 45 0 0
3.5207298 -0.23799351 -0.59956104 1 26754560 0 45 0 0
3.5207999 -0.25970948 -0.59983343 1 26754560 0 45 0 0
3.5208757 -0.28144652 -0.60012907 1 26754560 0 45 0 0
3.5325673 -0.043354034 -0.64566523 1 26754560 0 46 0 0
3.532584 -0.065035172 -0.64572912 1 26754560 0 46 0 0
3.5326068 -0.086719804 -0.64581841 1 26754560 0 46 0 0
3.5326359 -0.10841305 -0.64593321 1 26754560 0 46 0 0
3.5326719 -0.13011535 -0.64607364 1 26754560 0 46 0 0
3.5327148 -0.15182798 -0.64623958 1 26754560 0 46 0 0
3.532764 -0.17355318 -0.64643115 1 26754560 0 46 0 0
3.5328197 -0.19529216 -0.64664847 1 26754560 0 46 0 0
3.532882 -0.21704704 -0.64689153 1 26754560 0 46 0 0
