# .PCD v0.7 - Point Cloud Data file format
VERSION 0.7
FIELDS x y z intensity t reflectivity ring noise range
SIZE 4 4 4 4 4 2 2 2 4
TYPE F F F F U U U U U
COUNT 1 1 1 1 1 1 1 1 1
WIDTH 701
HEIGHT 1
VIEWPOINT 0 0 0 1 0 0 0
POINTS 701
DATA ascii
4.0490298 -0.80540138 0.23184341 1 2667068928 0 27 0 0
4.0537243 -0.83222443 0.23240018 1 2667068928 0 27 0 0
4.0087013 -0.64500624 0.1772747 1 2667068928 0 28 0 0
4.013216 -0.67102051 0.17765343 1 2667068928 0 28 0 0
4.0177517 -0.69714707 0.17804009 1 2667068928 0 28 0 0
4.0223088 -0.72338897 0.17843544 1 2667068928 0 28 0 0
4.0268884 -0.74974877 0.17883927 1 2667068928 0 28 0 0
4.0314898 -0.77622962 0.17925161 1 2667068928 0 28 0 0
4.0361147 -0.80283248 0.17967296 1 2667068928 0 28 0 0
4.0407634 -0.82956356 0.18010306 1 2667068928 0 28 0 0
4.0454364 -0.85642475 0.18054211 1 2667068928 0 28 0 0
3.9697011 -0.48961616 0.12469989 1 2667068928 0 29 0 0
3.9740617 -0.51492852 0.12493378 1 2667068928 0 29 0 0
3.9784398 -0.54033738 0.12517339 1 2667068928 0 29 0 0
3.9828365 -0.56584477 0.12541854 1 2667068928 0 29 0 0
3.9872513 -0.59145343 0.12566948 1 2667068928 0 29 0 0
3.9916852 -0.61716574 0.12592602 1 2667068928 0 29 0 0
3.9961388 -0.64298469 0.12618858 1 2667068928 0 29 0 0
4.0006127 -0.66891289 0.12645721 1 2667068928 0 29 0 0
4.0051064 -0.69495279 0.12673169 1 2667068928 0 29 0 0
4.0096211 -0.72110701 0.12701213 1 2667068928 0 29 0 0
4.0141578 -0.74737865 0.12729877 1 2667068928 0 29 0 0
4.0187159 -0.77377045 0.12759155 1 2667068928 0 29 0 0
4.0232959 -0.80028224 0.12789029 1 2667068928 0 29 0 0
4.0278988 -0.82692242 0.12819541 1 2667068928 0 29 0 0
4.032526 -0.85369164 0.12850708 1 2667068928 0 29 0 0
4.0371766 -0.88059217 0.12882489 1 2667068928 0 29 0 0
3.9276288 -0.31396124 0.073689401 1 2667068928 0 30 0 0
3.9318447 -0.33859009 0.073806047 1 2667068928 0 30 0 0
3.9360754 -0.36329827 0.073925853 1 2667068928 0 30 0 0
3.9403203 -0.38808772 0.074048877 1 2667068928 0 30 0 0
3.9445806 -0.41296095 0.074175417 1 2667068928 0 30 0 0
3.9488561 -0.43791997 0.07430476 1 2667068928 0 30 0 0
3.9531474 -0.46296749 0.074437618 1 2667068928 0 30 0 0
3.9574552 -0.48810592 0.074573874 1 2667068928 0 30 0 0
3.9617794 -0.51333719 0.07471329 1 2667068928 0 30 0 0
3.9661205 -0.53866392 0.074855924 1 2667068928 0 30 0 0
3.9704792 -0.56408918 0.075002193 1 2667068928 0 30 0 0
3.9748559 -0.58961463 0.075151742 1 2667068928 0 30 0 0
3.9792507 -0.61524338 0.075304687 1 2667068928 0 30 0 0
3.9836645 -0.64097786 0.075461268 1 2667068928 0 30 0 0
3.9880977 -0.66682059 0.075621367 1 2667068928 0 30 0 0
3.9925504 -0.69277418 0.075784981 1 2667068928 0 30 0 0
3.9970236 -0.71884125 0.075952232 1 2667068928 0 30 0 0
4.0015168 -0.74502486 0.07612288 1 2667068928 0 30 0 0
4.006032 -0.77132785 0.076297522 1 2667068928 0 30 0 0
4.0105681 -0.79775053 0.07647568 1 2667068928 0 30 0 0
4.0151267 -0.82430029 0.076657474 1 2667068928 0 30 0 0
4.0197077 -0.85097808 0.076843262 1 2667068928 0 30 0 0
4.024312 -0.87778634 0.077032804 1 2667068928 0 30 0 0
3.8908553 -0.16722018 0.024275482 1 2667068928 0 31 0 0
3.8949661 -0.19134694 0.024308145 1 2667068928 0 31 0 0
3.8990881 -0.21553916 0.024341464 1 2667068928 0 31 0 0
3.9032223 -0.23979938 0.024376214 1 2667068928 0 31 0 0
3.9073682 -0.26412916 0.024411678 1 2667068928 0 31 0 0
3.9115267 -0.28853133 0.024448276 1 2667068928 0 31 0 0
3.9156981 -0.31300747 0.024485886 1 2667068928 0 31 0 0
3.9198823 -0.33755988 0.02452451 1 2667068928 0 31 0 0
3.9240806 -0.36219105 0.024564207 1 2667068928 0 31 0 0
3.928293 -0.38690311 0.024605036 1 2667068928 0 31 0 0
3.9325197 -0.4116981 0.024646759 1 2667068928 0 31 0 0
3.9367614 -0.43657893 0.024689853 1 2667068928 0 31 0 0
3.9410179 -0.46154711 0.024733722 1 2667068928 0 31 0 0
3.9452901 -0.4866055 0.024778903 1 2667068928 0 31 0 0
3.949578 -0.51175636 0.024825037 1 2667068928 0 31 0 0
3.9538829 -0.53700197 0.024872184 1 2667068928 0 31 0 0
3.9582043 -0.56234509 0.024920702 1 2667068928 0 31 0 0
3.962543 -0.58778822 0.024970293 1 2667068928 0 31 0 0
3.9668994 -0.61333358 0.025020957 1 2667068928 0 31 0 0
3.9712737 -0.63898396 0.025072813 1 2667068928 0 31 0 0
3.9756668 -0.66474205 0.025125921 1 2667068928 0 31 0 0
3.9800789 -0.69061011 0.025180101 1 2667068928 0 31 0 0
3.9845104 -0.71659094 0.025235415 1 2667068928 0 31 0 0
3.9889619 -0.74268746 0.025292099 1 2667068928 0 31 0 0
3.9934337 -0.76890236 0.025349736 1 2667068928 0 31 0 0
3.9979262 -0.79523611 0.025408745 1 2667068928 0 31 0 0
4.0024405 -0.82169622 0.025469065 1 2667068928 0 31 0 0
4.0069761 -0.84828293 0.025530696 1 2667068928 0 31 0 0
4.0115347 -0.87499952 0.0255934 1 2667068928 0 31 0 0
4.0161161 -0.90184867 0.025657475 1 2667068928 0 31 0 0
3.854887 -0.023654362 -0.024029732 1 2655068672 0 32 0 0
3.858912 -0.04735921 -0.024056256 1 2667068928 0 32 0 0
3.8629456 -0.071117088 -0.024083495 1 2667068928 0 32 0 0
3.8669882 -0.094928347 -0.024111807 1 2667068928 0 32 0 0
3.8710403 -0.11879846 -0.024141192 1 2667068928 0 32 0 0
3.8751025 -0.14272761 -0.024171591 1 2667068928 0 32 0 0
3.8791749 -0.16671816 -0.024202824 1 2667068928 0 32 0 0
3.8832576 -0.19077177 -0.02423507 1 2667068928 0 32 0 0
3.8873513 -0.21489036 -0.024268568 1 2667068928 0 32 0 0
3.8914561 -0.23907655 -0.024302781 1 2667068928 0 32 0 0
3.8955727 -0.26333186 -0.024338067 1 2667068928 0 32 0 0
3.8997011 -0.28765896 -0.024374485 1 2667068928 0 32 0 0
3.9038417 -0.31205967 -0.024411857 1 2667068928 0 32 0 0
3.907995 -0.33653614 -0.024450243 1 2667068928 0 32 0 0
3.9121611 -0.36109099 -0.024489701 1 2667068928 0 32 0 0
3.9163408 -0.38572577 -0.024530292 1 2667068928 0 32 0 0
3.9205344 -0.41044345 -0.024571836 1 2667068928 0 32 0 0
3.924742 -0.43524599 -0.024614513 1 2667068928 0 32 0 0
3.9289641 -0.46013549 -0.024658203 1 2667068928 0 32 0 0
3.9332016 -0.48511446 -0.024703085 1 2667068928 0 32 0 0
3.9374542 -0.51018524 -0.024749041 1 2667068928 0 32 0 0
3.9417224 -0.5353505 -0.024796009 1 2667068928 0 32 0 0
3.946007 -0.56061232 -0.02484405 1 2667068928 0 32 0 0
3.9503081 -0.58597332 -0.024893463 1 2667068928 0 32 0 0
3.9546261 -0.61143613 -0.024943769 1 2667068928 0 32 0 0
3.9589617 -0.63700277 -0.024995387 1 2667068928 0 32 0 0
3.963315 -0.66267693 -0.025047839 1 2667068928 0 32 0 0
3.9676867 -0.68845993 -0.025101721 1 2667068928 0 32 0 0
3.9720771 -0.71435499 -0.025156796 1 2667068928 0 32 0 0
3.9764869 -0.74036491 -0.025212884 1 2667068928 0 32 0 0
3.9809167 -0.76649219 -0.025270462 1 2667068928 0 32 0 0
3.9853659 -0.79273778 -0.025329173 1 2667068928 0 32 0 0
3.9898362 -0.81910855 -0.025389016 1 2667068928 0 32 0 0
3.9943273 -0.84560531 -0.025449991 1 2667068928 0 32 0 0
3.9988403 -0.87223065 -0.025512397 1 2667068928 0 32 0 0
4.0033755 -0.89898765 -0.025576115 1 2667068928 0 32 0 0
4.0079331 -0.92587942 -0.025641143 1 2667068928 0 32 0 0
3.8195837 0.11721981 -0.071467996 1 2655068672 0 33 0 0
3.8235412 0.09386228 -0.071529925 1 2655068672 0 33 0 0
3.8275049 0.070463322 -0.071594656 1 2655068672 0 33 0 0
3.8314755 0.047021084 -0.071662128 1 2655068672 0 33 0 0
3.8354528 0.023533577 -0.07173264 1 2655068672 0 33 0 0
3.8394375 -7.7724457e-07 -0.071805835 1 2655068672 0 33 0 0
3.8434298 -0.023584118 -0.071881831 1 2655068672 0 33 0 0
3.8474302 -0.047218326 -0.071960747 1 2667068928 0 33 0 0
3.8514388 -0.070905171 -0.072042406 1 2667068928 0 33 0 0
3.8554556 -0.094645105 -0.072127104 1 2667068928 0 33 0 0
3.859482 -0.11844369 -0.072214603 1 2667068928 0 33 0 0
3.8635173 -0.14230093 -0.072305024 1 2667068928 0 33 0 0
3.8675625 -0.16621904 -0.072398484 1 2667068928 0 33 0 0
3.8716176 -0.19019975 -0.072494984 1 2667068928 0 33 0 0
3.8756833 -0.21424526 -0.072594345 1 2667068928 0 33 0 0
3.8797591 -0.23835771 -0.072696567 1 2667068928 0 33 0 0
3.8838463 -0.26253912 -0.072802007 1 2667068928 0 33 0 0
3.8879449 -0.28679159 -0.072910309 1 2667068928 0 33 0 0
3.892055 -0.31111744 -0.073021889 1 2667068928 0 33 0 0
3.8961771 -0.33551836 -0.073136449 1 2667068928 0 33 0 0
3.9003117 -0.35999721 -0.073254168 1 2667068928 0 33 0 0
3.9044592 -0.38455561 -0.073375046 1 2667068928 0 33 0 0
3.9086199 -0.40919608 -0.073499024 1 2667068928 0 33 0 0
3.9127941 -0.4339208 -0.07362628 1 2667068928 0 33 0 0
3.9169824 -0.45873198 -0.073756635 1 2667068928 0 33 0 0
3.921185 -0.48363253 -0.07389009 1 2667068928 0 33 0 0
3.9254022 -0.5086239 -0.074026942 1 2667068928 0 33 0 0
3.9296346 -0.53370881 -0.074167252 1 2667068928 0 33 0 0
3.9338827 -0.55888993 -0.07431078 1 2667068928 0 33 0 0
3.9381466 -0.58416927 -0.074457824 1 2667068928 0 33 0 0
3.9424267 -0.60954982 -0.074608028 1 2667068928 0 33 0 0
3.9467239 -0.63503397 -0.074761689 1 2667068928 0 33 0 0
3.9510381 -0.66062397 -0.074918687 1 2667068928 0 33 0 0
3.9553697 -0.68632287 -0.075079143 1 2667068928 0 33 0 0
3.9597197 -0.71213239 -0.075243294 1 2667068928 0 33 0 0
3.9640884 -0.7380563 -0.075410962 1 2667068928 0 33 0 0
3.9684758 -0.76409703 -0.075582206 1 2667068928 0 33 0 0
3.9728823 -0.79025447 -0.075757146 1 2667068928 0 33 0 0
3.9773092 -0.81653655 -0.075935602 1 2667068928 0 33 0 0
3.9817562 -0.84294373 -0.076117873 1 2667068928 0 33 0 0
3.9862242 -0.86947846 -0.07630372 1 2667068928 0 33 0 0
3.9907134 -0.89614391 -0.076493561 1 2667068928 0 33 0 0
3.9952247 -0.92294347 -0.076687038 1 2667068928 0 33 0 0
3.9997582 -0.94988012 -0.076884568 1 2667068928 0 33 0 0
3.7965496 0.18651247 -0.11850661 1 2655068672 0 34 0 0
3.8004696 0.16333604 -0.11859554 1 2655068672 0 34 0 0
3.8043947 0.14012393 -0.11868888 1 2655068672 0 34 0 0
3.8083251 0.11687435 -0.11878693 1 2655068672 0 34 0 0
3.8122609 0.093585216 -0.11888939 1 2655068672 0 34 0 0
3.8162026 0.070255265 -0.1189968 1 2655068672 0 34 0 0
3.8201506 0.046882086 -0.11910868 1 2655068672 0 34 0 0
3.824105 0.023464169 -0.11922532 1 2655068672 0 34 0 0
3.8280668 -7.5340267e-07 -0.11934656 1 2655068672 0 34 0 0
3.8320355 -0.02351401 -0.11947262 1 2655068672 0 34 0 0
3.8360112 -0.047078118 -0.11960316 1 2667068928 0 34 0 0
3.8399949 -0.070694484 -0.1197387 1 2667068928 0 34 0 0
3.8439865 -0.09436366 -0.11987895 1 2667068928 0 34 0 0
3.8479869 -0.11809104 -0.12002403 1 2667068928 0 34 0 0
3.8519959 -0.1418767 -0.12017399 1 2667068928 0 34 0 0
3.8560143 -0.16572273 -0.1203289 1 2667068928 0 34 0 0
3.8600421 -0.18963099 -0.12048852 1 2667068928 0 34 0 0
3.8640792 -0.21360372 -0.12065327 1 2667068928 0 34 0 0
3.8681266 -0.23764306 -0.12082285 1 2667068928 0 34 0 0
3.872185 -0.26175082 -0.12099755 1 2667068928 0 34 0 0
3.8762536 -0.2859292 -0.12117726 1 2667068928 0 34 0 0
3.8803337 -0.31018052 -0.12136179 1 2667068928 0 34 0 0
3.8844252 -0.33450648 -0.12155169 1 2667068928 0 34 0 0
3.8885286 -0.35890973 -0.12174672 1 2667068928 0 34 0 0
3.8926439 -0.38339186 -0.12194705 1 2667068928 0 34 0 0
3.8967721 -0.40795574 -0.12215251 1 2667068928 0 34 0 0
3.9009132 -0.43260336 -0.12236309 1 2667068928 0 34 0 0
3.9050677 -0.45733663 -0.12257916 1 2667068928 0 34 0 0
3.9092357 -0.48215845 -0.12280059 1 2667068928 0 34 0 0
3.9134183 -0.50707096 -0.12302738 1 2667068928 0 34 0 0
3.9176152 -0.53207636 -0.1232596 1 2667068928 0 34 0 0
3.9218271 -0.55717725 -0.12349743 1 2667068928 0 34 0 0
3.926054 -0.58237576 -0.12374061 1 2667068928 0 34 0 0
3.9302969 -0.60767442 -0.12398964 1 2667068928 0 34 0 0
3.9345558 -0.63307631 -0.12424415 1 2667068928 0 34 0 0
3.9388311 -0.6585831 -0.12450451 1 2667068928 0 34 0 0
3.9431233 -0.68419784 -0.12477046 1 2667068928 0 34 0 0
3.947433 -0.70992303 -0.12504226 1 2667068928 0 34 0 0
3.9517608 -0.7357614 -0.12532008 1 2667068928 0 34 0 0
3.9561067 -0.76171553 -0.12560374 1 2667068928 0 34 0 0
3.9604712 -0.78778577 -0.12589341 1 2667068928 0 34 0 0
3.9648547 -0.81397957 -0.12618923 1 2667068928 0 34 0 0
3.9692581 -0.84029758 -0.12649113 1 2667068928 0 34 0 0
3.9736814 -0.86674267 -0.12679917 1 2667068928 0 34 0 0
3.9781256 -0.89331746 -0.12711352 1 2667068928 0 34 0 0
3.9825909 -0.92002505 -0.12743407 1 2667068928 0 34 0 0
3.9870775 -0.94686872 -0.12776119 1 2667068928 0 34 0 0
3.9915862 -0.97385085 -0.12809473 1 2667068928 0 34 0 0
3.7854092 0.18596508 -0.16547382 1 2655068672 0 35 0 0
3.7893093 0.1628564 -0.1655975 1 2655068672 0 35 0 0
3.7932141 0.13971213 -0.16572756 1 2655068672 0 35 0 0
3.7971237 0.11653046 -0.16586411 1 2655068672 0 35 0 0
3.8010385 0.093309797 -0.16600692 1 2655068672 0 35 0 0
3.8049583 0.070048325 -0.16615617 1 2655068672 0 35 0 0
3.8088841 0.046743855 -0.16631198 1 2655068672 0 35 0 0
3.8128161 0.02339489 -0.16647422 1 2655068672 0 35 0 0
3.8167543 -5.6028364e-07 -0.16664308 1 2655068672 0 35 0 0
3.8206995 -0.023444513 -0.16681832 1 2655068672 0 35 0 0
3.824651 -0.046938665 -0.16700041 1 2667068928 0 35 0 0
3.8286104 -0.070485003 -0.16718906 1 2667068928 0 35 0 0
3.8325768 -0.094083525 -0.16738427 1 2667068928 0 35 0 0
3.8365514 -0.11773999 -0.16758639 1 2667068928 0 35 0 0
3.8405342 -0.14145441 -0.16779506 1 2667068928 0 35 0 0
3.8445256 -0.16522887 -0.16801065 1 2667068928 0 35 0 0
3.8485262 -0.18906522 -0.16823298 1 2667068928 0 35 0 0
3.852536 -0.21296585 -0.16846216 1 2667068928 0 35 0 0
3.8565555 -0.23693243 -0.16869813 1 2667068928 0 35 0 0
3.8605843 -0.2609669 -0.16894126 1 2667068928 0 35 0 0
3.864624 -0.28507158 -0.16919136 1 2667068928 0 35 0 0
3.8686738 -0.30924839 -0.16944873 1 2667068928 0 35 0 0
3.8727348 -0.33349991 -0.1697129 1 2667068928 0 35 0 0
3.8768072 -0.35782775 -0.1699844 1 2667068928 0 35 0 0
3.8808911 -0.38223436 -0.17026317 1 2667068928 0 35 0 0
3.8849869 -0.4067218 -0.17054915 1 2667068928 0 35 0 0
3.8890951 -0.43129271 -0.17084247 1 2667068928 0 35 0 0
3.8932161 -0.45594868 -0.17114317 1 2667068928 0 35 0 0
3.8973503 -0.48069248 -0.17145151 1 2667068928 0 35 0 0
3.9014983 -0.50552642 -0.171767 1 2667068928 0 35 0 0
3.9056597 -0.53045249 -0.17209047 1 2667068928 0 35 0 0
3.9098358 -0.55547339 -0.17242122 1 2667068928 0 35 0 0
3.914026 -0.58059156 -0.17275995 1 2667068928 0 35 0 0
3.918232 -0.60580909 -0.17310637 1 2667068928 0 35 0 0
3.9224529 -0.63112885 -0.17346078 1 2667068928 0 35 0 0
3.9266899 -0.65655309 -0.17382288 1 2667068928 0 35 0 0
3.9309433 -0.68208426 -0.17419326 1 2667068928 0 35 0 0
3.9352129 -0.70772529 -0.17457145 1 2667068928 0 35 0 0
3.9395001 -0.73347837 -0.17495805 1 2667068928 0 35 0 0
3.9438047 -0.75934654 -0.17535305 1 2667068928 0 35 0 0
3.9481273 -0.78533059 -0.1757561 1 2667068928 0 35 0 0
3.9524684 -0.81143683 -0.17616761 1 2667068928 0 35 0 0
3.9568286 -0.83766645 -0.1765877 1 2667068928 0 35 0 0
3.9612081 -0.86402214 -0.17701632 1 2667068928 0 35 0 0
3.9656074 -0.89050651 -0.17745388 1 2667068928 0 35 0 0
3.9700267 -0.91712278 -0.17790008 1 2667068928 0 35 0 0
3.974467 -0.94387364 -0.17835528 1 2667068928 0 35 0 0
3.978929 -0.97076267 -0.17881954 1 2667068928 0 35 0 0
3.7782025 0.16237889 -0.21237522 1 2655068672 0 36 0 0
3.7820871 0.13930219 -0.2125417 1 2655068672 0 36 0 0
3.7859759 0.11618838 -0.21271598 1 2655068672 0 36 0 0
3.7898695 0.093035564 -0.21289873 1 2655068672 0 36 0 0
3.7937679 0.069842301 -0.2130897 1 2655068672 0 36 0 0
3.7976718 0.046606205 -0.21328884 1 2655068672 0 36 0 0
3.8015814 0.023325898 -0.21349633 1 2655068672 0 36 0 0
3.8054965 -6.8426129e-07 -0.2137121 1 2655068672 0 36 0 0
3.809418 -0.023375267 -0.21393645 1 2655068672 0 36 0 0
3.8133459 -0.046800118 -0.21416909 1 2667068928 0 36 0 0
3.8172808 -0.070276663 -0.21441025 1 2667068928 0 36 0 0
3.8212221 -0.093804993 -0.21465999 1 2667068928 0 36 0 0
3.8251715 -0.11739096 -0.21491826 1 2667068928 0 36 0 0
3.829128 -0.14103422 -0.21518517 1 2667068928 0 36 0 0
3.8330932 -0.16473742 -0.21546066 1 2667068928 0 36 0 0
3.8370667 -0.18850221 -0.21574509 1 2667068928 0 36 0 0
3.8410487 -0.21233068 -0.21603805 1 2667068928 0 36 0 0
3.8450401 -0.23622493 -0.21633995 1 2667068928 0 36 0 0
3.8490407 -0.26018664 -0.21665072 1 2667068928 0 36 0 0
3.8530507 -0.28421789 -0.21697056 1 2667068928 0 36 0 0
3.8570712 -0.30832112 -0.21729946 1 2667068928 0 36 0 0
3.8611019 -0.33249813 -0.21763736 1 2667068928 0 36 0 0
3.8651433 -0.35675132 -0.2179845 1 2667068928 0 36 0 0
3.8691962 -0.38108248 -0.21834075 1 2667068928 0 36 0 0
3.87326 -0.40549406 -0.21870637 1 2667068928 0 36 0 0
3.8773358 -0.42998871 -0.21908134 1 2667068928 0 36 0 0
3.8814235 -0.4545677 -0.21946585 1 2667068928 0 36 0 0
3.8855238 -0.47923404 -0.21985984 1 2667068928 0 36 0 0
3.8896375 -0.50398964 -0.22026336 1 2667068928 0 36 0 0
3.8937643 -0.52883691 -0.22067684 1 2667068928 0 36 0 0
3.8979046 -0.55377817 -0.22109979 1 2667068928 0 36 0 0
3.9020588 -0.57881624 -0.22153276 1 2667068928 0 36 0 0
3.9062276 -0.60395294 -0.22197562 1 2667068928 0 36 0 0
3.9104116 -0.6291911 -0.22242862 1 2667068928 0 36 0 0
3.9146101 -0.65453309 -0.22289181 1 2667068928 0 36 0 0
3.9188247 -0.67998147 -0.22336501 1 2667068928 0 36 0 0
3.9230554 -0.70553857 -0.22384876 1 2667068928 0 36 0 0
3.9273021 -0.73120719 -0.22434276 1 2667068928 0 36 0 0
3.931566 -0.75699013 -0.2248475 1 2667068928 0 36 0 0
3.935847 -0.7828877 -0.2253629 1 2667068928 0 36 0 0
3.940146 -0.80890709 -0.22588891 1 2667068928 0 36 0 0
3.944463 -0.8350485 -0.22642589 1 2667068928 0 36 0 0
3.9487991 -0.86131531 -0.22697383 1 2667068928 0 36 0 0
3.9531538 -0.88770992 -0.22753298 1 2667068928 0 36 0 0
3.9575286 -0.91423529 -0.22810334 1 2667068928 0 36 0 0
3.9619229 -0.94089484 -0.22868502 1 2667068928 0 36 0 0
3.9663377 -0.96769077 -0.22927833 1 2667068928 0 36 0 0
3.9707739 -0.99462676 -0.22988319 1 2667068928 0 36 0 0
3.7710094 0.13889414 -0.25914663 1 2655068672 0 37 0 0
3.7748778 0.11584779 -0.2593587 1 2655068672 0 37 0 0
3.7787504 0.092762761 -0.25958091 1 2655068672 0 37 0 0
3.7826278 0.069637194 -0.25981289 1 2655068672 0 37 0 0
3.7865095 0.046469092 -0.26005501 1 2655068672 0 37 0 0
3.7903967 0.023257161 -0.26030737 1 2655068672 0 37 0 0
3.7942891 -8.0063938e-07 -0.26056975 1 2655068672 0 37 0 0
3.7981873 -0.023306524 -0.26084238 1 2655068672 0 37 0 0
3.8020916 -0.046661958 -0.26112503 1 2667068928 0 37 0 0
3.8060021 -0.070068836 -0.2614184 1 2667068928 0 37 0 0
3.8099186 -0.093527488 -0.26172179 1 2667068928 0 37 0 0
3.8138428 -0.11704324 -0.26203579 1 2667068928 0 37 0 0
3.8177741 -0.14061636 -0.26236027 1 2667068928 0 37 0 0
3.8217125 -0.16424839 -0.26269537 1 2667068928 0 37 0 0
3.825659 -0.18794209 -0.26304084 1 2667068928 0 37 0 0
3.8296142 -0.21169864 -0.26339704 1 2667068928 0 37 0 0
3.8335774 -0.23552059 -0.26376408 1 2667068928 0 37 0 0
3.8375497 -0.25940973 -0.26414198 1 2667068928 0 37 0 0
3.841531 -0.28336811 -0.26453072 1 2667068928 0 37 0 0
3.8455217 -0.30739775 -0.26493043 1 2667068928 0 37 0 0
3.8495226 -0.33150095 -0.26534122 1 2667068928 0 37 0 0
3.8535335 -0.35567951 -0.2657631 1 2667068928 0 37 0 0
3.8575552 -0.37993595 -0.26619619 1 2667068928 0 37 0 0
3.8615875 -0.40427214 -0.26664048 1 2667068928 0 37 0 0
3.8656311 -0.42869043 -0.26709634 1 2667068928 0 37 0 0
3.8696859 -0.45319319 -0.26756364 1 2667068928 0 37 0 0
3.8737531 -0.47778201 -0.26804262 1 2667068928 0 37 0 0
3.8778322 -0.50246006 -0.26853317 1 2667068928 0 37 0 0
3.8819244 -0.52722871 -0.26903564 1 2667068928 0 37 0 0
3.8860295 -0.5520913 -0.26954955 1 2667068928 0 37 0 0
3.8901479 -0.57704949 -0.27007586 1 2667068928 0 37 0 0
3.8942802 -0.6021058 -0.27061421 1 2667068928 0 37 0 0
3.8984268 -0.62726307 -0.2711646 1 2667068928 0 37 0 0
3.9025881 -0.65252286 -0.2717275 1 2667068928 0 37 0 0
3.906764 -0.67788869 -0.27230281 1 2667068928 0 37 0 0
3.9109554 -0.70336211 -0.27289051 1 2667068928 0 37 0 0
3.9151628 -0.72894675 -0.27349108 1 2667068928 0 37 0 0
3.9193861 -0.75464475 -0.27410442 1 2667068928 0 37 0 0
3.9236259 -0.7804569 -0.2747305 1 2667068928 0 37 0 0
3.9278829 -0.80638957 -0.27536994 1 2667068928 0 37 0 0
3.9321575 -0.83244336 -0.27602249 1 2667068928 0 37 0 0
3.9364505 -0.8586219 -0.2766884 1 2667068928 0 37 0 0
3.9407613 -0.88492709 -0.27736789 1 2667068928 0 37 0 0
3.9450912 -0.91136205 -0.27806121 1 2667068928 0 37 0 0
3.94944 -0.93793023 -0.27876788 1 2667068928 0 37 0 0
3.9538088 -0.96463406 -0.27948886 1 2667068928 0 37 0 0
3.9581978 -0.99147671 -0.28022379 1 2667068928 0 37 0 0
3.9626076 -1.0184612 -0.28097326 1 2667068928 0 37 0 0
3.7604775 0.1385064 -0.30559939 1 2655068672 0 38 0 0
3.7638259 0.11550861 -0.30580813 1 2655068672 0 38 0 0
3.7676778 0.092490844 -0.3060692 1 2655068672 0 38 0 0
3.7715337 0.069432974 -0.30634218 1 2655068672 0 38 0 0
3.775394 0.046332859 -0.30662674 1 2655068672 0 38 0 0
3.7792587 0.023188915 -0.30692333 1 2655068672 0 38 0 0
3.7831285 -8.061528e-07 -0.30723172 1 2655068672 0 38 0 0
3.7870038 -0.023237821 -0.30755216 1 2655068672 0 38 0 0
3.7908843 -0.046524301 -0.30788475 1 2667068928 0 38 0 0
3.7947707 -0.069862068 -0.30822951 1 2667068928 0 38 0 0
3.7986629 -0.093251102 -0.30858618 1 2667068928 0 38 0 0
3.8025618 -0.11669692 -0.30895537 1 2667068928 0 38 0 0
3.8064675 -0.14019972 -0.30933672 1 2667068928 0 38 0 0
3.8103797 -0.16376141 -0.30973047 1 2667068928 0 38 0 0
3.8142998 -0.18738402 -0.31013662 1 2667068928 0 38 0 0
3.8182278 -0.21106926 -0.31055552 1 2667068928 0 38 0 0
3.8221633 -0.23481937 -0.31098706 1 2667068928 0 38 0 0
3.8261077 -0.25863639 -0.31143111 1 2667068928 0 38 0 0
3.8300602 -0.28252184 -0.31188816 1 2667068928 0 38 0 0
3.8340218 -0.30647847 -0.31235796 1 2667068928 0 38 0 0
3.8379927 -0.33050808 -0.31284076 1 2667068928 0 38 0 0
3.8419735 -0.35461253 -0.31333691 1 2667068928 0 38 0 0
3.845964 -0.37879419 -0.31384605 1 2667068928 0 38 0 0
3.8499651 -0.4030554 -0.31436831 1 2667068928 0 38 0 0
3.8539762 -0.42739794 -0.31490415 1 2667068928 0 38 0 0
3.8579991 -0.45182431 -0.31545347 1 2667068928 0 38 0 0
3.8620327 -0.47633639 -0.31601626 1 2667068928 0 38 0 0
3.8660784 -0.50093693 -0.31659275 1 2667068928 0 38 0 0
3.870136 -0.52562785 -0.3171832 1 2667068928 0 38 0 0
3.8742061 -0.55041134 -0.31778771 1 2667068928 0 38 0 0
3.8782895 -0.57529056 -0.31840605 1 2667068928 0 38 0 0
3.8823855 -0.60026687 -0.31903869 1 2667068928 0 38 0 0
3.8864949 -0.62534291 -0.31968576 1 2667068928 0 38 0 0
3.8906188 -0.65052164 -0.32034725 1 2667068928 0 38 0 0
3.894757 -0.67580509 -0.3210234 1 2667068928 0 38 0 0
3.8989096 -0.70119613 -0.32171434 1 2667068928 0 38 0 0
3.9030774 -0.72669685 -0.32242006 1 2667068928 0 38 0 0
3.9072609 -0.75231045 -0.32314092 1 2667068928 0 38 0 0
3.9114594 -0.77803701 -0.3238768 1 2667068928 0 38 0 0
3.9156752 -0.80388314 -0.32462829 1 2667068928 0 38 0 0
3.9199078 -0.8298502 -0.32539505 1 2667068928 0 38 0 0
3.9241576 -0.85594076 -0.32617766 1 2667068928 0 38 0 0
3.9284253 -0.88215703 -0.326976 1 2667068928 0 38 0 0
3.9327104 -0.90850234 -0.32779068 1 2667068928 0 38 0 0
3.9370143 -0.93497956 -0.32862145 1 2667068928 0 38 0 0
3.9413371 -0.96159142 -0.32946855 1 2667068928 0 38 0 0
3.9456794 -0.98834109 -0.33033234 1 2667068928 0 38 0 0
3.950042 -1.0152316 -0.33121282 1 2667068928 0 38 0 0
3.9544249 -1.0422664 -0.33211023 1 2667068928 0 38 0 0
3.752816 0.1151708 -0.35207945 1 2655068672 0 39 0 0
3.7566476 0.09222015 -0.35237914 1 2655068672 0 39 0 0
3.7604823 0.069229417 -0.35269219 1 2655068672 0 39 0 0
3.7643211 0.046196856 -0.35301894 1 2655068672 0 39 0 0
3.7681639 0.023120785 -0.3533594 1 2655068672 0 39 0 0
3.772011 -7.3671339e-07 -0.35371357 1 2655068672 0 39 0 0
3.7758632 -0.023169376 -0.35408145 1 2655068672 0 39 0 0
3.7797203 -0.04638733 -0.35446316 1 2667068928 0 39 0 0
3.7835827 -0.069656044 -0.35485882 1 2667068928 0 39 0 0
3.7874508 -0.092975825 -0.35526842 1 2667068928 0 39 0 0
3.7913246 -0.11635202 -0.35569209 1 2667068928 0 39 0 0
3.7952049 -0.13978501 -0.35612983 1 2667068928 0 39 0 0
3.7990918 -0.16327633 -0.35658187 1 2667068928 0 39 0 0
3.8029852 -0.18682814 -0.35704821 1 2667068928 0 39 0 0
3.8068862 -0.21044227 -0.35752898 1 2667068928 0 39 0 0
3.8107946 -0.23412077 -0.35802418 1 2667068928 0 39 0 0
3.8147106 -0.2578657 -0.35853416 1 2667068928 0 39 0 0
3.8186347 -0.28167906 -0.35905868 1 2667068928 0 39 0 0
3.8225675 -0.30556282 -0.35959798 1 2667068928 0 39 0 0
3.8265088 -0.32951903 -0.36015207 1 2667068928 0 39 0 0
3.8304591 -0.35354981 -0.36072129 1 2667068928 0 39 0 0
3.8344195 -0.37765735 -0.36130565 1 2667068928 0 39 0 0
3.8383892 -0.4018437 -0.36190528 1 2667068928 0 39 0 0
3.8423691 -0.42611074 -0.36252016 1 2667068928 0 39 0 0
3.8463593 -0.45046106 -0.36315066 1 2667068928 0 39 0 0
3.8503599 -0.47489679 -0.36379665 1 2667068928 0 39 0 0
3.8543723 -0.4994202 -0.36445838 1 2667068928 0 39 0 0
3.8583956 -0.52403331 -0.36513597 1 2667068928 0 39 0 0
3.8624313 -0.54873872 -0.36582965 1 2667068928 0 39 0 0
3.8664787 -0.57353848 -0.36653942 1 2667068928 0 39 0 0
3.8705392 -0.59843516 -0.36726552 1 2667068928 0 39 0 0
3.8746123 -0.62343103 -0.36800808 1 2667068928 0 39 0 0
3.8786986 -0.64852852 -0.3687672 1 2667068928 0 39 0 0
3.8827994 -0.67373037 -0.36954314 1 2667068928 0 39 0 0
3.8869133 -0.69903862 -0.370336 1 2667068928 0 39 0 0
3.891042 -0.72445625 -0.3711459 1 2667068928 0 39 0 0
3.8951857 -0.74998552 -0.3719731 1 2667068928 0 39 0 0
3.899344 -0.77562696 -0.37281758 1 2667068928 0 39 0 0
3.9035189 -0.80138761 -0.37367994 1 2667068928 0 39 0 0
3.9077096 -0.82726777 -0.37455994 1 2667068928 0 39 0 0
3.9119167 -0.85327023 -0.37545794 1 2667068928 0 39 0 0
3.916141 -0.87939847 -0.37637419 1 2667068928 0 39 0 0
3.9203825 -0.90565449 -0.37730867 1 2667068928 0 39 0 0
3.9246416 -0.93204105 -0.37826198 1 2667068928 0 39 0 0
3.9289193 -0.95856166 -0.37923402 1 2667068928 0 39 0 0
3.9332156 -0.98521894 -0.38022524 1 2667068928 0 39 0 0
3.937531 -1.0120162 -0.38123542 1 2667068928 0 39 0 0
3.9418664 -1.0389564 -0.38226539 1 2667068928 0 39 0 0
3.9462216 -1.0660424 -0.38331479 1 2667068928 0 39 0 0
3.745656 0.091950245 -0.39852613 1 2655068672 0 40 0 0
3.7494698 0.069026507 -0.39887959 1 2655068672 0 40 0 0
3.7532873 0.046061508 -0.39924794 1 2655068672 0 40 0 0
3.757108 0.023052916 -0.3996318 1 2655068672 0 40 0 0
3.7609329 -6.985664e-07 -0.40003115 1 2655068672 0 40 0 0
3.7647622 -0.023101348 -0.400446 1 2655068672 0 40 0 0
3.7685962 -0.046250705 -0.40087646 1 2667068928 0 40 0 0
3.7724347 -0.069450878 -0.40132266 1 2667068928 0 40 0 0
3.7762783 -0.092701674 -0.40178436 1 2667068928 0 40 0 0
3.7801278 -0.11600836 -0.40226203 1 2667068928 0 40 0 0
3.7839828 -0.13937148 -0.40275592 1 2667068928 0 40 0 0
3.7878439 -0.16279276 -0.40326542 1 2667068928 0 40 0 0
3.7917113 -0.18627402 -0.40379125 1 2667068928 0 40 0 0
3.7955856 -0.20981757 -0.40433341 1 2667068928 0 40 0 0
3.7994664 -0.23342489 -0.40489179 1 2667068928 0 40 0 0
3.803355 -0.25709823 -0.40546662 1 2667068928 0 40 0 0
3.807251 -0.28083941 -0.40605789 1 2667068928 0 40 0 0
3.8111546 -0.30465046 -0.4066661 1 2667068928 0 40 0 0
3.8150668 -0.32853377 -0.407291 1 2667068928 0 40 0 0
3.8189874 -0.35249096 -0.40793258 1 2667068928 0 40 0 0
3.8229167 -0.37652439 -0.40859145 1 2667068928 0 40 0 0
3.8268557 -0.4006362 -0.4092676 1 2667068928 0 40 0 0
3.8308041 -0.42482826 -0.40996093 1 2667068928 0 40 0 0
3.8347621 -0.44910294 -0.41067165 1 2667068928 0 40 0 0
3.8387303 -0.47346258 -0.41140014 1 2667068928 0 40 0 0
3.8427093 -0.49790901 -0.41214603 1 2667068928 0 40 0 0
3.8466992 -0.5224449 -0.41291004 1 2667068928 0 40 0 0
3.8506999 -0.54707199 -0.41369218 1 2667068928 0 40 0 0
3.8547127 -0.57179302 -0.41449231 1 2667068928 0 40 0 0
3.8587375 -0.59661037 -0.41531104 1 2667068928 0 40 0 0
3.8627744 -0.62152642 -0.41614789 1 2667068928 0 40 0 0
3.8668239 -0.64654326 -0.41700381 1 2667068928 0 40 0 0
3.8708868 -0.67166358 -0.41787845 1 2667068928 0 40 0 0
3.874963 -0.69688964 -0.41877228 1 2667068928 0 40 0 0
3.8790529 -0.72222412 -0.41968542 1 2667068928 0 40 0 0
3.8831573 -0.74766958 -0.42061788 1 2667068928 0 40 0 0
3.8872757 -0.77322656 -0.42156988 1 2667068928 0 40 0 0
3.8914092 -0.79890156 -0.42254192 1 2667068928 0 40 0 0
3.8955584 -0.82469529 -0.42353398 1 2667068928 0 40 0 0
3.8997235 -0.85061103 -0.42454618 1 2667068928 0 40 0 0
3.9039049 -0.87665057 -0.42557889 1 2667068928 0 40 0 0
3.908103 -0.90281731 -0.42663258 1 2667068928 0 40 0 0
3.9123178 -0.92911404 -0.42770702 1 2667068928 0 40 0 0
3.9165502 -0.95554382 -0.42880279 1 2667068928 0 40 0 0
3.9208009 -0.98210913 -0.42991978 1 2667068928 0 40 0 0
3.92507 -1.0088135 -0.43105835 1 2667068928 0 40 0 0
3.9293578 -1.0356594 -0.43221921 1 2667068928 0 40 0 0
3.9336648 -1.0626503 -0.433402 1 2667068928 0 40 0 0
3.9379919 -1.0897892 -0.43460721 1 2667068928 0 40 0 0
3.7384927 0.068824641 -0.44491833 1 2655068672 0 41 0 0
3.7422888 0.045926627 -0.44532818 1 2655068672 0 41 0 0
3.7460878 0.022985578 -0.44575518 1 2655068672 0 41 0 0
3.7498906 -5.7697292e-07 -0.44619936 1 2655068672 0 41 0 0
3.7536972 -0.02303341 -0.44666058 1 2655068672 0 41 0 0
3.7575078 -0.046114691 -0.44713932 1 2667068928 0 41 0 0
3.7613227 -0.069246344 -0.44763535 1 2667068928 0 41 0 0
3.7651424 -0.09242826 -0.44814891 1 2667068928 0 41 0 0
3.7689672 -0.11566582 -0.44868022 1 2667068928 0 41 0 0
3.7727971 -0.13895947 -0.4492293 1 2667068928 0 41 0 0
3.7766325 -0.16231094 -0.44979602 1 2667068928 0 41 0 0
3.7804742 -0.18572208 -0.45038086 1 2667068928 0 41 0 0
3.7843218 -0.20919487 -0.4509837 1 2667068928 0 41 0 0
3.7881758 -0.23273115 -0.45160466 1 2667068928 0 41 0 0
3.7920365 -0.25633305 -0.45224386 1 2667068928 0 41 0 0
3.7959044 -0.28000236 -0.45290142 1 2667068928 0 41 0 0
3.7997799 -0.30374125 -0.4535777 1 2667068928 0 41 0 0
3.8036625 -0.32755157 -0.45427245 1 2667068928 0 41 0 0
3.8075535 -0.35143581 -0.45498627 1 2667068928 0 41 0 0
3.8114529 -0.37539524 -0.45571905 1 2667068928 0 41 0 0
3.815361 -0.3994326 -0.45647067 1 2667068928 0 41 0 0
3.8192778 -0.42355007 -0.45724171 1 2667068928 0 41 0 0
3.8232043 -0.44774941 -0.45803195 1 2667068928 0 41 0 0
3.8271401 -0.47203299 -0.45884186 1 2667068928 0 41 0 0
3.8310859 -0.49640292 -0.45967144 1 2667068928 0 41 0 0
3.835042 -0.52086133 -0.46052092 1 2667068928 0 41 0 0
3.839009 -0.54541111 -0.46139055 1 2667068928 0 41 0 0
3.8429871 -0.57005376 -0.46228033 1 2667068928 0 41 0 0
3.8469763 -0.59479183 -0.4631905 1 2667068928 0 41 0 0
3.8509774 -0.61962825 -0.46412104 1 2667068928 0 41 0 0
3.8549905 -0.64456487 -0.46507281 1 2667068928 0 41 0 0
3.8590159 -0.66960377 -0.46604544 1 2667068928 0 41 0 0
3.8630545 -0.69474804 -0.46703905 1 2667068928 0 41 0 0
3.867106 -0.71999973 -0.46805423 1 2667068928 0 41 0 0
3.8711708 -0.74536163 -0.469091 1 2667068928 0 41 0 0
3.8752496 -0.77083427 -0.47014934 1 2667068928 0 41 0 0
3.8793428 -0.79642433 -0.47122997 1 2667068928 0 41 0 0
3.8834507 -0.82213199 -0.47233313 1 2667068928 0 41 0 0
3.887574 -0.84796095 -0.47345847 1 2667068928 0 41 0 0
3.8917129 -0.87391293 -0.47460669 1 2667068928 0 41 0 0
3.8958676 -0.89999092 -0.4757778 1 2667068928 0 41 0 0
3.9000387 -0.92619812 -0.47697216 1 2667068928 0 41 0 0
3.9042265 -0.95253688 -0.47819036 1 2667068928 0 41 0 0
3.9084315 -0.97901076 -0.47943205 1 2667068928 0 41 0 0
3.9126544 -1.0056221 -0.48069793 1 2667068928 0 41 0 0
3.7275472 0.068623208 -0.49082416 1 2655068672 0 42 0 0
3.7313223 0.045792058 -0.49127501 1 2655068672 0 42 0 0
3.7350998 0.022918053 -0.49174458 1 2655068672 0 42 0 0
3.7388806 -6.2227247e-07 -0.49223298 1 2655068672 0 42 0 0
3.7426643 -0.02296566 -0.49274045 1 2655068672 0 42 0 0
3.7464519 -0.045979004 -0.49326688 1 2667068928 0 42 0 0
3.7502437 -0.069042392 -0.49381262 1 2667068928 0 42 0 0
3.7540393 -0.092155613 -0.49437755 1 2667068928 0 42 0 0
3.7578392 -0.11532442 -0.49496192 1 2667068928 0 42 0 0
3.7616446 -0.13854891 -0.49556583 1 2667068928 0 42 0 0
3.765455 -0.16183071 -0.49618918 1 2667068928 0 42 0 0
3.7692704 -0.1851719 -0.49683243 1 2667068928 0 42 0 0
3.7730916 -0.20857413 -0.49749547 1 2667068928 0 42 0 0
3.7769189 -0.23203962 -0.4981783 1 2667068928 0 42 0 0
3.7807522 -0.25557029 -0.4988814 1 2667068928 0 42 0 0
3.7845922 -0.27916798 -0.49960464 1 2667068928 0 42 0 0
3.7884393 -0.30283478 -0.50034839 1 2667068928 0 42 0 0
3.7922933 -0.3265726 -0.50111264 1 2667068928 0 42 0 0
3.7961547 -0.35038355 -0.50189739 1 2667068928 0 42 0 0
3.8000238 -0.37426955 -0.50270325 1 2667068928 0 42 0 0
3.8039012 -0.39823294 -0.50353009 1 2667068928 0 42 0 0
3.8077874 -0.4222759 -0.50437778 1 2667068928 0 42 0 0
3.811682 -0.44640014 -0.50524706 1 2667068928 0 42 0 0
3.8155859 -0.47060776 -0.50613791 1 2667068928 0 42 0 0
3.8194988 -0.49490154 -0.50705022 1 2667068928 0 42 0 0
3.823422 -0.51928329 -0.50798446 1 2667068928 0 42 0 0
3.8273547 -0.54375511 -0.50894064 1 2667068928 0 42 0 0
3.8312979 -0.56831986 -0.50991911 1 2667068928 0 42 0 0
3.835252 -0.59297925 -0.51091999 1 2667068928 0 42 0 0
3.8392174 -0.6177358 -0.51194364 1 2667068928 0 42 0 0
3.8431942 -0.64259237 -0.51298994 1 2667068928 0 42 0 0
3.8471828 -0.66755062 -0.51405948 1 2667068928 0 42 0 0
3.8511837 -0.69261283 -0.51515216 1 2667068928 0 42 0 0
3.8551967 -0.7177822 -0.51626867 1 2667068928 0 42 0 0
3.8592231 -0.74306113 -0.51740855 1 2667068928 0 42 0 0
3.8632627 -0.76844984 -0.51857251 1 2667068928 0 42 0 0
3.8673155 -0.79395515 -0.51976055 1 2667068928 0 42 0 0
3.871383 -0.81957734 -0.52097338 1 2667068928 0 42 0 0
3.8754644 -0.84531927 -0.52221066 1 2667068928 0 42 0 0
3.8795609 -0.87118399 -0.5234732 1 2667068928 0 42 0 0
3.7203839 0.045657668 -0.537103 1 2655068672 0 43 0 0
3.7241399 0.022850679 -0.537615 1 2655068672 0 43 0 0
3.7278988 -6.7234038e-07 -0.53814751 1 2655068672 0 43 0 0
3.7316604 -0.022898249 -0.53870064 1 2655068672 0 43 0 0
3.7354252 -0.045843761 -0.53927451 1 2667068928 0 43 0 0
3.7391934 -0.068838887 -0.53986937 1 2667068928 0 43 0 0
3.742965 -0.091883779 -0.54048532 1 2667068928 0 43 0 0
3.7467408 -0.11498383 -0.54112226 1 2667068928 0 43 0 0
3.7505214 -0.13813917 -0.54178029 1 2667068928 0 43 0 0
3.7543066 -0.1613517 -0.54245967 1 2667068928 0 43 0 0
3.7580962 -0.18462297 -0.54316097 1 2667068928 0 43 0 0
3.7618914 -0.20795502 -0.54388362 1 2667068928 0 43 0 0
3.7656918 -0.23134996 -0.54462796 1 2667068928 0 43 0 0
3.7694979 -0.2548095 -0.54539436 1 2667068928 0 43 0 0
3.7733102 -0.27833569 -0.54618293 1 2667068928 0 43 0 0
3.7771287 -0.30193061 -0.54699332 1 2667068928 0 43 0 0
3.7809541 -0.32559615 -0.54782647 1 2667068928 0 43 0 0
3.7847862 -0.34933424 -0.54868191 1 2667068928 0 43 0 0
3.7886257 -0.37314701 -0.54956001 1 2667068928 0 43 0 0
3.7924731 -0.39703655 -0.55046099 1 2667068928 0 43 0 0
3.7963281 -0.42100513 -0.55138522 1 2667068928 0 43 0 0
3.8001912 -0.44505432 -0.55233258 1 2667068928 0 43 0 0
3.8040631 -0.46918666 -0.5533033 1 2667068928 0 43 0 0
3.8079436 -0.49340445 -0.55429763 1 2667068928 0 43 0 0
3.8118334 -0.51770937 -0.55531591 1 2667068928 0 43 0 0
3.8157327 -0.54210413 -0.55635792 1 2667068928 0 43 0 0
3.8196416 -0.56659096 -0.55742425 1 2667068928 0 43 0 0
3.823561 -0.59117192 -0.55851525 1 2667068928 0 43 0 0
3.8274908 -0.61584914 -0.55963069 1 2667068928 0 43 0 0
3.8314314 -0.64062542 -0.56077117 1 2667068928 0 43 0 0
3.8353834 -0.66550308 -0.56193656 1 2667068928 0 43 0 0
3.8393469 -0.69048399 -0.56312758 1 2667068928 0 43 0 0
3.8433223 -0.7155714 -0.56434399 1 2667068928 0 43 0 0
3.8473101 -0.74076736 -0.56558615 1 2667068928 0 43 0 0
3.7132051 0.022783624 -0.58338088 1 2655068672 0 44 0 0
3.7169421 -6.2882901e-07 -0.5839569 1 2655068672 0 44 0 0
3.7206814 -0.022830853 -0.58455533 1 2655068672 0 44 0 0
3.7244234 -0.04570863 -0.58517617 1 2667068928 0 44 0 0
3.7281682 -0.068635754 -0.58581978 1 2667068928 0 44 0 0
3.7319164 -0.09161251 -0.58648616 1 2667068928 0 44 0 0
3.7356682 -0.11464405 -0.58717519 1 2667068928 0 44 0 0
3.739424 -0.13773042 -0.58788735 1 2667068928 0 44 0 0
3.7431839 -0.16087355 -0.58862251 1 2667068928 0 44 0 0
3.7469482 -0.18407518 -0.58938092 1 2667068928 0 44 0 0
3.7507172 -0.2073373 -0.59016269 1 2667068928 0 44 0 0
3.7544911 -0.23066173 -0.59096831 1 2667068928 0 44 0 0
3.7582703 -0.25405064 -0.59179729 1 2667068928 0 44 0 0
3.7620549 -0.27750552 -0.59265023 1 2667068928 0 44 0 0
3.7658455 -0.30102861 -0.59352714 1 2667068928 0 44 0 0
3.7696426 -0.32462204 -0.59442836 1 2667068928 0 44 0 0
3.7734456 -0.34828746 -0.5953539 1 2667068928 0 44 0 0
3.7772551 -0.37202713 -0.596304 1 2667068928 0 44 0 0
3.7810724 -0.395843 -0.59727865 1 2667068928 0 44 0 0
3.7848964 -0.41973719 -0.59827822 1 2667068928 0 44 0 0
3.7887285 -0.44371176 -0.59930307 1 2667068928 0 44 0 0
3.7925687 -0.467769 -0.6003533 1 2667068928 0 44 0 0
3.7964168 -0.49191082 -0.60142893 1 2667068928 0 44 0 0
3.8002737 -0.51613927 -0.6025303 1 2667068928 0 44 0 0
3.8041396 -0.54045719 -0.60365766 1 2667068928 0 44 0 0
3.8080144 -0.56486619 -0.60481101 1 2667068928 0 44 0 0
3.8118989 -0.5893687 -0.60599118 1 2667068928 0 44 0 0
3.8157938 -0.6139673 -0.6071977 1 2667068928 0 44 0 0
3.706007 -5.8650971e-07 -0.62967604 1 2655068672 0 45 0 0
3.7097244 -0.02276352 -0.63031942 1 2655068672 0 45 0 0
3.7134435 -0.045573816 -0.63098699 1 2667068928 0 45 0 0
3.7171655 -0.068433225 -0.63167888 1 2667068928 0 45 0 0
3.7208898 -0.091341972 -0.63239509 1 2667068928 0 45 0 0
3.7246177 -0.11430487 -0.63313597 1 2667068928 0 45 0 0
3.728349 -0.13732244 -0.63390166 1 2667068928 0 45 0 0
3.732084 -0.16039646 -0.63469201 1 2667068928 0 45 0 0
3.7358229 -0.18352859 -0.6355074 1 2667068928 0 45 0 0
3.7395658 -0.20672084 -0.63634807 1 2667068928 0 45 0 0
3.7433136 -0.22997509 -0.63721389 1 2667068928 0 45 0 0
3.7470655 -0.2532931 -0.63810509 1 2667068928 0 45 0 0
3.750823 -0.27667692 -0.63902193 1 2667068928 0 45 0 0
3.7545857 -0.30012858 -0.63996488 1 2667068928 0 45 0 0
3.7583542 -0.32365012 -0.64093345 1 2667068928 0 45 0 0
3.7621281 -0.34724283 -0.64192849 1 2667068928 0 45 0 0
3.7659087 -0.37090963 -0.64294964 1 2667068928 0 45 0 0
3.7696958 -0.39465201 -0.64399761 1 2667068928 0 45 0 0
3.7734892 -0.41847214 -0.64507228 1 2667068928 0 45 0 0
3.7772903 -0.44237226 -0.64617378 1 2667068928 0 45 0 0
3.7810988 -0.46635425 -0.64730245 1 2667068928 0 45 0 0
3.7849147 -0.49042028 -0.6484589 1 2667068928 0 45 0 0
3.6950903 -5.364418e-07 -0.67531949 1 2655068672 0 46 0 0
3.6987853 -0.022696437 -0.67600757 1 2655068672 0 46 0 0
3.7024822 -0.045439281 -0.67672139 1 2667068928 0 46 0 0
3.706181 -0.068231069 -0.67746133 1 2667068928 0 46 0 0
3.709882 -0.091071606 -0.67822713 1 2667068928 0 46 0 0
3.7135861 -0.1139664 -0.67901939 1 2667068928 0 46 0 0
3.7172928 -0.13691519 -0.679838 1 2667068928 0 46 0 0
3.7210028 -0.15992014 -0.68068308 1 2667068928 0 46 0 0
3.7247164 -0.18298289 -0.68155497 1 2667068928 0 46 0 0
3.7284338 -0.20610544 -0.68245369 1 2667068928 0 46 0 0
3.7321548 -0.22928955 -0.68337971 1 2667068928 0 46 0 0
3.7358804 -0.25253698 -0.68433255 1 2667068928 0 46 0 0
3.7396104 -0.27584982 -0.68531305 1 2667068928 0 46 0 0
3.7433455 -0.29923013 -0.68632108 1 2667068928 0 46 0 0
3.7470856 -0.32267955 -0.68735677 1 2667068928 0 46 0 0
3.7508311 -0.3462002 -0.68842047 1 2667068928 0 46 0 0
3.7545822 -0.36979392 -0.68951255 1 2667068928 0 46 0 0
3.687861 -0.022629451 -0.72163373 1 2655068672 0 47 0 0
3.6915355 -0.045305036 -0.72239357 1 2667068928 0 47 0 0
3.6952114 -0.068029128 -0.72318095 1 2667068928 0 47 0 0
3.6988893 -0.090801813 -0.72399622 1 2667068928 0 47 0 0
3.7025695 -0.11362831 -0.72483939 1 2667068928 0 47 0 0
3.7062521 -0.13650873 -0.72571057 1 2667068928 0 47 0 0
3.7099373 -0.15944456 -0.72661024 1 2667068928 0 47 0 0
3.7136254 -0.18243809 -0.72753805 1 2667068928 0 47 0 0
3.7173171 -0.20549083 -0.72849447 1 2667068928 0 47 0 0
3.7210121 -0.22860497 -0.72947985 1 2667068928 0 47 0 0
3.7247112 -0.251782 -0.7304942 1 2667068928 0 47 0 0
3.6806002 -0.045170832 -0.76801747 1 2667068928 0 48 0 0
3.6842537 -0.067827404 -0.76885217 1 2667068928 0 48 0 0
3.6879082 -0.090532206 -0.76971644 1 2667068928 0 48 0 0
3.6915646 -0.11329059 -0.77061015 1 2667068928 0 48 0 0
