# .PCD v0.7 - Point Cloud Data file format
VERSION 0.7
FIELDS x y z intensity t reflectivity ring noise range
SIZE 4 4 4 4 4 2 2 2 4
TYPE F F F F U U U U U
COUNT 1 1 1 1 1 1 1 1 1
WIDTH 886
HEIGHT 1
VIEWPOINT 0 0 0 1 0 0 0
POINTS 886
DATA ascii
2.9658642 -0.036399078 0.31548741 1 675028480 0 23 0 0
2.9658587 -0.054601677 0.31551659 1 675028480 0 23 0 0
2.9658511 -0.072806887 0.31555727 1 675028480 0 23 0 0
2.9658411 -0.091018789 0.31560966 1 675028480 0 23 0 0
2.9658289 -0.10923738 0.31567377 1 675028480 0 23 0 0
2.9658144 -0.12746392 0.3157495 1 675028480 0 23 0 0
2.9657977 -0.14569978 0.31583697 1 675028480 0 23 0 0
2.9715667 0.66728771 0.28559262 1 675028480 0 24 0 0
2.9716394 0.64817697 0.28521201 1 675028480 0 24 0 0
2.9717097 0.62911588 0.284843 1 675028480 0 24 0 0
2.9717782 0.61010289 0.28448522 1 675028480 0 24 0 0
2.9718442 0.59113646 0.28413901 1 675028480 0 24 0 0
2.9719081 0.57221514 0.28380406 1 675028480 0 24 0 0
2.9719698 0.5533371 0.28348035 1 675028480 0 24 0 0
2.9720294 0.53450119 0.28316796 1 675028480 0 24 0 0
2.9720869 0.51570541 0.28286657 1 675028480 0 24 0 0
2.9721422 0.49694893 0.28257638 1 675028480 0 24 0 0
2.9721956 0.4782297 0.28229707 1 675028480 0 24 0 0
2.9722466 0.45954642 0.28202879 1 675028480 0 24 0 0
2.9722958 0.4408977 0.28177151 1 675028480 0 24 0 0
2.9723427 0.4222835 0.28152505 1 675028480 0 24 0 0
2.972388 0.4036994 0.28128934 1 675028480 0 24 0 0
2.9724309 0.38514537 0.28106448 1 675028480 0 24 0 0
2.9724715 0.36662 0.28085041 1 675028480 0 24 0 0
2.9725103 0.34812191 0.28064692 1 675028480 0 24 0 0
2.9725473 0.32964972 0.28045407 1 675028480 0 24 0 0
2.9725816 0.31120196 0.28027192 1 675028480 0 24 0 0
2.9726148 0.29277733 0.28010035 1 675028480 0 24 0 0
2.9726455 0.27437434 0.27993935 1 675028480 0 24 0 0
2.9726741 0.25599164 0.27978879 1 675028480 0 24 0 0
2.9727008 0.23762779 0.2796489 1 675028480 0 24 0 0
2.9727254 0.21928161 0.27951941 1 675028480 0 24 0 0
2.972748 0.20095141 0.27940035 1 675028480 0 24 0 0
2.9727688 0.1826361 0.27929163 1 675028480 0 24 0 0
2.9727876 0.16433422 0.27919343 1 675028480 0 24 0 0
2.9728045 0.14604443 0.27910563 1 675028480 0 24 0 0
2.9728191 0.12776531 0.27902812 1 675028480 0 24 0 0
2.972832 0.10949571 0.27896103 1 675028480 0 24 0 0
2.9728429 0.091234073 0.2789042 1 675028480 0 24 0 0
2.9728518 0.072979107 0.27885783 1 675028480 0 24 0 0
2.9728584 0.054729532 0.27882165 1 675028480 0 24 0 0
2.9728634 0.036483925 0.2787959 1 675028480 0 24 0 0
2.9728665 0.018241039 0.27878043 1 675028480 0 24 0 0
2.9728673 -5.2809713e-07 0.27877533 1 675028480 0 24 0 0
2.9728665 -0.018242102 0.27878043 1 675028480 0 24 0 0
2.9728634 -0.036484994 0.27879599 1 675028480 0 24 0 0
2.9728584 -0.054730549 0.27882168 1 675028480 0 24 0 0
2.9728518 -0.072978713 0.27885783 1 675028480 0 24 0 0
2.9728429 -0.091233678 0.2789042 1 675028480 0 24 0 0
2.9728322 -0.10949531 0.27896097 1 675028480 0 24 0 0
2.9728191 -0.12776501 0.279028 1 675028480 0 24 0 0
2.9728045 -0.14604409 0.27910554 1 675028480 0 24 0 0
2.9727876 -0.16433389 0.27919331 1 675028480 0 24 0 0
2.97855 0.72669494 0.24898601 1 675028480 0 25 0 0
2.9786191 0.70737582 0.24862432 1 675028480 0 25 0 0
2.9786859 0.68811172 0.24827278 1 675028480 0 25 0 0
2.9787512 0.66890085 0.24793142 1 675028480 0 25 0 0
2.9788144 0.64974195 0.2476002 1 675028480 0 25 0 0
2.9788756 0.63063276 0.24727893 1 675028480 0 25 0 0
2.9789348 0.61157215 0.24696773 1 675028480 0 25 0 0
2.9789925 0.59255838 0.24666637 1 675028480 0 25 0 0
2.9790485 0.5735895 0.24637502 1 675028480 0 25 0 0
2.9791021 0.55466485 0.24609339 1 675028480 0 25 0 0
2.9791539 0.53578228 0.24582154 1 675028480 0 25 0 0
2.9792037 0.51694024 0.24555922 1 675028480 0 25 0 0
2.9792519 0.4981375 0.24530667 1 675028480 0 25 0 0
2.9792984 0.47937259 0.24506366 1 675028480 0 25 0 0
2.9793429 0.46064356 0.24483025 1 675028480 0 25 0 0
2.9793856 0.44194934 0.2446062 1 675028480 0 25 0 0
2.9794264 0.42328987 0.24439186 1 675028480 0 25 0 0
2.9794655 0.40466067 0.2441867 1 675028480 0 25 0 0
2.9795032 0.38606161 0.24399108 1 675028480 0 25 0 0
2.9795382 0.3674916 0.24380469 1 675028480 0 25 0 0
2.9795721 0.34894893 0.24362767 1 675028480 0 25 0 0
2.979604 0.33043224 0.24346 1 675028480 0 25 0 0
2.9796343 0.31194028 0.24330139 1 675028480 0 25 0 0
2.9796627 0.29347152 0.24315214 1 675028480 0 25 0 0
2.9796896 0.27502453 0.24301207 1 675028480 0 25 0 0
2.9797146 0.25659791 0.24288106 1 675028480 0 25 0 0
2.9797378 0.23819022 0.24275929 1 675028480 0 25 0 0
2.9797592 0.21980035 0.24264663 1 675028480 0 25 0 0
2.979779 0.20142673 0.24254298 1 675028480 0 25 0 0
2.9797969 0.18306789 0.24244845 1 675028480 0 25 0 0
2.9798136 0.16472264 0.24236298 1 675028480 0 25 0 0
2.9798279 0.14638948 0.24228656 1 675028480 0 25 0 0
2.979841 0.12806711 0.24221915 1 675028480 0 25 0 0
2.979852 0.10975426 0.2421608 1 675028480 0 25 0 0
2.9798613 0.091449432 0.24211133 1 675028480 0 25 0 0
2.9798689 0.073151387 0.24207091 1 675028480 0 25 0 0
2.9798751 0.054858707 0.24203956 1 675028480 0 25 0 0
2.9798794 0.036570039 0.24201721 1 675028480 0 25 0 0
2.9798822 0.018284092 0.24200362 1 675028480 0 25 0 0
2.9798827 -5.221367e-07 0.24199921 1 675028480 0 25 0 0
2.9798818 -0.018285118 0.24200368 1 675028480 0 25 0 0
2.9798794 -0.036571089 0.24201721 1 675028480 0 25 0 0
2.9798751 -0.054859731 0.24203956 1 675028480 0 25 0 0
2.9798694 -0.073150985 0.24207097 1 675028480 0 25 0 0
2.9798617 -0.091449037 0.24211133 1 675028480 0 25 0 0
2.979852 -0.1097539 0.24216068 1 675028480 0 25 0 0
2.979841 -0.12806678 0.24221897 1 675028480 0 25 0 0
2.9798281 -0.14638916 0.24228644 1 675028480 0 25 0 0
2.9798136 -0.16472225 0.24236298 1 675028480 0 25 0 0
2.9797969 -0.18306753 0.24244839 1 675028480 0 25 0 0
2.979779 -0.20142639 0.24254292 1 675028480 0 25 0 0
2.9856625 0.76736921 0.21170187 1 675028480 0 26 0 0
2.9857244 0.74788517 0.21137679 1 675028480 0 26 0 0
2.9857848 0.72845984 0.2110607 1 675028480 0 26 0 0
2.9858434 0.70909142 0.21075332 1 675028480 0 26 0 0
2.9859002 0.68977827 0.21045452 1 675028480 0 26 0 0
2.9859555 0.67051893 0.21016455 1 675028480 0 26 0 0
2.9860091 0.65131116 0.20988303 1 675028480 0 26 0 0
2.9860613 0.63215399 0.2096101 1 675028480 0 26 0 0
2.9861119 0.61304551 0.2093457 1 675028480 0 26 0 0
2.9861608 0.59398401 0.2090897 1 675028480 0 26 0 0
2.9862082 0.57496804 0.20884204 1 675028480 0 26 0 0
2.9862535 0.55599654 0.20860273 1 675028480 0 26 0 0
2.9862978 0.53706717 0.20837164 1 675028480 0 26 0 0
2.9863403 0.51817864 0.20814884 1 675028480 0 26 0 0
2.9863811 0.4993296 0.20793426 1 675028480 0 26 0 0
2.9864206 0.48051843 0.20772785 1 675028480 0 26 0 0
2.9864583 0.46174389 0.20752937 1 675028480 0 26 0 0
2.9864948 0.44300398 0.20733917 1 675028480 0 26 0 0
2.9865294 0.42429897 0.2071569 1 675028480 0 26 0 0
2.9865627 0.40562457 0.20698261 1 675028480 0 26 0 0
2.9865944 0.3869805 0.20681638 1 675028480 0 26 0 0
2.9866247 0.36836556 0.20665812 1 675028480 0 26 0 0
2.9866531 0.34977829 0.20650768 1 675028480 0 26 0 0
2.9866803 0.33121708 0.20636517 1 675028480 0 26 0 0
2.9867058 0.31268063 0.20623046 1 675028480 0 26 0 0
2.9867303 0.2941677 0.20610362 1 675028480 0 26 0 0
2.9867532 0.27567655 0.20598453 1 675028480 0 26 0 0
2.9867742 0.25720593 0.20587331 1 675028480 0 26 0 0
2.986794 0.23875442 0.20576984 1 675028480 0 26 0 0
2.9868121 0.22032066 0.20567411 1 675028480 0 26 0 0
2.9868288 0.20190331 0.20558608 1 675028480 0 26 0 0
2.9868441 0.18350083 0.20550579 1 675028480 0 26 0 0
2.9868581 0.16511209 0.20543307 1 675028480 0 26 0 0
2.9868703 0.14673552 0.20536822 1 675028480 0 26 0 0
2.9868817 0.12836972 0.20531088 1 675028480 0 26 0 0
2.9868908 0.11001352 0.20526135 1 675028480 0 26 0 0
2.9868987 0.09166541 0.20521939 1 675028480 0 26 0 0
2.9869053 0.073324114 0.20518506 1 675028480 0 26 0 0
2.9869103 0.054988217 0.20515835 1 675028480 0 26 0 0
2.9869139 0.036656369 0.20513928 1 675028480 0 26 0 0
2.9869161 0.018327264 0.20512784 1 675028480 0 26 0 0
2.986917 -5.1498409e-07 0.20512402 1 675028480 0 26 0 0
2.9869165 -0.018328279 0.20512789 1 675028480 0 26 0 0
2.9869144 -0.036657419 0.20513922 1 675028480 0 26 0 0
2.9869106 -0.054989252 0.20515835 1 675028480 0 26 0 0
2.9869058 -0.073323734 0.205185 1 675028480 0 26 0 0
2.9868991 -0.091665015 0.20521939 1 675028480 0 26 0 0
2.986891 -0.11001316 0.20526129 1 675028480 0 26 0 0
2.9868813 -0.12836939 0.20531082 1 675028480 0 26 0 0
2.9868708 -0.14673513 0.20536816 1 675028480 0 26 0 0
2.9868581 -0.16511168 0.20543301 1 675028480 0 26 0 0
2.9868443 -0.18350044 0.20550573 1 675028480 0 26 0 0
2.986829 -0.2019029 0.20558614 1 675028480 0 26 0 0
2.9868124 -0.22032025 0.20567411 1 675028480 0 26 0 0
2.9927804 0.82821399 0.17438787 1 675028480 0 27 0 0
2.9928355 0.80849236 0.17409873 1 675028480 0 27 0 0
2.9928894 0.78883481 0.17381704 1 675028480 0 27 0 0
2.9929416 0.76924002 0.17354274 1 675028480 0 27 0 0
2.9929924 0.74970579 0.17327565 1 675028480 0 27 0 0
2.9930422 0.73023045 0.17301589 1 675028480 0 27 0 0
2.9930904 0.71081245 0.17276335 1 675028480 0 27 0 0
2.9931371 0.69144988 0.1725179 1 675028480 0 27 0 0
2.9931827 0.67214161 0.17227948 1 675028480 0 27 0 0
2.9932268 0.6528855 0.17204821 1 675028480 0 27 0 0
2.9932697 0.63367987 0.17182392 1 675028480 0 27 0 0
2.9933112 0.61452335 0.1716066 1 675028480 0 27 0 0
2.993351 0.5954144 0.17139632 1 675028480 0 27 0 0
2.9933898 0.57635099 0.17119277 1 675028480 0 27 0 0
2.9934273 0.5573321 0.17099613 1 675028480 0 27 0 0
2.9934638 0.53835595 0.17080623 1 675028480 0 27 0 0
2.9934988 0.51942086 0.17062312 1 675028480 0 27 0 0
2.9935319 0.50052536 0.17044681 1 675028480 0 27 0 0
2.9935644 0.48166788 0.17027718 1 675028480 0 27 0 0
2.9935956 0.46284723 0.17011428 1 675028480 0 27 0 0
2.9936254 0.44406176 0.16995788 1 675028480 0 27 0 0
2.993654 0.42531124 0.16980815 1 675028480 0 27 0 0
2.9936817 0.40659142 0.16966498 1 675028480 0 27 0 0
2.9937074 0.3879022 0.16952831 1 675028480 0 27 0 0
2.9937322 0.36924225 0.16939825 1 675028480 0 27 0 0
2.9937558 0.35061017 0.16927463 1 675028480 0 27 0 0
2.993778 0.33200425 0.16915756 1 675028480 0 27 0 0
2.9937994 0.31342325 0.16904694 1 675028480 0 27 0 0
2.9938192 0.29486579 0.16894269 1 675028480 0 27 0 0
2.9938378 0.27633044 0.16884488 1 675028480 0 27 0 0
2.9938552 0.25781575 0.1687535 1 675028480 0 27 0 0
2.9938715 0.23932011 0.16866839 1 675028480 0 27 0 0
2.9938867 0.2208425 0.16858977 1 675028480 0 27 0 0
2.9939001 0.20238122 0.16851753 1 675028480 0 27 0 0
2.9939129 0.18393512 0.16845143 1 675028480 0 27 0 0
2.9939241 0.16550264 0.16839182 1 675028480 0 27 0 0
2.9939342 0.14708249 0.16833854 1 675028480 0 27 0 0
2.9939435 0.12867324 0.16829139 1 675028480 0 27 0 0
2.9939511 0.11027357 0.16825062 1 675028480 0 27 0 0
2.9939578 0.091882057 0.16821605 1 675028480 0 27 0 0
2.993963 0.07349737 0.16818792 1 675028480 0 27 0 0
2.9939673 0.055118117 0.16816604 1 675028480 0 27 0 0
2.9939702 0.036742967 0.16815031 1 675028480 0 27 0 0
2.9939721 0.01837053 0.16814095 1 675028480 0 27 0 0
2.9939728 -5.1379203e-07 0.16813779 1 675028480 0 27 0 0
2.9939721 -0.018371589 0.16814095 1 675028480 0 27 0 0
2.9939702 -0.036744013 0.16815037 1 675028480 0 27 0 0
2.9939673 -0.055119175 0.1681661 1 675028480 0 27 0 0
2.9939632 -0.07349699 0.16818792 1 675028480 0 27 0 0
2.9939578 -0.091881633 0.16821617 1 675028480 0 27 0 0
2.9939513 -0.1102732 0.16825062 1 675028480 0 27 0 0
2.9939435 -0.12867287 0.16829139 1 675028480 0 27 0 0
2.9939346 -0.14708208 0.16833854 1 675028480 0 27 0 0
2.9939241 -0.16550222 0.16839182 1 675028480 0 27 0 0
2.9939129 -0.18393472 0.16845149 1 675028480 0 27 0 0
2.9939003 -0.20238082 0.16851753 1 675028480 0 27 0 0
2.9938867 -0.22084209 0.16858977 1 675028480 0 27 0 0
2.9938715 -0.23931968 0.16866851 1 675028480 0 27 0 0
2.9938552 -0.25781527 0.1687535 1 675028480 0 27 0 0
3.0000305 0.86999303 0.13638067 1 675028480 0 28 0 0
3.0000758 0.8500849 0.13614303 1 675028480 0 28 0 0
3.0001202 0.83024502 0.13591141 1 675028480 0 28 0 0
3.0001631 0.81047183 0.13568538 1 675028480 0 28 0 0
3.0002053 0.79076308 0.1354652 1 675028480 0 28 0 0
3.0002463 0.77111739 0.13525099 1 675028480 0 28 0 0
3.0002859 0.75153255 0.13504249 1 675028480 0 28 0 0
3.0003247 0.73200715 0.13483936 1 675028480 0 28 0 0
3.0003622 0.71253914 0.134642 1 675028480 0 28 0 0
3.0003989 0.69312721 0.13445044 1 675028480 0 28 0 0
3.0004342 0.67376989 0.13426411 1 675028480 0 28 0 0
3.0004687 0.65446472 0.13408351 1 675028480 0 28 0 0
3.0005023 0.63521099 0.13390827 1 675028480 0 28 0 0
3.0005345 0.61600626 0.13373852 1 675028480 0 28 0 0
3.000566 0.5968495 0.13357413 1 675028480 0 28 0 0
3.0005963 0.57773858 0.13341522 1 675028480 0 28 0 0
3.0006256 0.55867237 0.13326144 1 675028480 0 28 0 0
3.000654 0.53964895 0.13311321 1 675028480 0 28 0 0
3.0006812 0.5206669 0.13297027 1 675028480 0 28 0 0
3.0007074 0.50172502 0.13283229 1 675028480 0 28 0 0
3.0007327 0.48282138 0.13269979 1 675028480 0 28 0 0
3.000757 0.46395445 0.13257259 1 675028480 0 28 0 0
3.0007803 0.44512287 0.13245046 1 675028480 0 28 0 0
3.0008025 0.42632675 0.13233346 1 675028480 0 28 0 0
3.000824 0.40756148 0.13222164 1 675028480 0 28 0 0
3.0008442 0.38882691 0.13211495 1 675028480 0 28 0 0
3.0008636 0.37012181 0.13201338 1 675028480 0 28 0 0
3.0008821 0.35144463 0.1319167 1 675028480 0 28 0 0
3.0008996 0.33279398 0.13182533 1 675028480 0 28 0 0
3.000916 0.31416827 0.13173884 1 675028480 0 28 0 0
3.0009317 0.29556629 0.13165736 1 675028480 0 28 0 0
3.0009463 0.27698657 0.13158101 1 675028480 0 28 0 0
3.0009601 0.25842747 0.13150966 1 675028480 0 28 0 0
3.0009725 0.23988768 0.13144314 1 675028480 0 28 0 0
3.0009842 0.221366 0.13138175 1 675028480 0 28 0 0
3.0009947 0.20286076 0.13132519 1 675028480 0 28 0 0
3.0010049 0.18437076 0.13127369 1 675028480 0 28 0 0
3.0010138 0.16589452 0.1312272 1 675028480 0 28 0 0
3.0010216 0.14743064 0.13118541 1 675028480 0 28 0 0
3.0010288 0.12897776 0.13114858 1 675028480 0 28 0 0
3.0010347 0.11053446 0.13111687 1 675028480 0 28 0 0
3.00104 0.092099376 0.13108993 1 675028480 0 28 0 0
3.001044 0.073671177 0.13106781 1 675028480 0 28 0 0
3.0010474 0.055248413 0.13105071 1 675028480 0 28 0 0
3.0010498 0.036829855 0.13103849 1 675028480 0 28 0 0
3.0010509 0.018413985 0.13103116 1 675028480 0 28 0 0
3.0010517 -5.1915646e-07 0.13102871 1 675028480 0 28 0 0
3.0010509 -0.018415052 0.13103116 1 675028480 0 28 0 0
3.0010498 -0.036830902 0.13103849 1 675028480 0 28 0 0
3.0010474 -0.055249538 0.13105077 1 675028480 0 28 0 0
3.0010443 -0.073670812 0.13106781 1 675028480 0 28 0 0
3.00104 -0.092099048 0.13108987 1 675028480 0 28 0 0
3.0010347 -0.11053409 0.13111675 1 675028480 0 28 0 0
3.0010288 -0.12897736 0.13114864 1 675028480 0 28 0 0
3.0010216 -0.1474303 0.13118535 1 675028480 0 28 0 0
3.0010138 -0.16589418 0.13122708 1 675028480 0 28 0 0
3.0010049 -0.18437044 0.13127381 1 675028480 0 28 0 0
3.0009952 -0.20286041 0.13132536 1 675028480 0 28 0 0
3.0009844 -0.22136563 0.13138175 1 675028480 0 28 0 0
3.0009725 -0.2398874 0.13144314 1 675028480 0 28 0 0
3.0009596 -0.25842705 0.1315096 1 675028480 0 28 0 0
3.0009463 -0.27698615 0.13158101 1 675028480 0 28 0 0
3.0073214 0.93245041 0.098161578 1 675028480 0 29 0 0
3.0073564 0.91227221 0.097978294 1 675028480 0 29 0 0
3.0073907 0.89216846 0.097799182 1 675028480 0 29 0 0
3.0074239 0.87213749 0.097624421 1 675028480 0 29 0 0
3.0074563 0.85217619 0.097453833 1 675028480 0 29 0 0
3.007488 0.83228409 0.097287595 1 675028480 0 29 0 0
3.0075188 0.81245875 0.097125471 1 675028480 0 29 0 0
3.007549 0.79269874 0.096967578 1 675028480 0 29 0 0
3.0075784 0.77300197 0.096813798 1 675028480 0 29 0 0
3.007607 0.75336659 0.096664011 1 675028480 0 29 0 0
3.0076344 0.73379058 0.096518457 1 675028480 0 29 0 0
3.0076616 0.71427262 0.096376836 1 675028480 0 29 0 0
3.0076878 0.69481117 0.096239209 1 675028480 0 29 0 0
3.0077133 0.67540449 0.096105635 1 675028480 0 29 0 0
3.0077384 0.6560505 0.095975995 1 675028480 0 29 0 0
3.007762 0.63674766 0.095850289 1 675028480 0 29 0 0
3.0077853 0.61749488 0.095728338 1 675028480 0 29 0 0
3.0078077 0.59828991 0.095610559 1 675028480 0 29 0 0
3.0078294 0.57913119 0.095496416 1 675028480 0 29 0 0
3.0078506 0.56001753 0.095386207 1 675028480 0 29 0 0
3.0078709 0.54094702 0.095279753 1 675028480 0 29 0 0
3.0078905 0.521918 0.095177233 1 675028480 0 29 0 0
3.0079095 0.50292921 0.095078349 1 675028480 0 29 0 0
3.0079274 0.4839789 0.094983339 1 675028480 0 29 0 0
3.0079448 0.46506572 0.094891965 1 675028480 0 29 0 0
3.0079618 0.44618812 0.094804347 1 675028480 0 29 0 0
3.0079775 0.42734599 0.094720423 1 675028480 0 29 0 0
3.0079927 0.40853506 0.094640255 1 675028480 0 29 0 0
3.0080075 0.38975492 0.094563723 1 675028480 0 29 0 0
3.0080214 0.37100473 0.094490647 1 675028480 0 29 0 0
3.0080347 0.35228229 0.094421387 1 675028480 0 29 0 0
3.0080471 0.33358675 0.094355762 1 675028480 0 29 0 0
3.008059 0.31491613 0.094293654 1 675028480 0 29 0 0
3.0080702 0.29626948 0.094235301 1 675028480 0 29 0 0
3.0080807 0.27764502 0.094180584 1 675028480 0 29 0 0
3.0080905 0.25904146 0.094129264 1 675028480 0 29 0 0
3.0080996 0.24045737 0.09408164 1 675028480 0 29 0 0
3.0081079 0.22189143 0.094037533 1 675028480 0 29 0 0
3.0081158 0.20334217 0.093997002 1 675028480 0 29 0 0
3.0081227 0.18480806 0.093959928 1 675028480 0 29 0 0
3.0081291 0.16628787 0.093926609 1 675028480 0 29 0 0
3.0081351 0.14778008 0.093896627 1 675028480 0 29 0 0
3.0081398 0.12928338 0.093870223 1 675028480 0 29 0 0
3.0081441 0.11079636 0.093847334 1 675028480 0 29 0 0
3.0081477 0.092317492 0.093828082 1 675028480 0 29 0 0
3.0081508 0.073845655 0.093812287 1 675028480 0 29 0 0
3.0081532 0.055379294 0.093799949 1 675028480 0 29 0 0
3.0081549 0.036917031 0.093791187 1 675028480 0 29 0 0
3.0081561 0.018457545 0.093786001 1 675028480 0 29 0 0
3.0081563 -5.3167344e-07 0.093784213 1 675028480 0 29 0 0
3.0081561 -0.018458623 0.093786001 1 675028480 0 29 0 0
3.0081549 -0.036918104 0.093791246 1 675028480 0 29 0 0
3.0081532 -0.055380303 0.093800008 1 675028480 0 29 0 0
3.0081508 -0.073845237 0.093812287 1 675028480 0 29 0 0
3.0081477 -0.092317171 0.093828082 1 675028480 0 29 0 0
3.0081441 -0.11079594 0.093847454 1 675028480 0 29 0 0
3.0081398 -0.12928303 0.093870223 1 675028480 0 29 0 0
3.0081346 -0.14777973 0.093896687 1 675028480 0 29 0 0
3.0081291 -0.1662875 0.093926609 1 675028480 0 29 0 0
3.0081224 -0.1848077 0.093959987 1 675028480 0 29 0 0
3.0081158 -0.20334186 0.093996942 1 675028480 0 29 0 0
3.0081079 -0.22189109 0.094037533 1 675028480 0 29 0 0
3.0080996 -0.24045709 0.094081581 1 675028480 0 29 0 0
3.0080905 -0.25904116 0.094129264 1 675028480 0 29 0 0
3.0080807 -0.27764469 0.094180524 1 675028480 0 29 0 0
3.0080702 -0.29626912 0.094235301 1 675028480 0 29 0 0
3.008059 -0.31491578 0.094293714 1 675028480 0 29 0 0
3.0147195 0.99592823 0.059378386 1 675028480 0 30 0 0
3.0147421 0.97546154 0.059260011 1 675028480 0 30 0 0
3.0147643 0.95507389 0.05914402 1 675028480 0 30 0 0
3.014786 0.93476456 0.05903095 1 675028480 0 30 0 0
3.014807 0.91453254 0.058920324 1 675028480 0 30 0 0
3.0148275 0.89437497 0.058812439 1 675028480 0 30 0 0
3.0148478 0.87429047 0.058706999 1 675028480 0 30 0 0
3.0148675 0.85427636 0.05860436 1 675028480 0 30 0 0
3.0148864 0.83433211 0.058503926 1 675028480 0 30 0 0
3.014905 0.81445432 0.058406353 1 675028480 0 30 0 0
3.0149233 0.79464239 0.058311045 1 675028480 0 30 0 0
3.014941 0.77489406 0.05821836 1 675028480 0 30 0 0
3.0149581 0.75520784 0.058128178 1 675028480 0 30 0 0
3.0149748 0.73558128 0.05804044 1 675028480 0 30 0 0
3.014991 0.71601337 0.057954967 1 675028480 0 30 0 0
3.015007 0.69650215 0.057872117 1 675028480 0 30 0 0
3.0150223 0.67704558 0.05779165 1 675028480 0 30 0 0
3.0150371 0.6576429 0.057713389 1 675028480 0 30 0 0
3.0150518 0.63829106 0.057637632 1 675028480 0 30 0 0
3.0150659 0.61898953 0.057564199 1 675028480 0 30 0 0
3.0150793 0.59973615 0.057493091 1 675028480 0 30 0 0
3.0150921 0.58052969 0.057424307 1 675028480 0 30 0 0
3.015105 0.56136817 0.057357848 1 675028480 0 30 0 0
3.0151172 0.54225016 0.057293773 1 675028480 0 30 0 0
3.0151291 0.52317411 0.057231784 1 675028480 0 30 0 0
3.0151403 0.50413823 0.057172358 1 675028480 0 30 0 0
3.0151513 0.4851414 0.057115018 1 675028480 0 30 0 0
3.0151618 0.46618167 0.057060063 1 675028480 0 30 0 0
3.0151718 0.44725776 0.057007194 1 675028480 0 30 0 0
3.0151815 0.42836958 0.056956589 1 675028480 0 30 0 0
3.0151906 0.40951264 0.05690825 1 675028480 0 30 0 0
3.0151994 0.3906869 0.056862056 1 675028480 0 30 0 0
3.0152078 0.3718909 0.056818187 1 675028480 0 30 0 0
3.0152159 0.3531234 0.056776345 1 675028480 0 30 0 0
3.0152235 0.33438253 0.056736827 1 675028480 0 30 0 0
3.0152307 0.31566694 0.056699455 1 675028480 0 30 0 0
3.0152373 0.29697531 0.056664169 1 675028480 0 30 0 0
3.0152438 0.27830622 0.056631148 1 675028480 0 30 0 0
3.0152495 0.25965804 0.056600273 1 675028480 0 30 0 0
3.015255 0.24102955 0.056571484 1 675028480 0 30 0 0
3.01526 0.22241914 0.05654496 1 675028480 0 30 0 0
3.0152645 0.2038254 0.056520522 1 675028480 0 30 0 0
3.015269 0.18524721 0.056498289 1 675028480 0 30 0 0
3.0152729 0.16668281 0.056478083 1 675028480 0 30 0 0
3.0152764 0.14813092 0.056460083 1 675028480 0 30 0 0
3.0152795 0.12959023 0.056444228 1 675028480 0 30 0 0
3.0152819 0.11105923 0.05643028 1 675028480 0 30 0 0
3.0152841 0.092536546 0.056418657 1 675028480 0 30 0 0
3.015286 0.074020796 0.056409121 1 675028480 0 30 0 0
3.0152874 0.055510595 0.05640173 1 675028480 0 30 0 0
3.0152884 0.037004571 0.056396365 1 675028480 0 30 0 0
3.0152888 0.018501371 0.056393504 1 675028480 0 30 0 0
3.0152888 -4.8637389e-07 0.056392372 1 675028480 0 30 0 0
3.0152888 -0.018502342 0.056393325 1 675028480 0 30 0 0
3.0152884 -0.037005629 0.056396484 1 675028480 0 30 0 0
3.0152874 -0.055511665 0.056401789 1 675028480 0 30 0 0
3.015286 -0.07402043 0.056409121 1 675028480 0 30 0 0
3.0152841 -0.092536151 0.056418657 1 675028480 0 30 0 0
3.0152819 -0.1110588 0.05643034 1 675028480 0 30 0 0
3.0152791 -0.12958986 0.056444168 1 675028480 0 30 0 0
3.0152762 -0.14813055 0.056460023 1 675028480 0 30 0 0
3.0152729 -0.16668239 0.056477964 1 675028480 0 30 0 0
3.0152688 -0.18524678 0.05649817 1 675028480 0 30 0 0
3.0152645 -0.20382507 0.056520522 1 675028480 0 30 0 0
3.01526 -0.22241867 0.05654496 1 675028480 0 30 0 0
3.015255 -0.24102913 0.056571484 1 675028480 0 30 0 0
3.0152495 -0.25965765 0.056600153 1 675028480 0 30 0 0
3.0152435 -0.2783058 0.056631088 1 675028480 0 30 0 0
3.0222542 1.0190277 0.019880712 1 675028480 0 31 0 0
3.0222619 0.99841994 0.019840121 1 675028480 0 31 0 0
3.0222695 0.97789717 0.019800425 1 675028480 0 31 0 0
3.0222769 0.95745373 0.019761622 1 675028480 0 31 0 0
3.0222843 0.93708938 0.019723773 1 675028480 0 31 0 0
3.0222912 0.91680282 0.019686699 1 675028480 0 31 0 0
3.0222981 0.89659089 0.019650578 1 675028480 0 31 0 0
3.0223045 0.87645274 0.019615293 1 675028480 0 31 0 0
3.0223112 0.85638577 0.019580841 1 675028480 0 31 0 0
3.0223176 0.83638847 0.019547343 1 675028480 0 31 0 0
3.0223238 0.8164587 0.01951462 1 675028480 0 31 0 0
3.0223303 0.79659462 0.019482791 1 675028480 0 31 0 0
3.022336 0.77679485 0.019451559 1 675028480 0 31 0 0
3.0223417 0.75705731 0.019421458 1 675028480 0 31 0 0
3.0223475 0.73738003 0.019392133 1 675028480 0 31 0 0
3.0223529 0.71776205 0.019363284 1 675028480 0 31 0 0
3.0223579 0.69820064 0.019335508 1 675028480 0 31 0 0
3.0223632 0.67869443 0.019308686 1 675028480 0 31 0 0
3.0223684 0.6592418 0.01928246 1 675028480 0 31 0 0
3.0223732 0.63984114 0.019257128 1 675028480 0 31 0 0
3.022378 0.62049091 0.019232452 1 675028480 0 31 0 0
3.0223825 0.60118902 0.01920867 1 675028480 0 31 0 0
3.0223868 0.58193409 0.019185781 1 675028480 0 31 0 0
3.0223911 0.56272477 0.01916343 1 675028480 0 31 0 0
3.0223949 0.54355896 0.019141972 1 675028480 0 31 0 0
3.0223989 0.52443546 0.01912123 1 675028480 0 31 0 0
3.0224028 0.50535238 0.019101322 1 675028480 0 31 0 0
3.0224066 0.48630863 0.019082069 1 675028480 0 31 0 0
3.0224099 0.46730232 0.019063711 1 675028480 0 31 0 0
3.0224133 0.44833195 0.019046009 1 675028480 0 31 0 0
3.0224164 0.42939726 0.019029081 1 675028480 0 31 0 0
3.0224195 0.41049433 0.019012988 1 675028480 0 31 0 0
3.0224228 0.39162275 0.01899749 1 675028480 0 31 0 0
3.0224254 0.3727811 0.018982649 1 675028480 0 31 0 0
3.0224283 0.35396785 0.018968701 1 675028480 0 31 0 0
3.0224307 0.33518165 0.018955469 1 675028480 0 31 0 0
3.022433 0.316421 0.018942833 1 675028480 0 31 0 0
3.0224352 0.29768431 0.018931091 1 675028480 0 31 0 0
3.0224373 0.27897021 0.018920064 1 675028480 0 31 0 0
3.0224395 0.26027718 0.018909693 1 675028480 0 31 0 0
3.0224409 0.24160393 0.018900037 1 675028480 0 31 0 0
3.0224428 0.22294891 0.018891096 1 675028480 0 31 0 0
3.0224445 0.20431073 0.018883049 1 675028480 0 31 0 0
3.0224459 0.18568809 0.018875539 1 675028480 0 31 0 0
3.0224471 0.16707937 0.018868923 1 675028480 0 31 0 0
3.0224483 0.14848328 0.018862724 1 675028480 0 31 0 0
3.0224493 0.12989837 0.018857479 1 675028480 0 31 0 0
3.0224502 0.11132321 0.01885283 1 675028480 0 31 0 0
3.0224507 0.092756495 0.018848836 1 675028480 0 31 0 0
3.0224516 0.074196689 0.018845797 1 675028480 0 31 0 0
3.0224521 0.055642545 0.018843353 1 675028480 0 31 0 0
3.0224524 0.037092533 0.018841505 1 675028480 0 31 0 0
3.0224526 0.018545283 0.018840492 1 675028480 0 31 0 0
3.0224526 -5.1021573e-07 0.018840075 1 675028480 0 31 0 0
3.0224526 -0.018546367 0.018840492 1 675028480 0 31 0 0
3.0224524 -0.037093543 0.018841386 1 675028480 0 31 0 0
3.0224521 -0.055643559 0.018843234 1 675028480 0 31 0 0
3.0224514 -0.074196309 0.018845737 1 675028480 0 31 0 0
3.0224512 -0.092756137 0.018848836 1 675028480 0 31 0 0
3.0224502 -0.11132284 0.01885283 1 675028480 0 31 0 0
3.0224493 -0.12989801 0.018857479 1 675028480 0 31 0 0
3.0224481 -0.14848284 0.018862724 1 675028480 0 31 0 0
3.0224471 -0.167079 0.018868685 1 675028480 0 31 0 0
3.0224457 -0.18568765 0.01887548 1 675028480 0 31 0 0
3.0224445 -0.20431036 0.018882871 1 675028480 0 31 0 0
3.0224428 -0.22294851 0.018891215 1 675028480 0 31 0 0
3.0298409 1.0009238 -0.019890308 1 675028480 0 32 0 0
3.0298333 0.98034447 -0.019850314 1 675028480 0 32 0 0
3.0298257 0.95984524 -0.019811332 1 675028480 0 32 0 0
3.0298183 0.93942547 -0.019773185 1 675028480 0 32 0 0
3.0298114 0.91908389 -0.019735992 1 675028480 0 32 0 0
3.0298042 0.89881772 -0.019699752 1 675028480 0 32 0 0
3.0297976 0.87862569 -0.019664109 1 675028480 0 32 0 0
3.0297911 0.85850513 -0.019629538 1 675028480 0 32 0 0
3.0297847 0.83845496 -0.019595802 1 675028480 0 32 0 0
3.0297785 0.81847262 -0.01956284 1 675028480 0 32 0 0
3.0297723 0.79855645 -0.019530714 1 675028480 0 32 0 0
3.0297661 0.77870458 -0.0194996 1 675028480 0 32 0 0
3.0297604 0.75891608 -0.019469321 1 675028480 0 32 0 0
3.0297549 0.73918778 -0.019439816 1 675028480 0 32 0 0
3.0297494 0.71951866 -0.019411027 1 675028480 0 32 0 0
3.0297439 0.699907 -0.019383192 1 675028480 0 32 0 0
3.0297389 0.68035084 -0.019356012 1 675028480 0 32 0 0
3.0297339 0.66084868 -0.019329786 1 675028480 0 32 0 0
3.0297289 0.64139831 -0.019304037 1 675028480 0 32 0 0
3.0297244 0.62199944 -0.019279659 1 675028480 0 32 0 0
3.0297198 0.60264856 -0.019255519 1 675028480 0 32 0 0
3.0297153 0.58334535 -0.019232452 1 675028480 0 32 0 0
3.029711 0.56408787 -0.01921016 1 675028480 0 32 0 0
3.029707 0.54487419 -0.019188583 1 675028480 0 32 0 0
3.0297029 0.52570277 -0.019167483 1 675028480 0 32 0 0
3.0296991 0.50657231 -0.019147515 1 675028480 0 32 0 0
3.0296953 0.48748145 -0.019128263 1 675028480 0 32 0 0
3.0296919 0.46842828 -0.019109726 1 675028480 0 32 0 0
3.0296884 0.44941118 -0.019092023 1 675028480 0 32 0 0
3.0296853 0.43043008 -0.019075036 1 675028480 0 32 0 0
3.0296822 0.41148078 -0.019058526 1 675028480 0 32 0 0
3.0296793 0.39256305 -0.019043088 1 675028480 0 32 0 0
3.0296764 0.37367547 -0.019028246 1 675028480 0 32 0 0
3.0296736 0.35481644 -0.019014239 1 675028480 0 32 0 0
3.0296712 0.33598468 -0.019001007 1 675028480 0 32 0 0
3.0296688 0.31717846 -0.018988371 1 675028480 0 32 0 0
3.0296664 0.2983965 -0.01897651 1 675028480 0 32 0 0
3.0296643 0.27963725 -0.018965483 1 675028480 0 32 0 0
3.0296624 0.26089919 -0.018955112 1 675028480 0 32 0 0
3.0296605 0.24218106 -0.018945396 1 675028480 0 32 0 0
3.0296588 0.22348124 -0.018936455 1 675028480 0 32 0 0
3.0296571 0.20479839 -0.01892817 1 675028480 0 32 0 0
3.0296557 0.18613106 -0.018920779 1 675028480 0 32 0 0
3.0296545 0.16747774 -0.018913805 1 675028480 0 32 0 0
3.0296535 0.14883727 -0.018907785 1 675028480 0 32 0 0
3.0296524 0.13020791 -0.01890254 1 675028480 0 32 0 0
3.0296514 0.11158846 -0.018897891 1 675028480 0 32 0 0
3.0296507 0.092977487 -0.018893957 1 675028480 0 32 0 0
3.0296502 0.074373394 -0.018890679 1 675028480 0 32 0 0
3.0296495 0.05577505 -0.018888235 1 675028480 0 32 0 0
3.0296493 0.037180893 -0.018886447 1 675028480 0 32 0 0
3.0296493 0.018589502 -0.018885374 1 675028480 0 32 0 0
3.029649 -4.9829481e-07 -0.018884957 1 675028480 0 32 0 0
3.0296493 -0.018590497 -0.018885434 1 675028480 0 32 0 0
3.0296493 -0.037181884 -0.018886507 1 675028480 0 32 0 0
3.0296495 -0.055776108 -0.018888354 1 675028480 0 32 0 0
3.0296502 -0.074373052 -0.018890798 1 675028480 0 32 0 0
3.0296507 -0.092977092 -0.018893957 1 675028480 0 32 0 0
3.0296514 -0.11158808 -0.018897951 1 675028480 0 32 0 0
3.0296524 -0.13020757 -0.01890254 1 675028480 0 32 0 0
3.0296535 -0.14883685 -0.018907845 1 675028480 0 32 0 0
3.0296547 -0.16747746 -0.018913984 1 675028480 0 32 0 0
3.0374136 0.96224898 -0.059588611 1 675028480 0 33 0 0
3.0373917 0.94177383 -0.059473753 1 675028480 0 33 0 0
3.0373702 0.921377 -0.059361458 1 675028480 0 33 0 0
3.0373492 0.90105617 -0.059251785 1 675028480 0 33 0 0
3.0373287 0.88080984 -0.059144914 1 675028480 0 33 0 0
3.0373089 0.86063546 -0.059040606 1 675028480 0 33 0 0
3.0372896 0.84053165 -0.058938742 1 675028480 0 33 0 0
3.0372708 0.82049626 -0.05883956 1 675028480 0 33 0 0
3.0372522 0.80052769 -0.058743 1 675028480 0 33 0 0
3.0372341 0.78062391 -0.058648944 1 675028480 0 33 0 0
3.0372167 0.76078349 -0.058557391 1 675028480 0 33 0 0
3.0372 0.74100417 -0.058468401 1 675028480 0 33 0 0
3.0371835 0.72128409 -0.058381736 1 675028480 0 33 0 0
3.0371673 0.70162189 -0.058297694 1 675028480 0 33 0 0
3.0371518 0.68201554 -0.058215976 1 675028480 0 33 0 0
3.0371368 0.66246331 -0.058136523 1 675028480 0 33 0 0
3.037122 0.64296353 -0.058059692 1 675028480 0 33 0 0
3.0371077 0.62351501 -0.057985187 1 675028480 0 33 0 0
3.0370941 0.60411537 -0.057913065 1 675028480 0 33 0 0
3.0370805 0.58476353 -0.057843328 1 675028480 0 33 0 0
3.0370679 0.56545752 -0.057775915 1 675028480 0 33 0 0
3.0370553 0.54619581 -0.057710826 1 675028480 0 33 0 0
3.0370433 0.52697676 -0.057648122 1 675028480 0 33 0 0
3.0370319 0.50779849 -0.057587504 1 675028480 0 33 0 0
3.0370207 0.48866019 -0.05752933 1 675028480 0 33 0 0
3.0370102 0.46955982 -0.05747354 1 675028480 0 33 0 0
3.0369997 0.45049563 -0.057419896 1 675028480 0 33 0 0
3.0369899 0.43146804 -0.057368636 1 675028480 0 33 0 0
3.0369809 0.41247207 -0.057319582 1 675028480 0 33 0 0
3.0369716 0.39350802 -0.057272732 1 675028480 0 33 0 0
3.0369635 0.37457424 -0.057228029 1 675028480 0 33 0 0
3.0369551 0.35566923 -0.05718559 1 675028480 0 33 0 0
3.0369475 0.33679157 -0.057145476 1 675028480 0 33 0 0
3.0369403 0.3179397 -0.057107627 1 675028480 0 33 0 0
3.0369334 0.29911217 -0.057071924 1 675028480 0 33 0 0
3.0369272 0.28030747 -0.057038367 1 675028480 0 33 0 0
3.0369213 0.26152429 -0.057007134 1 675028480 0 33 0 0
3.0369155 0.242761 -0.056977987 1 675028480 0 33 0 0
3.0369105 0.22401622 -0.056951106 1 675028480 0 33 0 0
3.0369058 0.20528837 -0.056926191 1 675028480 0 33 0 0
3.0369015 0.18657617 -0.056903601 1 675028480 0 33 0 0
3.0368974 0.16787811 -0.056883156 1 675028480 0 33 0 0
3.0368941 0.14919294 -0.056864917 1 675028480 0 33 0 0
3.036891 0.130519 -0.056848824 1 675028480 0 33 0 0
3.0368884 0.11185499 -0.056834757 1 675028480 0 33 0 0
3.036886 0.093199477 -0.056823075 1 675028480 0 33 0 0
3.0368841 0.074551009 -0.056813359 1 675028480 0 33 0 0
3.0368829 0.055908192 -0.056805789 1 675028480 0 33 0 0
3.0368819 0.037269611 -0.056800425 1 675028480 0 33 0 0
3.036881 0.018633785 -0.056797206 1 675028480 0 33 0 0
3.036881 -5.5551527e-07 -0.056796193 1 675028480 0 33 0 0
3.036881 -0.018634873 -0.056797206 1 675028480 0 33 0 0
3.0368817 -0.03727068 -0.056800485 1 675028480 0 33 0 0
3.0368829 -0.055909242 -0.056805789 1 675028480 0 33 0 0
3.0368841 -0.074550606 -0.0568133 1 675028480 0 33 0 0
3.0368862 -0.093199119 -0.056822956 1 675028480 0 33 0 0
3.0368884 -0.11185463 -0.056834817 1 675028480 0 33 0 0
3.036891 -0.13051867 -0.056848824 1 675028480 0 33 0 0
3.0450063 0.94413495 -0.099392056 1 675028480 0 34 0 0
3.0449705 0.92368239 -0.099203885 1 675028480 0 34 0 0
3.0449355 0.90330666 -0.099020302 1 675028480 0 34 0 0
3.0449016 0.88300598 -0.098841131 1 675028480 0 34 0 0
3.044868 0.86277747 -0.09866637 1 675028480 0 34 0 0
3.0448358 0.84262002 -0.09849596 1 675028480 0 34 0 0
3.0448036 0.8225311 -0.098329663 1 675028480 0 34 0 0
3.0447729 0.8025099 -0.098167717 1 675028480 0 34 0 0
3.0447426 0.78255409 -0.098010182 1 675028480 0 34 0 0
3.0447137 0.76266134 -0.09785682 1 675028480 0 34 0 0
3.0446849 0.74283016 -0.09770751 1 675028480 0 34 0 0
3.0446575 0.72305894 -0.097562492 1 675028480 0 34 0 0
3.0446308 0.70334578 -0.097421646 1 675028480 0 34 0 0
3.0446048 0.68368894 -0.097284734 1 675028480 0 34 0 0
3.0445795 0.6640867 -0.097151875 1 675028480 0 34 0 0
3.0445547 0.64453703 -0.09702301 1 675028480 0 34 0 0
3.0445309 0.6250388 -0.096898198 1 675028480 0 34 0 0
3.044508 0.60559016 -0.096777439 1 675028480 0 34 0 0
3.0444853 0.58618909 -0.096660495 1 675028480 0 34 0 0
3.0444641 0.56683463 -0.096547663 1 675028480 0 34 0 0
3.0444434 0.54752439 -0.096438527 1 675028480 0 34 0 0
3.0444231 0.52825707 -0.096333325 1 675028480 0 34 0 0
3.044404 0.50903141 -0.096232176 1 675028480 0 34 0 0
3.0443852 0.48984528 -0.096134841 1 675028480 0 34 0 0
3.0443673 0.47069719 -0.096041143 1 675028480 0 34 0 0
3.0443501 0.45158595 -0.095951378 1 675028480 0 34 0 0
3.0443337 0.43251121 -0.095865428 1 675028480 0 34 0 0
3.0443182 0.41346869 -0.095783234 1 675028480 0 34 0 0
3.0443032 0.394458 -0.095704794 1 675028480 0 34 0 0
3.0442889 0.37547779 -0.095630109 1 675028480 0 34 0 0
3.044275 0.35652652 -0.09555918 1 675028480 0 34 0 0
3.0442624 0.33760288 -0.095491886 1 675028480 0 34 0 0
3.0442505 0.31870502 -0.095428467 1 675028480 0 34 0 0
3.0442388 0.29983178 -0.095368564 1 675028480 0 34 0 0
3.0442281 0.28098139 -0.095312417 1 675028480 0 34 0 0
3.0442181 0.26215258 -0.095259964 1 675028480 0 34 0 0
3.044209 0.24334383 -0.095211148 1 675028480 0 34 0 0
3.0442004 0.22455373 -0.095165908 1 675028480 0 34 0 0
3.0441923 0.20578085 -0.095124543 1 675028480 0 34 0 0
3.0441852 0.18702357 -0.095086634 1 675028480 0 34 0 0
3.0441787 0.16828062 -0.095052361 1 675028480 0 34 0 0
3.0441725 0.14955044 -0.095021605 1 675028480 0 34 0 0
3.0441678 0.13083173 -0.094994724 1 675028480 0 34 0 0
3.0441632 0.11212299 -0.094971418 1 675028480 0 34 0 0
3.0441594 0.093422666 -0.09495157 1 675028480 0 34 0 0
3.0441563 0.074729525 -0.094935417 1 675028480 0 34 0 0
3.0441539 0.056042049 -0.094922781 1 675028480 0 34 0 0
3.0441525 0.037358806 -0.0949139 1 675028480 0 34 0 0
3.0441513 0.018678471 -0.094908476 1 675028480 0 34 0 0
3.0441508 -4.8398971e-07 -0.094906628 1 675028480 0 34 0 0
3.0441513 -0.018679488 -0.094908476 1 675028480 0 34 0 0
3.0441523 -0.037359834 -0.094913781 1 675028480 0 34 0 0
3.0441539 -0.0560431 -0.094922781 1 675028480 0 34 0 0
3.0441563 -0.074729137 -0.094935417 1 675028480 0 34 0 0
3.0525658 0.90557045 -0.13901901 1 675028480 0 35 0 0
3.0525177 0.88521451 -0.13876688 1 675028480 0 35 0 0
3.0524709 0.86493182 -0.1385209 1 675028480 0 35 0 0
3.0524251 0.8447203 -0.13828099 1 675028480 0 35 0 0
3.0523803 0.82457852 -0.1380471 1 675028480 0 35 0 0
3.0523369 0.80450386 -0.13781929 1 675028480 0 35 0 0
3.0522945 0.784495 -0.13759738 1 675028480 0 35 0 0
3.0522532 0.76455009 -0.13738161 1 675028480 0 35 0 0
3.0522134 0.74466687 -0.13717145 1 675028480 0 35 0 0
3.0521743 0.72484398 -0.13696718 1 675028480 0 35 0 0
3.0521364 0.70507962 -0.13676876 1 675028480 0 35 0 0
3.0520999 0.68537199 -0.13657618 1 675028480 0 35 0 0
3.0520642 0.66571903 -0.1363892 1 675028480 0 35 0 0
3.0520296 0.64611953 -0.13620806 1 675028480 0 35 0 0
3.051996 0.62657136 -0.13603234 1 675028480 0 35 0 0
3.0519633 0.60707325 -0.13586235 1 675028480 0 35 0 0
3.0519323 0.587623 -0.1356979 1 675028480 0 35 0 0
3.0519018 0.56821942 -0.13553894 1 675028480 0 35 0 0
3.0518727 0.54886073 -0.13538563 1 675028480 0 35 0 0
3.0518444 0.52954495 -0.13523757 1 675028480 0 35 0 0
3.0518172 0.51027101 -0.13509518 1 675028480 0 35 0 0
3.0517912 0.49103695 -0.13495791 1 675028480 0 35 0 0
3.0517659 0.47184142 -0.1348263 1 675028480 0 35 0 0
3.0517418 0.45268244 -0.13469994 1 675028480 0 35 0 0
3.051719 0.43356055 -0.13457894 1 675028480 0 35 0 0
3.0516968 0.41447082 -0.13446331 1 675028480 0 35 0 0
3.0516756 0.39541328 -0.13435286 1 675028480 0 35 0 0
3.0516558 0.37638643 -0.1342479 1 675028480 0 35 0 0
3.0516367 0.35738871 -0.13414806 1 675028480 0 35 0 0
3.0516186 0.3384186 -0.13405341 1 675028480 0 35 0 0
3.0516012 0.31947458 -0.13396394 1 675028480 0 35 0 0
3.0515852 0.30055523 -0.13387978 1 675028480 0 35 0 0
3.0515704 0.28165907 -0.13380075 1 675028480 0 35 0 0
3.0515563 0.26278457 -0.13372695 1 675028480 0 35 0 0
3.0515432 0.24393027 -0.13365829 1 675028480 0 35 0 0
3.0515311 0.22509466 -0.13359481 1 675028480 0 35 0 0
3.0515196 0.20627612 -0.13353634 1 675028480 0 35 0 0
3.0515096 0.18747361 -0.13348299 1 675028480 0 35 0 0
3.0515006 0.16868539 -0.13343483 1 675028480 0 35 0 0
3.0514922 0.14991003 -0.13339168 1 675028480 0 35 0 0
3.0514848 0.13114619 -0.13335365 1 675028480 0 35 0 0
3.0514789 0.11239237 -0.13332081 1 675028480 0 35 0 0
3.0514736 0.093647212 -0.13329309 1 675028480 0 35 0 0
3.0514693 0.074909039 -0.13327026 1 675028480 0 35 0 0
3.0514657 0.056176689 -0.1332525 1 675028480 0 35 0 0
3.0514636 0.037448566 -0.13323998 1 675028480 0 35 0 0
3.0514619 0.0187233 -0.1332323 1 675028480 0 35 0 0
3.0514615 -4.9591063e-07 -0.13322985 1 675028480 0 35 0 0
3.0514617 -0.018724356 -0.13323224 1 675028480 0 35 0 0
3.0601807 0.88743657 -0.1789366 1 675028480 0 36 0 0
3.0601199 0.86709929 -0.17861873 1 675028480 0 36 0 0
3.0600607 0.84683341 -0.17830843 1 675028480 0 36 0 0
3.0600026 0.82663751 -0.17800623 1 675028480 0 36 0 0
3.0599465 0.80650955 -0.17771173 1 675028480 0 36 0 0
3.0598919 0.78644782 -0.17742503 1 675028480 0 36 0 0
3.0598388 0.76644993 -0.17714578 1 675028480 0 36 0 0
3.0597868 0.74651462 -0.17687428 1 675028480 0 36 0 0
3.0597365 0.72664005 -0.17661035 1 675028480 0 36 0 0
3.0596876 0.70682395 -0.17635387 1 675028480 0 36 0 0
3.0596402 0.68706518 -0.17610484 1 675028480 0 36 0 0
3.0595942 0.6673615 -0.17586303 1 675028480 0 36 0 0
3.0595496 0.64771146 -0.17562884 1 675028480 0 36 0 0
3.0595062 0.62811321 -0.17540193 1 675028480 0 36 0 0
3.059464 0.60856521 -0.1751821 1 675028480 0 36 0 0
3.0594237 0.58906525 -0.17496943 1 675028480 0 36 0 0
3.0593843 0.5696125 -0.1747641 1 675028480 0 36 0 0
3.0593464 0.55020475 -0.17456591 1 675028480 0 36 0 0
3.0593102 0.5308404 -0.17437464 1 675028480 0 36 0 0
3.0592749 0.51151764 -0.17419022 1 675028480 0 36 0 0
3.0592413 0.49223545 -0.17401314 1 675028480 0 36 0 0
3.0592086 0.47299182 -0.17384297 1 675028480 0 36 0 0
3.0591774 0.45378548 -0.17367977 1 675028480 0 36 0 0
3.0591476 0.434616 -0.17352325 1 675028480 0 36 0 0
3.0591192 0.41547903 -0.17337382 1 675028480 0 36 0 0
3.059092 0.39637423 -0.17323124 1 675028480 0 36 0 0
3.0590661 0.37730047 -0.17309541 1 675028480 0 36 0 0
3.0590417 0.35825595 -0.1729663 1 675028480 0 36 0 0
3.0590181 0.33923915 -0.17284393 1 675028480 0 36 0 0
3.0589962 0.32024878 -0.1727286 1 675028480 0 36 0 0
3.0589755 0.30128306 -0.17261964 1 675028480 0 36 0 0
3.0589559 0.28234074 -0.17251742 1 675028480 0 36 0 0
3.0589375 0.26342025 -0.17242205 1 675028480 0 36 0 0
3.0589209 0.24451992 -0.17233336 1 675028480 0 36 0 0
3.0589054 0.22563852 -0.17225122 1 675028480 0 36 0 0
3.0588906 0.20677446 -0.17217577 1 675028480 0 36 0 0
3.0588775 0.18792622 -0.1721068 1 675028480 0 36 0 0
3.0588655 0.16909248 -0.17204452 1 675028480 0 36 0 0
3.0588553 0.15027173 -0.17198884 1 675028480 0 36 0 0
3.0588458 0.1314625 -0.17193973 1 675028480 0 36 0 0
3.0588374 0.11266338 -0.17189711 1 675028480 0 36 0 0
3.0588307 0.09387289 -0.17186111 1 675028480 0 36 0 0
3.058825 0.075089559 -0.17183173 1 675028480 0 36 0 0
3.0588207 0.056312092 -0.17180896 1 675028480 0 36 0 0
3.0588176 0.037538834 -0.17179263 1 675028480 0 36 0 0
3.0677452 0.84896004 -0.21859318 1 675028480 0 37 0 0
3.0676742 0.82871002 -0.21822178 1 675028480 0 37 0 0
3.0676053 0.80852813 -0.21785975 1 675028480 0 37 0 0
3.067538 0.78841299 -0.21750736 1 675028480 0 37 0 0
3.0674725 0.7683621 -0.21716434 1 675028480 0 37 0 0
3.067409 0.7483744 -0.21683067 1 675028480 0 37 0 0
3.067347 0.72844708 -0.21650606 1 675028480 0 37 0 0
3.067287 0.7085793 -0.21619093 1 675028480 0 37 0 0
3.0672286 0.68876928 -0.21588504 1 675028480 0 37 0 0
3.0671718 0.6690141 -0.21558774 1 675028480 0 37 0 0
3.067117 0.64931351 -0.21530002 1 675028480 0 37 0 0
3.0670638 0.62966472 -0.21502101 1 675028480 0 37 0 0
3.0670123 0.61006641 -0.21475101 1 675028480 0 37 0 0
3.0669625 0.59051681 -0.21448976 1 675028480 0 37 0 0
3.0669143 0.57101446 -0.21423739 1 675028480 0 37 0 0
3.0668676 0.55155724 -0.21399361 1 675028480 0 37 0 0
3.0668228 0.53214383 -0.21375871 1 675028480 0 37 0 0
3.0667796 0.51277238 -0.21353209 1 675028480 0 37 0 0
3.0667381 0.49344167 -0.21331459 1 675028480 0 37 0 0
3.0666983 0.47414988 -0.21310526 1 675028480 0 37 0 0
3.0666602 0.45489532 -0.21290475 1 675028480 0 37 0 0
3.0666234 0.43567795 -0.21271259 1 675028480 0 37 0 0
3.0665884 0.41649333 -0.21252882 1 675028480 0 37 0 0
3.0665548 0.39734116 -0.21235353 1 675028480 0 37 0 0
3.0665231 0.3782202 -0.21218675 1 675028480 0 37 0 0
3.0664928 0.35912859 -0.21202821 1 675028480 0 37 0 0
3.0664642 0.34006503 -0.21187794 1 675028480 0 37 0 0
3.066437 0.32102779 -0.21173584 1 675028480 0 37 0 0
3.0664117 0.30201557 -0.21160227 1 675028480 0 37 0 0
3.0663879 0.28302681 -0.21147674 1 675028480 0 37 0 0
3.0663652 0.26405984 -0.21135944 1 675028480 0 37 0 0
3.0663445 0.2451134 -0.21125054 1 675028480 0 37 0 0
3.0663252 0.22618598 -0.21114963 1 675028480 0 37 0 0
3.0663075 0.20727593 -0.21105689 1 675028480 0 37 0 0
3.0662913 0.18838175 -0.21097225 1 675028480 0 37 0 0
3.0662768 0.16950227 -0.21089554 1 675028480 0 37 0 0
3.0662639 0.1506357 -0.21082711 1 675028480 0 37 0 0
3.0662525 0.13178077 -0.21076661 1 675028480 0 37 0 0
3.0662422 0.11293609 -0.21071434 1 675028480 0 37 0 0
3.0662341 0.094100036 -0.21067005 1 675028480 0 37 0 0
3.0753155 0.81056035 -0.25827891 1 675028480 0 38 0 0
3.0752358 0.79039109 -0.25785977 1 675028480 0 38 0 0
3.0751581 0.7702871 -0.25745219 1 675028480 0 38 0 0
3.0750825 0.75024635 -0.2570557 1 675028480 0 38 0 0
3.0750091 0.73026681 -0.25667018 1 675028480 0 38 0 0
3.0749373 0.71034682 -0.2562955 1 675028480 0 38 0 0
3.0748677 0.69048458 -0.25593168 1 675028480 0 38 0 0
3.0748007 0.67067838 -0.25557882 1 675028480 0 38 0 0
3.0747354 0.65092635 -0.25523669 1 675028480 0 38 0 0
3.0746722 0.63122678 -0.25490505 1 675028480 0 38 0 0
3.0746107 0.61157787 -0.25458401 1 675028480 0 38 0 0
3.0745516 0.59197807 -0.25427371 1 675028480 0 38 0 0
3.0744944 0.57242578 -0.25397366 1 675028480 0 38 0 0
3.074439 0.55291897 -0.25368398 1 675028480 0 38 0 0
3.0743859 0.53345603 -0.2534048 1 675028480 0 38 0 0
3.0743344 0.5140357 -0.25313574 1 675028480 0 38 0 0
3.0742853 0.49465618 -0.25287718 1 675028480 0 38 0 0
3.0742378 0.47531554 -0.25262851 1 675028480 0 38 0 0
3.074192 0.45601273 -0.25239021 1 675028480 0 38 0 0
3.0741489 0.43674722 -0.2521618 1 675028480 0 38 0 0
3.0741069 0.41751447 -0.25194341 1 675028480 0 38 0 0
3.0740674 0.39831465 -0.25173527 1 675028480 0 38 0 0
3.0740294 0.37914601 -0.25153691 1 675028480 0 38 0 0
3.0739937 0.36000705 -0.25134844 1 675028480 0 38 0 0
3.0739596 0.34089613 -0.25116962 1 675028480 0 38 0 0
3.0739276 0.32181206 -0.25100118 1 675028480 0 38 0 0
3.0738971 0.30275288 -0.25084221 1 675028480 0 38 0 0
3.073869 0.28371722 -0.2506932 1 675028480 0 38 0 0
3.073842 0.26470375 -0.25055385 1 675028480 0 38 0 0
3.0738173 0.24571079 -0.25042427 1 675028480 0 38 0 0
3.0737944 0.22673689 -0.25030434 1 675028480 0 38 0 0
3.0737734 0.20778066 -0.25019431 1 675028480 0 38 0 0
3.0737543 0.18884034 -0.25009358 1 675028480 0 38 0 0
3.0737369 0.16991475 -0.25000268 1 675028480 0 38 0 0
3.0737212 0.15100217 -0.2499212 1 675028480 0 38 0 0
3.0829878 0.79238349 -0.29849774 1 675028480 0 39 0 0
3.0828977 0.7722258 -0.29802459 1 675028480 0 39 0 0
3.0828099 0.75213146 -0.29756433 1 675028480 0 39 0 0
3.0827246 0.73209929 -0.29711705 1 675028480 0 39 0 0
3.0826416 0.71212643 -0.29668218 1 675028480 0 39 0 0
3.082561 0.6922121 -0.29626006 1 675028480 0 39 0 0
3.0824828 0.67235398 -0.29585034 1 675028480 0 39 0 0
3.0824072 0.65255034 -0.29545325 1 675028480 0 39 0 0
3.0823336 0.63279957 -0.29506856 1 675028480 0 39 0 0
3.0822628 0.61309987 -0.29469603 1 675028480 0 39 0 0
3.0821939 0.59344953 -0.29433578 1 675028480 0 39 0 0
3.0821276 0.57384676 -0.29398769 1 675028480 0 39 0 0
3.0820632 0.55429012 -0.29365188 1 675028480 0 39 0 0
3.0820017 0.53477746 -0.29332763 1 675028480 0 39 0 0
3.0819421 0.51530778 -0.29301566 1 675028480 0 39 0 0
3.0818851 0.49587902 -0.29271549 1 675028480 0 39 0 0
3.0818298 0.47648942 -0.292427 1 675028480 0 39 0 0
3.0817769 0.45713785 -0.29215032 1 675028480 0 39 0 0
3.0817263 0.43782374 -0.29188544 1 675028480 0 39 0 0
3.0816782 0.41854274 -0.29163212 1 675028480 0 39 0 0
3.0816319 0.39929473 -0.29139036 1 675028480 0 39 0 0
3.081588 0.38007823 -0.29116017 1 675028480 0 39 0 0
3.0815463 0.36089155 -0.29094154 1 675028480 0 39 0 0
3.081507 0.34173313 -0.29073423 1 675028480 0 39 0 0
3.0814695 0.3226015 -0.29053849 1 675028480 0 39 0 0
3.0814345 0.3034952 -0.29035419 1 675028480 0 39 0 0
3.0814016 0.28441241 -0.2901811 1 675028480 0 39 0 0
3.0813708 0.26535198 -0.29001945 1 675028480 0 39 0 0
3.081342 0.24631217 -0.28986901 1 675028480 0 39 0 0
3.0813155 0.22729172 -0.28973013 1 675028480 0 39 0 0
3.0812907 0.20828867 -0.2896021 1 675028480 0 39 0 0
3.0905943 0.75403082 -0.33837301 1 675028480 0 40 0 0
3.090497 0.73394501 -0.33786291 1 675028480 0 40 0 0
3.0904024 0.71391946 -0.33736736 1 675028480 0 40 0 0
3.0903106 0.69395226 -0.33688599 1 675028480 0 40 0 0
3.0902219 0.67404187 -0.33641905 1 675028480 0 40 0 0
3.0901353 0.65418637 -0.33596641 1 675028480 0 40 0 0
3.0900519 0.63438398 -0.33552772 1 675028480 0 40 0 0
3.0899706 0.61463314 -0.33510321 1 675028480 0 40 0 0
3.0898924 0.59493172 -0.33469254 1 675028480 0 40 0 0
3.0898166 0.57527828 -0.33429569 1 675028480 0 40 0 0
3.0897436 0.5556711 -0.33391255 1 675028480 0 40 0 0
3.089673 0.53610879 -0.33354348 1 675028480 0 40 0 0
3.0896053 0.51658911 -0.33318752 1 675028480 0 40 0 0
3.08954 0.49711072 -0.33284539 1 675028480 0 40 0 0
3.0894775 0.47767198 -0.33251673 1 675028480 0 40 0 0
3.089417 0.45827121 -0.3322013 1 675028480 0 40 0 0
3.0893598 0.43890822 -0.33189911 1 675028480 0 40 0 0
3.0893044 0.41957855 -0.33161038 1 675028480 0 40 0 0
3.089252 0.40028217 -0.33133489 1 675028480 0 40 0 0
3.0892019 0.38101733 -0.33107251 1 675028480 0 40 0 0
3.0891542 0.36178261 -0.33082324 1 675028480 0 40 0 0
3.0891092 0.34257618 -0.33058709 1 675028480 0 40 0 0
3.0890667 0.32339686 -0.33036381 1 675028480 0 40 0 0
3.0890267 0.30424285 -0.33015376 1 675028480 0 40 0 0
3.0889893 0.28511286 -0.32995659 1 675028480 0 40 0 0
3.0889537 0.26600504 -0.32977229 1 675028480 0 40 0 0
3.0983298 0.73580521 -0.37892383 1 675028480 0 41 0 0
3.0982234 0.71572614 -0.37836653 1 675028480 0 41 0 0
3.0981205 0.69570625 -0.37782544 1 675028480 0 41 0 0
3.0980203 0.67574298 -0.37730044 1 675028480 0 41 0 0
3.0979228 0.65583497 -0.3767913 1 675028480 0 41 0 0
3.0978291 0.6359809 -0.37629849 1 675028480 0 41 0 0
