# .PCD v0.7 - Point Cloud Data file format
VERSION 0.7
FIELDS x y z intensity t reflectivity ring noise range
SIZE 4 4 4 4 4 2 2 2 4
TYPE F F F F U U U U U
COUNT 1 1 1 1 1 1 1 1 1
WIDTH 760
HEIGHT 1
VIEWPOINT 0 0 0 1 0 0 0
POINTS 760
DATA ascii
3.7652261 1.1169868 0.31894928 1 3880436224 0 25 0 0
3.7742534 1.0945141 0.31913927 1 3880436224 0 25 0 0
3.7832997 1.072015 0.31934148 1 3880436224 0 25 0 0
3.792366 1.0494896 0.31955779 1 3880436224 0 25 0 0
3.8014522 1.0269344 0.31978613 1 3880436224 0 25 0 0
3.81056 1.0043484 0.32002798 1 3880436224 0 25 0 0
3.689343 1.2187935 0.26683 1 3868435968 0 26 0 0
3.6982 1.1966034 0.26693439 1 3868435968 0 26 0 0
3.7070718 1.1743959 0.26704976 1 3868435968 0 26 0 0
3.7159576 1.1521696 0.26717576 1 3880436224 0 26 0 0
3.7248585 1.1299239 0.26731211 1 3880436224 0 26 0 0
3.7337756 1.1076565 0.26745939 1 3880436224 0 26 0 0
3.7427089 1.085366 0.26761714 1 3880436224 0 26 0 0
3.7516599 1.0630497 0.2677857 1 3880436224 0 26 0 0
3.7606289 1.0407068 0.2679649 1 3880436224 0 26 0 0
3.7696166 1.0183345 0.26815504 1 3880436224 0 26 0 0
3.7786238 0.99593121 0.26835588 1 3880436224 0 26 0 0
3.7876518 0.97349507 0.26856789 1 3880436224 0 26 0 0
3.6064849 1.3405676 0.21607506 1 3868435968 0 27 0 0
3.6151989 1.3186165 0.2161082 1 3868435968 0 27 0 0
3.6239214 1.2966594 0.21615028 1 3868435968 0 27 0 0
3.6326523 1.2746941 0.21620017 1 3868435968 0 27 0 0
3.6413927 1.2527206 0.21625918 1 3868435968 0 27 0 0
3.6501431 1.2307355 0.2163263 1 3868435968 0 27 0 0
3.6589043 1.208738 0.21640158 1 3868435968 0 27 0 0
3.6676767 1.1867273 0.2164858 1 3868435968 0 27 0 0
3.6764619 1.1646987 0.21657842 1 3868435968 0 27 0 0
3.6852598 1.1426518 0.21667933 1 3880436224 0 27 0 0
3.6940718 1.1205852 0.21678936 1 3880436224 0 27 0 0
3.7028983 1.098497 0.21690756 1 3880436224 0 27 0 0
3.7117393 1.0763851 0.21703428 1 3880436224 0 27 0 0
3.7205968 1.0542485 0.21717 1 3880436224 0 27 0 0
3.7294707 1.0320842 0.21731412 1 3880436224 0 27 0 0
3.7383623 1.0098915 0.21746731 1 3880436224 0 27 0 0
3.7472723 0.98766762 0.21762913 1 3880436224 0 27 0 0
3.7562001 0.96541148 0.21779919 1 3880436224 0 27 0 0
3.7651486 0.94312084 0.21797872 1 3880436224 0 27 0 0
3.5339453 1.4384679 0.16658765 1 3868435968 0 28 0 0
3.5425601 1.4166991 0.16658133 1 3868435968 0 28 0 0
3.5511775 1.3949318 0.1665802 1 3868435968 0 28 0 0
3.5597997 1.3731663 0.16658664 1 3868435968 0 28 0 0
3.5684264 1.3513995 0.16659904 1 3868435968 0 28 0 0
3.5770586 1.3296297 0.16661787 1 3868435968 0 28 0 0
3.5856972 1.3078558 0.16664374 1 3868435968 0 28 0 0
3.5943425 1.2860761 0.16667545 1 3868435968 0 28 0 0
3.6029956 1.2642882 0.16671389 1 3868435968 0 28 0 0
3.6116564 1.242491 0.16675878 1 3868435968 0 28 0 0
3.6203265 1.2206821 0.16681004 1 3868435968 0 28 0 0
3.6290057 1.1988611 0.16686821 1 3868435968 0 28 0 0
3.6376948 1.1770259 0.16693211 1 3868435968 0 28 0 0
3.6463954 1.1551737 0.16700315 1 3868435968 0 28 0 0
3.655108 1.1333027 0.16708046 1 3880436224 0 28 0 0
3.6638322 1.111412 0.16716444 1 3880436224 0 28 0 0
3.67257 1.0894996 0.16725487 1 3880436224 0 28 0 0
3.6813214 1.067564 0.1673519 1 3880436224 0 28 0 0
3.6900871 1.0456033 0.16745543 1 3880436224 0 28 0 0
3.6988683 1.0236149 0.16756582 1 3880436224 0 28 0 0
3.707665 1.0015988 0.16768265 1 3880436224 0 28 0 0
3.7164791 0.97955161 0.16780645 1 3880436224 0 28 0 0
3.7253098 0.95747226 0.16793686 1 3880436224 0 28 0 0
3.7341592 0.93535864 0.16807365 1 3880436224 0 28 0 0
3.743027 0.91320914 0.16821736 1 3880436224 0 28 0 0
3.751915 0.89102161 0.16836822 1 3880436224 0 28 0 0
3.4626613 1.5348924 0.11808461 1 3868435968 0 29 0 0
3.4712059 1.5132643 0.11805707 1 3868435968 0 29 0 0
3.4797494 1.4916474 0.11803418 1 3868435968 0 29 0 0
3.4882927 1.4700385 0.118016 1 3868435968 0 29 0 0
3.4968362 1.4484365 0.1180017 1 3868435968 0 29 0 0
3.5053804 1.4268404 0.1179927 1 3868435968 0 29 0 0
3.5139263 1.4052479 0.11798775 1 3868435968 0 29 0 0
3.5224745 1.3836571 0.11798739 1 3868435968 0 29 0 0
3.5310261 1.3620667 0.11799192 1 3868435968 0 29 0 0
3.5395813 1.340475 0.11800063 1 3868435968 0 29 0 0
3.5481403 1.3188804 0.1180138 1 3868435968 0 29 0 0
3.5567043 1.2972809 0.1180318 1 3868435968 0 29 0 0
3.5652742 1.2756748 0.11805433 1 3868435968 0 29 0 0
3.5738504 1.254061 0.11808103 1 3868435968 0 29 0 0
3.5824337 1.2324375 0.11811268 1 3868435968 0 29 0 0
3.5910246 1.2108023 0.11814898 1 3868435968 0 29 0 0
3.5996234 1.1891544 0.11818951 1 3868435968 0 29 0 0
3.6082308 1.167493 0.11823463 1 3868435968 0 29 0 0
3.6168485 1.1458133 0.11828429 1 3868435968 0 29 0 0
3.6254766 1.1241156 0.11833876 1 3880436224 0 29 0 0
3.6341159 1.1023977 0.11839771 1 3880436224 0 29 0 0
3.6427667 1.0806583 0.11846137 1 3880436224 0 29 0 0
3.6514297 1.0588958 0.1185295 1 3880436224 0 29 0 0
3.6601062 1.0371075 0.11860228 1 3880436224 0 29 0 0
3.6687961 1.0152931 0.1186797 1 3880436224 0 29 0 0
3.6775007 0.99344975 0.1187619 1 3880436224 0 29 0 0
3.6862204 0.97157627 0.11884856 1 3880436224 0 29 0 0
3.6949563 0.94967061 0.11894017 1 3880436224 0 29 0 0
3.7037086 0.92773122 0.11903661 1 3880436224 0 29 0 0
3.7124786 0.90575576 0.11913753 1 3880436224 0 29 0 0
3.7212667 0.88374281 0.11924374 1 3880436224 0 29 0 0
3.7300735 0.86169076 0.11935407 1 3880436224 0 29 0 0
3.409431 1.5870152 0.070332766 1 3868435968 0 30 0 0
3.4179235 1.5655245 0.070308685 1 3868435968 0 30 0 0
3.4264116 1.5440484 0.070286751 1 3868435968 0 30 0 0
3.4348972 1.5225857 0.070268333 1 3868435968 0 30 0 0
3.4433794 1.5011338 0.070251763 1 3868435968 0 30 0 0
3.45186 1.4796914 0.070238233 1 3868435968 0 30 0 0
3.4603391 1.4582585 0.070227921 1 3868435968 0 30 0 0
3.4688168 1.4368311 0.070219398 1 3868435968 0 30 0 0
3.4772952 1.4154088 0.070214152 1 3868435968 0 30 0 0
3.4857738 1.3939897 0.070211112 1 3868435968 0 30 0 0
3.4942539 1.3725718 0.070210993 1 3868435968 0 30 0 0
3.5027359 1.3511539 0.070213497 1 3868435968 0 30 0 0
3.51122 1.3297343 0.070218623 1 3868435968 0 30 0 0
3.5197074 1.3083117 0.07022649 1 3868435968 0 30 0 0
3.5281987 1.2868834 0.070236802 1 3868435968 0 30 0 0
3.5366945 1.2654489 0.070250273 1 3868435968 0 30 0 0
3.5451953 1.2440057 0.070266008 1 3868435968 0 30 0 0
3.5537024 1.2225527 0.070284605 1 3868435968 0 30 0 0
3.5622151 1.2010885 0.070305705 1 3868435968 0 30 0 0
3.5707357 1.1796106 0.070329964 1 3868435968 0 30 0 0
3.5792625 1.1581197 0.070356488 1 3868435968 0 30 0 0
3.5877993 1.1366103 0.070385814 1 3868435968 0 30 0 0
3.5963447 1.1150826 0.070418239 1 3880436224 0 30 0 0
3.6049001 1.0935354 0.070452929 1 3880436224 0 30 0 0
3.6134655 1.0719664 0.070490479 1 3880436224 0 30 0 0
3.6220422 1.0503739 0.070530593 1 3880436224 0 30 0 0
3.630631 1.028756 0.070573866 1 3880436224 0 30 0 0
3.6392322 1.0071118 0.070619702 1 3880436224 0 30 0 0
3.647846 0.98543912 0.070667863 1 3880436224 0 30 0 0
3.6564739 0.9637363 0.070719123 1 3880436224 0 30 0 0
3.6651165 0.9420014 0.070773304 1 3880436224 0 30 0 0
3.673774 0.92023307 0.070830047 1 3880436224 0 30 0 0
3.6824479 0.89842892 0.070889711 1 3880436224 0 30 0 0
3.6911383 0.87658805 0.070952356 1 3880436224 0 30 0 0
3.699846 0.85470796 0.071017504 1 3880436224 0 30 0 0
3.7085717 0.83278739 0.071085632 1 3880436224 0 30 0 0
3.3907325 1.5530703 0.023247063 1 3868435968 0 31 0 0
3.3991618 1.5317689 0.023240268 1 3868435968 0 31 0 0
3.4075868 1.5104802 0.023234248 1 3868435968 0 31 0 0
3.4160082 1.4892014 0.023228645 1 3868435968 0 31 0 0
3.4244261 1.4679327 0.023224235 1 3868435968 0 31 0 0
3.432842 1.4466707 0.023220479 1 3868435968 0 31 0 0
3.4412563 1.4254147 0.023217916 1 3868435968 0 31 0 0
3.4496691 1.404164 0.023216128 1 3868435968 0 31 0 0
3.4580815 1.3829151 0.023215413 1 3868435968 0 31 0 0
3.4664943 1.3616674 0.023214936 1 3868435968 0 31 0 0
3.4749076 1.3404194 0.023216069 1 3868435968 0 31 0 0
3.4833229 1.3191694 0.023217976 1 3868435968 0 31 0 0
3.4917397 1.2979158 0.02322042 1 3868435968 0 31 0 0
3.5001595 1.2766566 0.023224175 1 3868435968 0 31 0 0
3.5085821 1.2553899 0.02322799 1 3868435968 0 31 0 0
3.5170088 1.2341157 0.023233175 1 3868435968 0 31 0 0
3.5254409 1.2128304 0.023239374 1 3868435968 0 31 0 0
3.5338778 1.1915338 0.023246586 1 3868435968 0 31 0 0
3.5423205 1.170224 0.023254395 1 3868435968 0 31 0 0
3.5507693 1.1489003 0.02326268 1 3868435968 0 31 0 0
3.559226 1.1275581 0.023272514 1 3868435968 0 31 0 0
3.5676906 1.1061981 0.023283243 1 3880436224 0 31 0 0
3.5761635 1.0848179 0.023294866 1 3880436224 0 31 0 0
3.584646 1.0634162 0.023307025 1 3880436224 0 31 0 0
3.5931377 1.041991 0.023320198 1 3880436224 0 31 0 0
3.6016402 1.0205412 0.023334265 1 3880436224 0 31 0 0
3.6101537 0.99906462 0.023349226 1 3880436224 0 31 0 0
3.6186795 0.97755963 0.023365319 1 3880436224 0 31 0 0
3.6272173 0.956025 0.023382068 1 3880436224 0 31 0 0
3.6357684 0.93445814 0.023399949 1 3880436224 0 31 0 0
3.6443331 0.91285813 0.023418427 1 3880436224 0 31 0 0
3.6529129 0.89122289 0.023437798 1 3880436224 0 31 0 0
3.6615074 0.86955106 0.023458302 1 3880436224 0 31 0 0
3.6701183 0.84784055 0.023480058 1 3880436224 0 31 0 0
3.6787453 0.82608986 0.023502111 1 3880436224 0 31 0 0
3.6873899 0.80429673 0.023525298 1 3880436224 0 31 0 0
3.6960521 0.78246003 0.023549378 1 3880436224 0 31 0 0
3.3723464 1.5196847 -0.023057103 1 3868435968 0 32 0 0
3.3807118 1.498567 -0.023050785 1 3868435968 0 32 0 0
3.3890729 1.4774591 -0.02304554 1 3868435968 0 32 0 0
3.3974297 1.4563601 -0.023041248 1 3868435968 0 32 0 0
3.4057834 1.4352674 -0.023037791 1 3868435968 0 32 0 0
3.4141345 1.4141802 -0.023035169 1 3868435968 0 32 0 0
3.4224832 1.3930978 -0.023033321 1 3868435968 0 32 0 0
3.4308307 1.3720167 -0.023032248 1 3868435968 0 32 0 0
3.4391768 1.3509367 -0.023032486 1 3868435968 0 32 0 0
3.4475231 1.3298558 -0.023033261 1 3868435968 0 32 0 0
3.4558697 1.3087726 -0.023034811 1 3868435968 0 32 0 0
3.4642172 1.2876855 -0.023037255 1 3868435968 0 32 0 0
3.4725664 1.2665923 -0.023040533 1 3868435968 0 32 0 0
3.4809179 1.2454916 -0.023044884 1 3868435968 0 32 0 0
3.4892719 1.2243829 -0.023050308 1 3868435968 0 32 0 0
3.4976299 1.2032629 -0.023056209 1 3868435968 0 32 0 0
3.5059919 1.1821315 -0.023062944 1 3868435968 0 32 0 0
3.5143588 1.1609865 -0.023070574 1 3868435968 0 32 0 0
3.5227301 1.1398278 -0.023079693 1 3868435968 0 32 0 0
3.5311086 1.1186508 -0.023088872 1 3868435968 0 32 0 0
3.5394936 1.0974556 -0.023099244 1 3880436224 0 32 0 0
3.5478859 1.0762402 -0.02311039 1 3880436224 0 32 0 0
3.5562863 1.055003 -0.023122549 1 3880436224 0 32 0 0
3.5646954 1.0337429 -0.023135483 1 3880436224 0 32 0 0
3.573113 1.0124578 -0.02314949 1 3880436224 0 32 0 0
3.5815408 0.99114645 -0.023164213 1 3880436224 0 32 0 0
3.5899794 0.96980655 -0.02317977 1 3880436224 0 32 0 0
3.5984292 0.94843733 -0.02319622 1 3880436224 0 32 0 0
3.6068907 0.92703611 -0.023213744 1 3880436224 0 32 0 0
3.6153648 0.90560192 -0.023232222 1 3880436224 0 32 0 0
3.6238523 0.8841328 -0.023251534 1 3880436224 0 32 0 0
3.6323531 0.86262757 -0.023271561 1 3880436224 0 32 0 0
3.6408691 0.84108359 -0.023292482 1 3880436224 0 32 0 0
3.6493995 0.81950021 -0.023314774 1 3880436224 0 32 0 0
3.6579461 0.79787475 -0.023337483 1 3880436224 0 32 0 0
3.6665089 0.77620596 -0.023361444 1 3880436224 0 32 0 0
3.6750896 0.75449204 -0.023386121 1 3880436224 0 32 0 0
3.3542535 1.4868389 -0.068618178 1 3868435968 0 33 0 0
3.3625548 1.4658989 -0.068602979 1 3868435968 0 33 0 0
3.3708518 1.4449662 -0.068589807 1 3868435968 0 33 0 0
3.379144 1.4240412 -0.068579495 1 3868435968 0 33 0 0
3.3874326 1.4031204 -0.068571746 1 3868435968 0 33 0 0
3.3957181 1.3822032 -0.06856668 1 3868435968 0 33 0 0
3.4040008 1.3612878 -0.068563998 1 3868435968 0 33 0 0
3.412282 1.3403724 -0.068563879 1 3868435968 0 33 0 0
3.4205618 1.3194557 -0.068566203 1 3868435968 0 33 0 0
3.4288411 1.2985365 -0.068570971 1 3868435968 0 33 0 0
3.4371207 1.2776132 -0.06857866 1 3868435968 0 33 0 0
3.4454007 1.2566833 -0.068588793 1 3868435968 0 33 0 0
3.4536819 1.2357464 -0.068601251 1 3868435968 0 33 0 0
3.4619648 1.2148002 -0.06861645 1 3868435968 0 33 0 0
3.4702501 1.1938434 -0.068634272 1 3868435968 0 33 0 0
3.4785385 1.1728748 -0.068654716 1 3868435968 0 33 0 0
3.4868307 1.1518922 -0.068677485 1 3868435968 0 33 0 0
3.4951262 1.1308961 -0.068702936 1 3868435968 0 33 0 0
3.503428 1.1098816 -0.068730712 1 3868435968 0 33 0 0
3.5117347 1.0888484 -0.068761468 1 3880436224 0 33 0 0
3.5200479 1.0677955 -0.068794429 1 3880436224 0 33 0 0
3.5283675 1.046721 -0.068830252 1 3880436224 0 33 0 0
3.5366945 1.0256232 -0.068868876 1 3880436224 0 33 0 0
3.5450301 1.0045004 -0.068909705 1 3880436224 0 33 0 0
3.5533741 0.98335129 -0.068953276 1 3880436224 0 33 0 0
3.5617268 0.96217453 -0.068999827 1 3880436224 0 33 0 0
3.5700903 0.94096774 -0.069048584 1 3880436224 0 33 0 0
3.578464 0.91972977 -0.069099963 1 3880436224 0 33 0 0
3.5868492 0.89845914 -0.069153845 1 3880436224 0 33 0 0
3.5952456 0.87715393 -0.069211066 1 3880436224 0 33 0 0
3.6036553 0.85581213 -0.069270313 1 3880436224 0 33 0 0
3.612078 0.83443248 -0.06933254 1 3880436224 0 33 0 0
3.6205142 0.81301343 -0.06939739 1 3880436224 0 33 0 0
3.6289644 0.79155338 -0.06946522 1 3880436224 0 33 0 0
3.6374304 0.77004963 -0.069535553 1 3880436224 0 33 0 0
3.6459122 0.74850178 -0.069608569 1 3880436224 0 33 0 0
3.6544106 0.72690719 -0.069684207 1 3880436224 0 33 0 0
3.3364367 1.4545119 -0.11347377 1 3868435968 0 34 0 0
3.3446734 1.4337449 -0.11345267 1 3868435968 0 34 0 0
3.3529053 1.4129835 -0.11343575 1 3868435968 0 34 0 0
3.3611324 1.3922262 -0.11342293 1 3868435968 0 34 0 0
3.3693557 1.3714725 -0.11341435 1 3868435968 0 34 0 0
3.3775754 1.3507199 -0.11340988 1 3868435968 0 34 0 0
3.3857923 1.3299669 -0.11340976 1 3868435968 0 34 0 0
3.394007 1.3092126 -0.11341357 1 3868435968 0 34 0 0
3.40222 1.2884549 -0.11342156 1 3868435968 0 34 0 0
3.4104321 1.2676928 -0.11343402 1 3868435968 0 34 0 0
3.4186444 1.2469243 -0.11345035 1 3868435968 0 34 0 0
3.4268563 1.226148 -0.11347109 1 3868435968 0 34 0 0
3.4350686 1.2053628 -0.11349642 1 3868435968 0 34 0 0
3.4432826 1.1845666 -0.11352539 1 3868435968 0 34 0 0
3.4514992 1.1637579 -0.11355859 1 3868435968 0 34 0 0
3.4597175 1.1429356 -0.1135959 1 3868435968 0 34 0 0
3.4679391 1.1220995 -0.11363769 1 3868435968 0 34 0 0
3.4761648 1.1012448 -0.11368358 1 3868435968 0 34 0 0
3.484395 1.0803717 -0.11373395 1 3880436224 0 34 0 0
3.4926302 1.0594786 -0.11378819 1 3880436224 0 34 0 0
3.5008712 1.0385638 -0.1138469 1 3880436224 0 34 0 0
3.5091178 1.0176263 -0.1139099 1 3880436224 0 34 0 0
3.5173724 0.99666297 -0.11397737 1 3880436224 0 34 0 0
3.5256336 0.97567451 -0.11404902 1 3880436224 0 34 0 0
3.5339031 0.95465821 -0.11412477 1 3880436224 0 34 0 0
3.542181 0.93361229 -0.11420512 1 3880436224 0 34 0 0
3.5504687 0.91253507 -0.1142894 1 3880436224 0 34 0 0
3.5587664 0.89142513 -0.11437839 1 3880436224 0 34 0 0
3.5670745 0.87028092 -0.11447155 1 3880436224 0 34 0 0
3.5753942 0.84910041 -0.11456889 1 3880436224 0 34 0 0
3.5837252 0.82788289 -0.11467105 1 3880436224 0 34 0 0
3.5920687 0.80662626 -0.11477768 1 3880436224 0 34 0 0
3.6004252 0.78532845 -0.11488849 1 3880436224 0 34 0 0
3.6087964 0.76398754 -0.11500371 1 3880436224 0 34 0 0
3.6171813 0.742603 -0.11512369 1 3880436224 0 34 0 0
3.6255815 0.72117245 -0.11524796 1 3880436224 0 34 0 0
3.6339977 0.69969404 -0.11537683 1 3880436224 0 34 0 0
3.6424303 0.67816657 -0.1155104 1 3880436224 0 34 0 0
3.3270514 1.4020879 -0.15763444 1 3868435968 0 35 0 0
3.3352177 1.3814926 -0.15761673 1 3868435968 0 35 0 0
3.3433797 1.3608994 -0.15760469 1 3868435968 0 35 0 0
3.351537 1.3403071 -0.15759873 1 3868435968 0 35 0 0
3.3596907 1.3197141 -0.15759814 1 3868435968 0 35 0 0
3.3678415 1.2991199 -0.15760344 1 3868435968 0 35 0 0
3.3759892 1.2785217 -0.15761477 1 3868435968 0 35 0 0
3.3841357 1.2579182 -0.15763164 1 3868435968 0 35 0 0
3.3922801 1.2373083 -0.15765458 1 3868435968 0 35 0 0
3.4004238 1.2166907 -0.15768343 1 3868435968 0 35 0 0
3.4085674 1.1960636 -0.1577177 1 3868435968 0 35 0 0
3.4167113 1.1754256 -0.15775776 1 3868435968 0 35 0 0
3.4248564 1.1547745 -0.15780371 1 3868435968 0 35 0 0
3.4330029 1.1341106 -0.15785545 1 3868435968 0 35 0 0
3.4411507 1.1134316 -0.15791309 1 3868435968 0 35 0 0
3.4493022 1.0927351 -0.15797591 1 3868435968 0 35 0 0
3.4574573 1.0720192 -0.15804535 1 3880436224 0 35 0 0
3.4656157 1.051284 -0.15812027 1 3880436224 0 35 0 0
3.4737792 1.0305266 -0.15820163 1 3880436224 0 35 0 0
3.4819472 1.0097464 -0.1582886 1 3880436224 0 35 0 0
3.4901214 0.98894179 -0.1583811 1 3880436224 0 35 0 0
3.498302 0.96811062 -0.15847987 1 3880436224 0 35 0 0
3.5064893 0.94725233 -0.15858436 1 3880436224 0 35 0 0
3.514684 0.9263646 -0.1586951 1 3880436224 0 35 0 0
3.522887 0.90544593 -0.15881157 1 3880436224 0 35 0 0
3.5310986 0.88449413 -0.15893418 1 3880436224 0 35 0 0
3.5393198 0.86350906 -0.15906274 1 3880436224 0 35 0 0
3.5475509 0.84248793 -0.15919739 1 3880436224 0 35 0 0
3.5557926 0.82143009 -0.159338 1 3880436224 0 35 0 0
3.5640454 0.80033326 -0.15948462 1 3880436224 0 35 0 0
3.5723104 0.77919555 -0.15963733 1 3880436224 0 35 0 0
3.5805874 0.75801605 -0.1597966 1 3880436224 0 35 0 0
3.5888782 0.73679256 -0.15996158 1 3880436224 0 35 0 0
3.597182 0.71552354 -0.16013306 1 3880436224 0 35 0 0
3.6055005 0.69420743 -0.16031098 1 3880436224 0 35 0 0
3.6138339 0.6728428 -0.16049498 1 3880436224 0 35 0 0
3.6221831 0.65142721 -0.16068518 1 3880436224 0 35 0 0
3.3096724 1.3709111 -0.20118141 1 3868435968 0 36 0 0
3.3177736 1.3504761 -0.20116633 1 3868435968 0 36 0 0
3.3258693 1.3300426 -0.20115846 1 3868435968 0 36 0 0
3.3339608 1.3096075 -0.20115811 1 3868435968 0 36 0 0
3.3420482 1.28917 -0.20116484 1 3868435968 0 36 0 0
3.350132 1.2687286 -0.20117897 1 3868435968 0 36 0 0
3.3582127 1.2482823 -0.20120049 1 3868435968 0 36 0 0
3.366291 1.2278292 -0.20122933 1 3868435968 0 36 0 0
3.374368 1.2073678 -0.20126563 1 3868435968 0 36 0 0
3.3824434 1.1868962 -0.2013092 1 3868435968 0 36 0 0
3.3905184 1.1664144 -0.20135987 1 3868435968 0 36 0 0
3.3985934 1.1459197 -0.2014181 1 3868435968 0 36 0 0
3.4066687 1.1254108 -0.20148361 1 3868435968 0 36 0 0
3.4147449 1.1048878 -0.2015565 1 3868435968 0 36 0 0
3.4228232 1.0843464 -0.20163643 1 3868435968 0 36 0 0
3.4309039 1.063786 -0.20172441 1 3880436224 0 36 0 0
3.4389873 1.0432061 -0.2018193 1 3880436224 0 36 0 0
3.4470742 1.0226046 -0.20192206 1 3880436224 0 36 0 0
3.4551649 1.0019798 -0.20203209 1 3880436224 0 36 0 0
3.4632607 0.98133057 -0.20214981 1 3880436224 0 36 0 0
3.4713616 0.96065551 -0.20227486 1 3880436224 0 36 0 0
3.4794681 0.93995291 -0.20240748 1 3880436224 0 36 0 0
3.487581 0.91922069 -0.20254719 1 3880436224 0 36 0 0
3.4957008 0.89845818 -0.20269501 1 3880436224 0 36 0 0
3.5038283 0.87766325 -0.20285004 1 3880436224 0 36 0 0
3.5119641 0.85683483 -0.20301288 1 3880436224 0 36 0 0
3.5201082 0.83597082 -0.20318353 1 3880436224 0 36 0 0
3.5282621 0.81507003 -0.20336163 1 3880436224 0 36 0 0
3.5364261 0.79413092 -0.2035473 1 3880436224 0 36 0 0
3.5446007 0.77315164 -0.20374072 1 3880436224 0 36 0 0
3.5527866 0.75213039 -0.20394194 1 3880436224 0 36 0 0
3.5609839 0.73106575 -0.20415133 1 3880436224 0 36 0 0
3.5691936 0.70995641 -0.20436835 1 3880436224 0 36 0 0
3.5774162 0.68880039 -0.20459354 1 3880436224 0 36 0 0
3.5856531 0.66759586 -0.2048263 1 3880436224 0 36 0 0
3.5939038 0.64634138 -0.2050674 1 3880436224 0 36 0 0
3.6021698 0.62503541 -0.20531631 1 3880436224 0 36 0 0
3.2925215 1.3401977 -0.24412507 1 3868435968 0 37 0 0
3.3005569 1.3199198 -0.24411577 1 3868435968 0 37 0 0
3.3085866 1.2996401 -0.24411529 1 3868435968 0 37 0 0
3.3166115 1.2793579 -0.2441237 1 3868435968 0 37 0 0
3.3246319 1.2590721 -0.24414062 1 3868435968 0 37 0 0
3.3326485 1.23878 -0.24416625 1 3868435968 0 37 0 0
3.3406618 1.2184812 -0.2442013 1 3868435968 0 37 0 0
3.3486726 1.1981738 -0.24424464 1 3868435968 0 37 0 0
3.3566809 1.177857 -0.24429715 1 3868435968 0 37 0 0
3.3646884 1.157528 -0.2443583 1 3868435968 0 37 0 0
3.3726943 1.1371871 -0.24442828 1 3868435968 0 37 0 0
3.3806996 1.1168318 -0.24450743 1 3868435968 0 37 0 0
3.3887048 1.0964622 -0.24459517 1 3868435968 0 37 0 0
3.3967111 1.0760745 -0.24469173 1 3868435968 0 37 0 0
3.4047186 1.0556673 -0.24479771 1 3880436224 0 37 0 0
3.4127281 1.0352404 -0.24491221 1 3880436224 0 37 0 0
3.4207399 1.0147923 -0.24503565 1 3880436224 0 37 0 0
3.4287548 0.99432117 -0.24516827 1 3880436224 0 37 0 0
3.4367733 0.97382551 -0.24530977 1 3880436224 0 37 0 0
3.4447961 0.95330429 -0.24546021 1 3880436224 0 37 0 0
3.4528234 0.93275517 -0.24561965 1 3880436224 0 37 0 0
3.460856 0.91217709 -0.24578828 1 3880436224 0 37 0 0
3.468894 0.89156866 -0.24596614 1 3880436224 0 37 0 0
3.476939 0.87092817 -0.24615288 1 3880436224 0 37 0 0
3.4849904 0.8502543 -0.24634874 1 3880436224 0 37 0 0
3.4930501 0.82954502 -0.24655384 1 3880436224 0 37 0 0
3.5011175 0.80879933 -0.24676859 1 3880436224 0 37 0 0
3.5091939 0.78801578 -0.24699211 1 3880436224 0 37 0 0
3.5172799 0.76719213 -0.24722534 1 3880436224 0 37 0 0
3.5253754 0.74632752 -0.24746799 1 3880436224 0 37 0 0
3.5334816 0.72541982 -0.24771976 1 3880436224 0 37 0 0
3.541599 0.70446748 -0.24798095 1 3880436224 0 37 0 0
3.5497279 0.68346918 -0.24825197 1 3880436224 0 37 0 0
3.5578692 0.66242301 -0.24853265 1 3880436224 0 37 0 0
3.5660243 0.64132702 -0.24882239 1 3880436224 0 37 0 0
3.5741925 0.62018043 -0.2491222 1 3880436224 0 37 0 0
3.5823748 0.59898084 -0.24943173 1 3880436224 0 37 0 0
3.5905721 0.57772714 -0.24975091 1 3880436224 0 37 0 0
3.275584 1.3099332 -0.28649634 1 3868435968 0 38 0 0
3.2835534 1.2898072 -0.28649551 1 3868435968 0 38 0 0
3.2915165 1.2696779 -0.28650516 1 3868435968 0 38 0 0
3.2994747 1.2495444 -0.28652507 1 3868435968 0 38 0 0
3.3074279 1.2294052 -0.28655547 1 3868435968 0 38 0 0
3.3153768 1.2092588 -0.28659564 1 3868435968 0 38 0 0
3.3233228 1.1891032 -0.28664643 1 3868435968 0 38 0 0
3.3312652 1.1689384 -0.28670722 1 3868435968 0 38 0 0
3.3392045 1.1487619 -0.28677875 1 3868435968 0 38 0 0
3.3471434 1.1285716 -0.28686041 1 3868435968 0 38 0 0
3.3550799 1.1083677 -0.28695244 1 3868435968 0 38 0 0
3.3630154 1.0881497 -0.28705472 1 3868435968 0 38 0 0
3.3709509 1.0679128 -0.28716749 1 3868435968 0 38 0 0
3.3788869 1.0476574 -0.28729039 1 3880436224 0 38 0 0
3.3868234 1.0273823 -0.28742379 1 3880436224 0 38 0 0
3.3947613 1.0070853 -0.28756768 1 3880436224 0 38 0 0
3.4027014 0.9867658 -0.28772193 1 3880436224 0 38 0 0
3.4106438 0.96642125 -0.28788692 1 3880436224 0 38 0 0
3.4185896 0.94605136 -0.2880618 1 3880436224 0 38 0 0
3.4265389 0.92565441 -0.28824788 1 3880436224 0 38 0 0
3.4344921 0.90522832 -0.28844434 1 3880436224 0 38 0 0
3.4424505 0.884772 -0.28865105 1 3880436224 0 38 0 0
3.4504137 0.86428398 -0.28886873 1 3880436224 0 38 0 0
3.4583831 0.84376281 -0.28909713 1 3880436224 0 38 0 0
3.4663589 0.82320648 -0.28933591 1 3880436224 0 38 0 0
3.4743416 0.80261397 -0.28958577 1 3880436224 0 38 0 0
3.482332 0.78198391 -0.28984624 1 3880436224 0 38 0 0
3.4903307 0.76131439 -0.29011768 1 3880436224 0 38 0 0
3.4983382 0.74060357 -0.29040021 1 3880436224 0 38 0 0
3.5063548 0.71985066 -0.29069358 1 3880436224 0 38 0 0
3.5143814 0.69905365 -0.2909978 1 3880436224 0 38 0 0
3.5224185 0.67821079 -0.29131347 1 3880436224 0 38 0 0
3.5304668 0.6573208 -0.29163975 1 3880436224 0 38 0 0
3.5385265 0.63638192 -0.2919777 1 3880436224 0 38 0 0
3.5465991 0.61539251 -0.29232663 1 3880436224 0 38 0 0
3.5546842 0.59435105 -0.29268688 1 3880436224 0 38 0 0
3.5627828 0.57325566 -0.29305845 1 3880436224 0 38 0 0
3.5708959 0.55210477 -0.29344147 1 3880436224 0 38 0 0
3.2588468 1.2801018 -0.32832319 1 3868435968 0 39 0 0
3.2667489 1.260124 -0.32833415 1 3868435968 0 39 0 0
3.2746453 1.2401413 -0.32835692 1 3868435968 0 39 0 0
3.2825363 1.2201527 -0.32839125 1 3868435968 0 39 0 0
3.290422 1.2001563 -0.32843739 1 3868435968 0 39 0 0
3.2983031 1.1801516 -0.32849473 1 3868435968 0 39 0 0
3.3061807 1.1601363 -0.32856399 1 3868435968 0 39 0 0
3.3140545 1.1401094 -0.32864529 1 3868435968 0 39 0 0
3.3219259 1.1200697 -0.32873791 1 3868435968 0 39 0 0
3.3297949 1.1000153 -0.32884246 1 3868435968 0 39 0 0
3.3376613 1.0799464 -0.32895905 1 3868435968 0 39 0 0
3.3455272 1.0598592 -0.32908732 1 3868435968 0 39 0 0
3.3533924 1.0397528 -0.32922751 1 3880436224 0 39 0 0
3.3612576 1.0196271 -0.3293789 1 3880436224 0 39 0 0
3.3691227 0.99947929 -0.32954246 1 3880436224 0 39 0 0
3.3769894 0.97930896 -0.32971805 1 3880436224 0 39 0 0
3.3848572 0.95911449 -0.32990545 1 3880436224 0 39 0 0
3.3927274 0.93889415 -0.33010441 1 3880436224 0 39 0 0
3.4005995 0.91864675 -0.33031589 1 3880436224 0 39 0 0
3.4084749 0.89837104 -0.33053941 1 3880436224 0 39 0 0
3.4163547 0.87806487 -0.33077472 1 3880436224 0 39 0 0
3.424238 0.85772717 -0.3310222 1 3880436224 0 39 0 0
3.4321263 0.83735663 -0.33128172 1 3880436224 0 39 0 0
3.4400201 0.81695145 -0.3315534 1 3880436224 0 39 0 0
3.4479191 0.79651028 -0.33183783 1 3880436224 0 39 0 0
3.4558253 0.77603161 -0.33213395 1 3880436224 0 39 0 0
3.4637387 0.75551373 -0.33244258 1 3880436224 0 39 0 0
3.4716592 0.73495567 -0.33276373 1 3880436224 0 39 0 0
3.4795876 0.71435547 -0.33309752 1 3880436224 0 39 0 0
3.4875252 0.69371146 -0.33344334 1 3880436224 0 39 0 0
3.495472 0.67302245 -0.33380193 1 3880436224 0 39 0 0
3.5034285 0.65228677 -0.33417338 1 3880436224 0 39 0 0
3.5113955 0.63150299 -0.33455735 1 3880436224 0 39 0 0
3.5193737 0.61066896 -0.33495432 1 3880436224 0 39 0 0
3.5273633 0.58978325 -0.33536404 1 3880436224 0 39 0 0
3.5353656 0.5688445 -0.3357864 1 3880436224 0 39 0 0
3.54338 0.54785103 -0.33622235 1 3880436224 0 39 0 0
3.5514083 0.52680123 -0.33667082 1 3880436224 0 39 0 0
3.2422945 1.2506907 -0.36963433 1 3868435968 0 40 0 0
3.2501299 1.2308573 -0.36965972 1 3868435968 0 40 0 0
3.2579596 1.2110168 -0.36969799 1 3868435968 0 40 0 0
3.2657826 1.1911694 -0.36974937 1 3868435968 0 40 0 0
3.2736006 1.1713125 -0.36981398 1 3868435968 0 40 0 0
3.2814136 1.1514457 -0.36989135 1 3868435968 0 40 0 0
3.2892227 1.1315666 -0.36998194 1 3868435968 0 40 0 0
3.2970281 1.1116742 -0.37008578 1 3868435968 0 40 0 0
3.3048298 1.0917675 -0.3702026 1 3868435968 0 40 0 0
3.3126287 1.0718467 -0.37033278 1 3868435968 0 40 0 0
3.320426 1.0519073 -0.37047583 1 3868435968 0 40 0 0
3.3282216 1.0319484 -0.37063199 1 3880436224 0 40 0 0
3.3360162 1.0119699 -0.37080151 1 3880436224 0 40 0 0
3.3438101 0.99197018 -0.37098438 1 3880436224 0 40 0 0
3.3516035 0.97194791 -0.37118059 1 3880436224 0 40 0 0
3.3593981 0.95190048 -0.37138981 1 3880436224 0 40 0 0
3.3671935 0.9318282 -0.37161237 1 3880436224 0 40 0 0
3.3749905 0.9117291 -0.3718484 1 3880436224 0 40 0 0
3.3827896 0.89160091 -0.37209815 1 3880436224 0 40 0 0
3.3905914 0.87144321 -0.37236089 1 3880436224 0 40 0 0
3.3983963 0.85125446 -0.37263745 1 3880436224 0 40 0 0
3.4062049 0.83103234 -0.37292737 1 3880436224 0 40 0 0
3.4140179 0.81077629 -0.37323111 1 3880436224 0 40 0 0
3.4218359 0.79048437 -0.37354833 1 3880436224 0 40 0 0
3.4296584 0.77015549 -0.37387973 1 3880436224 0 40 0 0
3.4374871 0.74978799 -0.37422472 1 3880436224 0 40 0 0
3.4453228 0.72938001 -0.37458318 1 3880436224 0 40 0 0
3.4531648 0.70893073 -0.37495571 1 3880436224 0 40 0 0
3.4610145 0.68843842 -0.37534255 1 3880436224 0 40 0 0
3.4688728 0.66790122 -0.37574297 1 3880436224 0 40 0 0
3.4767394 0.64731777 -0.37615806 1 3880436224 0 40 0 0
3.4846153 0.62668633 -0.37658697 1 3880436224 0 40 0 0
3.4925008 0.60600591 -0.37703019 1 3880436224 0 40 0 0
3.5003972 0.58527434 -0.3774876 1 3880436224 0 40 0 0
3.5083036 0.56449044 -0.37796003 1 3880436224 0 40 0 0
3.5162225 0.54365224 -0.37844652 1 3880436224 0 40 0 0
3.524153 0.52275813 -0.37894756 1 3880436224 0 40 0 0
3.5320959 0.50180811 -0.37946349 1 3880436224 0 40 0 0
3.5400524 0.48079741 -0.37999409 1 3880436224 0 40 0 0
3.2259154 1.221687 -0.41045576 1 3868435968 0 41 0 0
3.2336843 1.2019936 -0.41049796 1 3868435968 0 41 0 0
3.2414463 1.1822925 -0.41055447 1 3868435968 0 41 0 0
3.2492015 1.1625823 -0.41062564 1 3868435968 0 41 0 0
3.2569511 1.1428615 -0.41071123 1 3868435968 0 41 0 0
3.2646956 1.1231285 -0.41081113 1 3868435968 0 41 0 0
3.2724361 1.1033826 -0.41092521 1 3868435968 0 41 0 0
3.2801721 1.0836216 -0.41105419 1 3868435968 0 41 0 0
3.287904 1.0638465 -0.41119736 1 3868435968 0 41 0 0
3.2956336 1.0440528 -0.41135532 1 3868435968 0 41 0 0
3.3033605 1.02424 -0.41152722 1 3880436224 0 41 0 0
3.3110857 1.0044078 -0.4117139 1 3880436224 0 41 0 0
3.318809 0.98455364 -0.41191548 1 3880436224 0 41 0 0
3.3265316 0.96467704 -0.41213149 1 3880436224 0 41 0 0
3.3342538 0.94477582 -0.41236204 1 3880436224 0 41 0 0
3.3419752 0.92484969 -0.41260773 1 3880436224 0 41 0 0
3.3496981 0.90489614 -0.41286772 1 3880436224 0 41 0 0
3.3574219 0.8849147 -0.41314274 1 3880436224 0 41 0 0
3.3651471 0.86490369 -0.41343266 1 3880436224 0 41 0 0
3.3728747 0.84486133 -0.41373736 1 3880436224 0 41 0 0
3.380605 0.82478666 -0.41405684 1 3880436224 0 41 0 0
3.3883386 0.80467808 -0.41439146 1 3880436224 0 41 0 0
3.396076 0.78453344 -0.41474122 1 3880436224 0 41 0 0
3.4038169 0.7643528 -0.41510612 1 3880436224 0 41 0 0
3.4115636 0.74413323 -0.4154858 1 3880436224 0 41 0 0
3.4193144 0.72387409 -0.41588134 1 3880436224 0 41 0 0
3.4270718 0.703574 -0.41629201 1 3880436224 0 41 0 0
3.4348357 0.68323082 -0.41671795 1 3880436224 0 41 0 0
3.4426064 0.6628437 -0.41715926 1 3880436224 0 41 0 0
3.4503844 0.64241105 -0.41761643 1 3880436224 0 41 0 0
3.4581709 0.6219309 -0.41808921 1 3880436224 0 41 0 0
3.4659657 0.60140151 -0.41857761 1 3880436224 0 41 0 0
3.4737697 0.58082229 -0.41908187 1 3880436224 0 41 0 0
3.4815834 0.56019098 -0.41960174 1 3880436224 0 41 0 0
3.4894075 0.53950608 -0.42013782 1 3880436224 0 41 0 0
3.4972425 0.51876611 -0.42069 1 3880436224 0 41 0 0
3.5050881 0.49797115 -0.42125827 1 3880436224 0 41 0 0
3.5129461 0.47711605 -0.42184287 1 3880436224 0 41 0 0
3.5208168 0.45620108 -0.42244381 1 3880436224 0 41 0 0
3.2096975 1.1930778 -0.450813 1 3868435968 0 42 0 0
3.2173984 1.173521 -0.45087463 1 3868435968 0 42 0 0
3.2250922 1.1539557 -0.45095211 1 3868435968 0 42 0 0
3.2327795 1.1343795 -0.45104522 1 3868435968 0 42 0 0
3.2404611 1.1147913 -0.45115417 1 3868435968 0 42 0 0
3.2481365 1.0951892 -0.45127898 1 3868435968 0 42 0 0
3.2558081 1.075573 -0.45141906 1 3868435968 0 42 0 0
3.263474 1.0559417 -0.45157534 1 3868435968 0 42 0 0
3.2711368 1.036292 -0.45174724 1 3868435968 0 42 0 0
3.278796 1.0166236 -0.45193499 1 3880436224 0 42 0 0
3.2864525 0.99693507 -0.45213872 1 3880436224 0 42 0 0
3.2941067 0.97722507 -0.45235795 1 3880436224 0 42 0 0
3.3017583 0.95749295 -0.45259351 1 3880436224 0 42 0 0
3.3094094 0.93773609 -0.45284504 1 3880436224 0 42 0 0
3.317059 0.91795421 -0.45311266 1 3880436224 0 42 0 0
3.3247082 0.89814574 -0.45339614 1 3880436224 0 42 0 0
3.3323576 0.87830901 -0.45369583 1 3880436224 0 42 0 0
3.3400083 0.85844254 -0.4540115 1 3880436224 0 42 0 0
3.3476596 0.83854526 -0.45434374 1 3880436224 0 42 0 0
3.3553128 0.81861585 -0.45469207 1 3880436224 0 42 0 0
3.362968 0.79865265 -0.45505708 1 3880436224 0 42 0 0
3.3706257 0.77865434 -0.45543808 1 3880436224 0 42 0 0
3.3782873 0.75861961 -0.45583552 1 3880436224 0 42 0 0
3.385952 0.73854703 -0.45624965 1 3880436224 0 42 0 0
3.3936212 0.71843475 -0.45668048 1 3880436224 0 42 0 0
3.4012945 0.69828194 -0.45712799 1 3880436224 0 42 0 0
3.4089737 0.6780867 -0.45759231 1 3880436224 0 42 0 0
3.4166586 0.65784776 -0.45807356 1 3880436224 0 42 0 0
3.4243498 0.63756341 -0.45857149 1 3880436224 0 42 0 0
3.4320483 0.61723244 -0.4590866 1 3880436224 0 42 0 0
3.439754 0.59685332 -0.45961899 1 3880436224 0 42 0 0
3.4474673 0.57642442 -0.46016842 1 3880436224 0 42 0 0
3.4551895 0.55594426 -0.46073514 1 3880436224 0 42 0 0
3.4629207 0.53541076 -0.46131927 1 3880436224 0 42 0 0
3.4706612 0.51482332 -0.46192092 1 3880436224 0 42 0 0
3.4784114 0.4941811 -0.46254009 1 3880436224 0 42 0 0
3.4861734 0.47348008 -0.46317691 1 3880436224 0 42 0 0
3.4939461 0.45271927 -0.46383196 1 3880436224 0 42 0 0
3.5017309 0.43189785 -0.4645049 1 3880436224 0 42 0 0
3.5095279 0.41101396 -0.46519595 1 3880436224 0 42 0 0
3.1936269 1.1648513 -0.4907307 1 3868435968 0 43 0 0
3.2012601 1.1454285 -0.49081451 1 3868435968 0 43 0 0
3.2088857 1.1259955 -0.49091524 1 3868435968 0 43 0 0
3.2165048 1.1065495 -0.49103278 1 3868435968 0 43 0 0
3.2241173 1.0870906 -0.49116725 1 3868435968 0 43 0 0
3.2317245 1.0676166 -0.49131888 1 3868435968 0 43 0 0
3.2393255 1.0481284 -0.49148756 1 3868435968 0 43 0 0
3.2469225 1.0286208 -0.49167329 1 3868435968 0 43 0 0
3.2545149 1.0090946 -0.49187642 1 3880436224 0 43 0 0
3.2621038 0.9895488 -0.49209625 1 3880436224 0 43 0 0
3.2696893 0.96998203 -0.49233323 1 3880436224 0 43 0 0
3.277272 0.95039183 -0.49258786 1 3880436224 0 43 0 0
3.2848525 0.93077803 -0.49285954 1 3880436224 0 43 0 0
3.2924314 0.91113889 -0.49314839 1 3880436224 0 43 0 0
3.3000085 0.89147323 -0.49345475 1 3880436224 0 43 0 0
3.3075848 0.87177956 -0.49377841 1 3880436224 0 43 0 0
3.315161 0.8520565 -0.49411958 1 3880436224 0 43 0 0
3.3227375 0.83230281 -0.4944784 1 3880436224 0 43 0 0
3.3303142 0.81251693 -0.49485475 1 3880436224 0 43 0 0
3.3378928 0.79269779 -0.49524873 1 3880436224 0 43 0 0
3.3454731 0.77284348 -0.49566025 1 3880436224 0 43 0 0
3.3530548 0.75295347 -0.49608999 1 3880436224 0 43 0 0
3.3606396 0.73302567 -0.49653739 1 3880436224 0 43 0 0
3.3682272 0.71305889 -0.4970029 1 3880436224 0 43 0 0
3.3758192 0.69305134 -0.49748594 1 3880436224 0 43 0 0
3.3834152 0.67300266 -0.49798733 1 3880436224 0 43 0 0
3.3910155 0.65291029 -0.49850708 1 3880436224 0 43 0 0
3.3986213 0.63277328 -0.49904507 1 3880436224 0 43 0 0
3.4062331 0.61258996 -0.4996013 1 3880436224 0 43 0 0
3.413851 0.59235853 -0.50017625 1 3880436224 0 43 0 0
3.4214756 0.57207841 -0.50076967 1 3880436224 0 43 0 0
3.4291079 0.5517475 -0.5013817 1 3880436224 0 43 0 0
3.4367476 0.5313642 -0.50201267 1 3880436224 0 43 0 0
3.444396 0.51092714 -0.50266248 1 3880436224 0 43 0 0
3.4520526 0.49043632 -0.50333112 1 3880436224 0 43 0 0
3.4597192 0.46988705 -0.50401896 1 3880436224 0 43 0 0
3.4673958 0.44927916 -0.50472611 1 3880436224 0 43 0 0
3.4750829 0.42861125 -0.50545293 1 3880436224 0 43 0 0
3.4827812 0.40788168 -0.50619918 1 3880436224 0 43 0 0
3.4904912 0.38708872 -0.50696486 1 3880436224 0 43 0 0
3.1776936 1.1369966 -0.53023261 1 3868435968 0 44 0 0
3.1852586 1.1177045 -0.53034025 1 3868435968 0 44 0 0
3.192816 1.0984004 -0.53046626 1 3868435968 0 44 0 0
3.200366 1.0790821 -0.53061062 1 3868435968 0 44 0 0
3.2079096 1.0597497 -0.53077346 1 3868435968 0 44 0 0
3.2154465 1.0404022 -0.53095442 1 3868435968 0 44 0 0
3.2229784 1.0210359 -0.5311535 1 3868435968 0 44 0 0
3.2305052 1.0016506 -0.53137106 1 3880436224 0 44 0 0
3.2380273 0.98224568 -0.53160697 1 3880436224 0 44 0 0
3.2455456 0.96281928 -0.53186125 1 3880436224 0 44 0 0
3.2530599 0.94337034 -0.53213388 1 3880436224 0 44 0 0
3.260571 0.92389798 -0.53242546 1 3880436224 0 44 0 0
3.2680795 0.90439969 -0.53273505 1 3880436224 0 44 0 0
3.2755857 0.88487571 -0.53306371 1 3880436224 0 44 0 0
3.2830901 0.86532336 -0.53341085 1 3880436224 0 44 0 0
3.2905931 0.84574199 -0.53377658 1 3880436224 0 44 0 0
3.2980959 0.82613003 -0.53416115 1 3880436224 0 44 0 0
3.305598 0.80648655 -0.53456479 1 3880436224 0 44 0 0
3.3131001 0.7868098 -0.53498739 1 3880436224 0 44 0 0
3.3206036 0.76709872 -0.53542858 1 3880436224 0 44 0 0
3.3281078 0.74735159 -0.53588909 1 3880436224 0 44 0 0
3.335614 0.72756666 -0.53636879 1 3880436224 0 44 0 0
3.3431218 0.70774388 -0.53686792 1 3880436224 0 44 0 0
3.3506329 0.68788075 -0.537386 1 3880436224 0 44 0 0
3.3581469 0.66797644 -0.5379234 1 3880436224 0 44 0 0
3.3656642 0.64802909 -0.53848094 1 3880436224 0 44 0 0
3.3731863 0.62803739 -0.53905743 1 3880436224 0 44 0 0
3.3807125 0.60799998 -0.53965384 1 3880436224 0 44 0 0
3.3882442 0.58791542 -0.54027003 1 3880436224 0 44 0 0
3.3957818 0.5677821 -0.54090601 1 3880436224 0 44 0 0
3.4033251 0.54759878 -0.54156226 1 3880436224 0 44 0 0
3.4108751 0.52736396 -0.54223865 1 3880436224 0 44 0 0
3.4184325 0.50707567 -0.54293543 1 3880436224 0 44 0 0
3.425997 0.48673445 -0.54365224 1 3880436224 0 44 0 0
3.4335704 0.46633545 -0.54438978 1 3880436224 0 44 0 0
3.1618862 1.1095033 -0.56934065 1 3868435968 0 45 0 0
3.1693828 1.0903383 -0.569475 1 3868435968 0 45 0 0
3.1768711 1.0711606 -0.56962889 1 3868435968 0 45 0 0
3.1843519 1.051967 -0.56980199 1 3868435968 0 45 0 0
3.1918254 1.0327594 -0.56999487 1 3868435968 0 45 0 0
3.1992934 1.0135324 -0.57020682 1 3868435968 0 45 0 0
3.2067554 0.99428666 -0.5704388 1 3880436224 0 45 0 0
3.2142117 0.97502118 -0.57069021 1 3880436224 0 45 0 0
3.2216628 0.95573431 -0.57096142 1 3880436224 0 45 0 0
3.2291098 0.93642509 -0.57125193 1 3880436224 0 45 0 0
3.236553 0.91709155 -0.57156247 1 3880436224 0 45 0 0
3.2439919 0.89773375 -0.5718928 1 3880436224 0 45 0 0
3.2514281 0.87834918 -0.57224268 1 3880436224 0 45 0 0
3.2588615 0.85893697 -0.57261258 1 3880436224 0 45 0 0
3.266293 0.83949608 -0.5730024 1 3880436224 0 45 0 0
3.2737222 0.82002491 -0.5734126 1 3880436224 0 45 0 0
3.2811511 0.80052173 -0.57384211 1 3880436224 0 45 0 0
3.2885787 0.78098625 -0.57429212 1 3880436224 0 45 0 0
3.296006 0.76141614 -0.57476252 1 3880436224 0 45 0 0
3.3034337 0.74181074 -0.57525319 1 3880436224 0 45 0 0
3.3108621 0.72216839 -0.57576436 1 3880436224 0 45 0 0
3.3182914 0.70248753 -0.57629603 1 3880436224 0 45 0 0
3.3257225 0.68276703 -0.57684833 1 3880436224 0 45 0 0
3.3331561 0.66300559 -0.57742089 1 3880436224 0 45 0 0
3.3405919 0.64320165 -0.57801455 1 3880436224 0 45 0 0
3.3480308 0.6233539 -0.5786292 1 3880436224 0 45 0 0
3.3554735 0.60346079 -0.57926434 1 3880436224 0 45 0 0
3.36292 0.58352137 -0.57992095 1 3880436224 0 45 0 0
3.3703718 0.56353325 -0.58059841 1 3880436224 0 45 0 0
3.3778279 0.54349637 -0.58129758 1 3880436224 0 45 0 0
3.1461935 1.0823609 -0.60807723 1 3868435968 0 46 0 0
3.1536205 1.0633215 -0.60824019 1 3868435968 0 46 0 0
3.1610401 1.044266 -0.60842401 1 3868435968 0 46 0 0
3.1684508 1.025196 -0.60862821 1 3868435968 0 46 0 0
3.1758554 1.0061072 -0.60885328 1 3868435968 0 46 0 0
3.1832528 0.98699981 -0.60909921 1 3880436224 0 46 0 0
3.1906445 0.96787208 -0.60936552 1 3880436224 0 46 0 0
3.1980302 0.94872314 -0.6096527 1 3880436224 0 46 0 0
3.2054105 0.92955238 -0.60996073 1 3880436224 0 46 0 0
3.212786 0.91035736 -0.61028975 1 3880436224 0 46 0 0
3.2201567 0.89113742 -0.61063963 1 3880436224 0 46 0 0
3.2275238 0.87189174 -0.61101073 1 3880436224 0 46 0 0
3.2348874 0.85261816 -0.61140269 1 3880436224 0 46 0 0
3.2422473 0.83331609 -0.61181623 1 3880436224 0 46 0 0
3.2496054 0.8139838 -0.61225051 1 3880436224 0 46 0 0
3.2569609 0.79462028 -0.61270624 1 3880436224 0 46 0 0
3.2643151 0.77522403 -0.6131832 1 3880436224 0 46 0 0
3.271668 0.75579381 -0.61368161 1 3880436224 0 46 0 0
3.2790201 0.73632854 -0.61420172 1 3880436224 0 46 0 0
3.2863719 0.71682668 -0.61474329 1 3880436224 0 46 0 0
3.2937241 0.69728643 -0.61530668 1 3880436224 0 46 0 0
3.3010769 0.6777072 -0.61589199 1 3880436224 0 46 0 0
3.3084307 0.65808743 -0.61649901 1 3880436224 0 46 0 0
3.3157861 0.63842559 -0.61712795 1 3880436224 0 46 0 0
3.3231437 0.61872023 -0.6177792 1 3880436224 0 46 0 0
3.1379623 1.0366423 -0.64665705 1 3868435968 0 47 0 0
3.1453116 1.017709 -0.64687258 1 3868435968 0 47 0 0
3.1526535 0.998757 -0.64710993 1 3868435968 0 47 0 0
3.1599877 0.97978604 -0.64736933 1 3880436224 0 47 0 0
3.167315 0.96079528 -0.64765018 1 3880436224 0 47 0 0
3.1746361 0.94178307 -0.64795309 1 3880436224 0 47 0 0
3.1819503 0.92274916 -0.64827842 1 3880436224 0 47 0 0
3.1892591 0.90369087 -0.64862567 1 3880436224 0 47 0 0
3.1965628 0.88460827 -0.64899486 1 3880436224 0 47 0 0
3.2038612 0.86549962 -0.64938623 1 3880436224 0 47 0 0
3.2111557 0.84636343 -0.64979976 1 3880436224 0 47 0 0
3.218446 0.82719874 -0.65023583 1 3880436224 0 47 0 0
3.225733 0.80800426 -0.65069407 1 3880436224 0 47 0 0
3.2330172 0.78877854 -0.65117484 1 3880436224 0 47 0 0
3.2402983 0.76952058 -0.65167826 1 3880436224 0 47 0 0
3.2475781 0.7502287 -0.65220374 1 3880436224 0 47 0 0
3.2548556 0.73090231 -0.65275258 1 3880436224 0 47 0 0
3.2621322 0.71153927 -0.65332371 1 3880436224 0 47 0 0
3.269408 0.69213855 -0.65391809 1 3880436224 0 47 0 0
3.1223974 1.0102947 -0.68474513 1 3868435968 0 48 0 0
3.1296771 0.99147815 -0.6849944 1 3868435968 0 48 0 0
3.1369488 0.97264278 -0.68526691 1 3880436224 0 48 0 0
3.1442125 0.95378739 -0.68556231 1 3880436224 0 48 0 0
3.151469 0.93491066 -0.68588084 1 3880436224 0 48 0 0
3.1587188 0.91601211 -0.68622226 1 3880436224 0 48 0 0
3.1659617 0.89708966 -0.68658727 1 3880436224 0 48 0 0
3.1731992 0.87814283 -0.68697482 1 3880436224 0 48 0 0
3.1804302 0.85916996 -0.68738645 1 3880436224 0 48 0 0
3.1876564 0.84016979 -0.68782097 1 3880436224 0 48 0 0
3.1948779 0.82114136 -0.68827921 1 3880436224 0 48 0 0
3.202095 0.80208313 -0.68876058 1 3880436224 0 48 0 0
3.2093084 0.78299415 -0.68926579 1 3880436224 0 48 0 0
3.2165179 0.76387304 -0.68979472 1 3880436224 0 48 0 0
3.1069162 0.98426694 -0.72252434 1 3868435968 0 49 0 0
3.114126 0.96556592 -0.72280973 1 3880436224 0 49 0 0
3.1213272 0.94684464 -0.72311896 1 3880436224 0 49 0 0
3.12852 0.92810261 -0.72345251 1 3880436224 0 49 0 0
3.1357055 0.90933818 -0.72381037 1 3880436224 0 49 0 0
3.1428838 0.89055043 -0.72419196 1 3880436224 0 49 0 0
3.1500552 0.87173814 -0.72459835 1 3880436224 0 49 0 0
3.1572201 0.85289985 -0.72502881 1 3880436224 0 49 0 0
3.0915086 0.95855343 -0.76001376 1 3880436224 0 50 0 0
3.0986481 0.93996543 -0.76033658 1 3880436224 0 50 0 0
3.1057785 0.92135632 -0.76068479 1 3880436224 0 50 0 0
