# .PCD v0.7 - Point Cloud Data file format
VERSION 0.7
FIELDS x y z intensity t reflectivity ring noise range
SIZE 4 4 4 4 4 2 2 2 4
TYPE F F F F U U U U U
COUNT 1 1 1 1 1 1 1 1 1
WIDTH 437
HEIGHT 1
VIEWPOINT 0 0 0 1 0 0 0
POINTS 437
DATA ascii
3.9880836 -0.69199902 0.075699925 1 1869797888 0 30 0 0
3.9819155 -0.71612424 0.075664937 1 1869797888 0 30 0 0
4.0743222 -0.50251991 0.025589108 1 1869797888 0 31 0 0
4.0680251 -0.52710378 0.025569439 1 1869797888 0 31 0 0
4.0617366 -0.55165011 0.025550842 1 1869797888 0 31 0 0
4.0554562 -0.57616162 0.025532961 1 1869797888 0 31 0 0
4.0491838 -0.60064 0.025516331 1 1869797888 0 31 0 0
4.0429187 -0.62508744 0.025500417 1 1869797888 0 31 0 0
4.0366607 -0.64950478 0.025485456 1 1869797888 0 31 0 0
4.0304084 -0.6738947 0.025471866 1 1869797888 0 31 0 0
4.0241628 -0.69825912 0.025458813 1 1869797888 0 31 0 0
4.0179224 -0.72259969 0.025446773 1 1869797888 0 31 0 0
4.0116863 -0.74691826 0.025436163 1 1869797888 0 31 0 0
4.1567259 -0.33227429 -0.025993288 1 1869797888 0 32 0 0
4.1502547 -0.35739824 -0.025965929 1 1869797888 0 32 0 0
4.1437979 -0.38247073 -0.02594012 1 1869797888 0 32 0 0
4.1373539 -0.40749359 -0.025914729 1 1869797888 0 32 0 0
4.1309233 -0.43246898 -0.025890589 1 1869797888 0 32 0 0
4.124505 -0.45739886 -0.025867403 1 1869797888 0 32 0 0
4.1180987 -0.48228544 -0.025845349 1 1869797888 0 32 0 0
4.1117039 -0.50713044 -0.025824249 1 1869797888 0 32 0 0
4.10532 -0.53193605 -0.025804222 1 1869797888 0 32 0 0
4.0989466 -0.55670398 -0.02578485 1 1869797888 0 32 0 0
4.0925827 -0.58143616 -0.025766909 1 1869797888 0 32 0 0
4.0862279 -0.60613495 -0.025749743 1 1869797888 0 32 0 0
4.0798821 -0.63080215 -0.025733709 1 1869797888 0 32 0 0
4.0735455 -0.65543938 -0.025718689 1 1869797888 0 32 0 0
4.0672164 -0.68004888 -0.025704682 1 1869797888 0 32 0 0
4.0608945 -0.70463294 -0.02569139 1 1869797888 0 32 0 0
4.0545797 -0.72919244 -0.02567941 1 1869797888 0 32 0 0
4.0482712 -0.75372982 -0.025667965 1 1869797888 0 32 0 0
4.0419683 -0.77824742 -0.025658071 1 1869797888 0 32 0 0
4.2419753 -0.15624031 -0.079387903 1 1869797888 0 33 0 0
4.2352762 -0.18202245 -0.079282105 1 1869797888 0 33 0 0
4.2285967 -0.20773691 -0.079179466 1 1869797888 0 33 0 0
4.2219367 -0.23338586 -0.079079986 1 1869797888 0 33 0 0
4.2152953 -0.25897175 -0.078983724 1 1869797888 0 33 0 0
4.208672 -0.28449655 -0.07889086 1 1869797888 0 33 0 0
4.2020664 -0.3099626 -0.078801513 1 1869797888 0 33 0 0
4.195477 -0.33537188 -0.07871455 1 1869797888 0 33 0 0
4.1889048 -0.36072689 -0.078631401 1 1869797888 0 33 0 0
4.1823483 -0.38602892 -0.078551352 1 1869797888 0 33 0 0
4.1758065 -0.41128108 -0.078474522 1 1869797888 0 33 0 0
4.1692801 -0.43648502 -0.078400373 1 1869797888 0 33 0 0
4.1627679 -0.46164259 -0.07833004 1 1869797888 0 33 0 0
4.1562691 -0.48675597 -0.078262448 1 1869797888 0 33 0 0
4.1497836 -0.51182741 -0.078198016 1 1869797888 0 33 0 0
4.143311 -0.53685838 -0.078136623 1 1869797888 0 33 0 0
4.1368499 -0.56185186 -0.078078568 1 1869797888 0 33 0 0
4.1304007 -0.58680928 -0.078023255 1 1869797888 0 33 0 0
4.1239624 -0.6117326 -0.07797122 1 1869797888 0 33 0 0
4.1175342 -0.6366238 -0.077921987 1 1869797888 0 33 0 0
4.1111164 -0.66148472 -0.077875555 1 1869797888 0 33 0 0
4.1047082 -0.6863178 -0.077832639 1 1869797888 0 33 0 0
4.098309 -0.71112496 -0.077792823 1 1869797888 0 33 0 0
4.091918 -0.73590744 -0.07775563 1 1869797888 0 33 0 0
4.0855346 -0.76066792 -0.077721357 1 1869797888 0 33 0 0
4.0791597 -0.7854079 -0.077690363 1 1869797888 0 33 0 0
4.0727916 -0.8101275 -0.07766217 1 1869797888 0 33 0 0
4.337657 0.05323315 -0.13524425 1 1869797888 0 34 0 0
4.3306417 0.026572121 -0.13501787 1 1869797888 0 34 0 0
4.3236532 -7.8201293e-07 -0.13479728 1 1869797888 0 34 0 0
4.3166919 -0.02648806 -0.1345827 1 1869797888 0 34 0 0
4.3097558 -0.052892279 -0.13437396 1 1869797888 0 34 0 0
4.3028455 -0.07921581 -0.13417155 1 1869797888 0 34 0 0
4.2959595 -0.10545884 -0.13397449 1 1869797888 0 34 0 0
4.2890968 -0.1316283 -0.1337831 1 1869797888 0 34 0 0
4.2822571 -0.15772411 -0.13359725 1 1869797888 0 34 0 0
4.2754397 -0.18374851 -0.13341713 1 1869797888 0 34 0 0
4.2686448 -0.20970446 -0.13324273 1 1869797888 0 34 0 0
4.2618709 -0.2355935 -0.13307405 1 1869797888 0 34 0 0
4.2551184 -0.26141819 -0.13291091 1 1869797888 0 34 0 0
4.248385 -0.2871812 -0.13275301 1 1869797888 0 34 0 0
4.2416711 -0.31288424 -0.13260072 1 1869797888 0 34 0 0
4.2349768 -0.33852938 -0.13245404 1 1869797888 0 34 0 0
4.2283001 -0.36411932 -0.13231242 1 1869797888 0 34 0 0
4.2216415 -0.38965574 -0.13217652 1 1869797888 0 34 0 0
4.2150002 -0.41514125 -0.13204592 1 1869797888 0 34 0 0
4.208375 -0.44057766 -0.1319204 1 1869797888 0 34 0 0
4.201766 -0.4659676 -0.13180065 1 1869797888 0 34 0 0
4.1951723 -0.49131197 -0.13168555 1 1869797888 0 34 0 0
4.1885939 -0.51661426 -0.13157624 1 1869797888 0 34 0 0
4.1820297 -0.54187572 -0.13147187 1 1869797888 0 34 0 0
4.1754789 -0.5670982 -0.13137263 1 1869797888 0 34 0 0
4.168942 -0.59228486 -0.13127875 1 1869797888 0 34 0 0
4.1624179 -0.61743677 -0.13119048 1 1869797888 0 34 0 0
4.1559052 -0.64255655 -0.13110697 1 1869797888 0 34 0 0
4.149405 -0.66764557 -0.13102859 1 1869797888 0 34 0 0
4.1429157 -0.69270635 -0.1309557 1 1869797888 0 34 0 0
4.1364374 -0.7177406 -0.13088769 1 1869797888 0 34 0 0
4.1299682 -0.74275047 -0.13082469 1 1869797888 0 34 0 0
4.1235099 -0.76773816 -0.13076705 1 1869797888 0 34 0 0
4.1170592 -0.79270542 -0.13071454 1 1869797888 0 34 0 0
4.1106186 -0.81765199 -0.13066661 1 1869797888 0 34 0 0
4.1041851 -0.84258413 -0.130624 1 1869797888 0 34 0 0
4.430759 0.2449303 -0.19374651 1 1869797888 0 35 0 0
4.423378 0.21730657 -0.193362 1 1869797888 0 35 0 0
4.4160318 0.18979163 -0.19298649 1 1869797888 0 35 0 0
4.4087191 0.16238245 -0.19261956 1 1869797888 0 35 0 0
4.4014397 0.13507654 -0.19226158 1 1869797888 0 35 0 0
4.3941927 0.107871 -0.19191229 1 1869797888 0 35 0 0
4.3869772 0.080763012 -0.19157219 1 1869797888 0 35 0 0
4.3797927 0.05375006 -0.19124073 1 1869797888 0 35 0 0
4.3726382 0.026829723 -0.19091713 1 1869797888 0 35 0 0
4.3655133 -8.010864e-07 -0.1906026 1 1869797888 0 35 0 0
4.358417 -0.026744138 -0.19029617 1 1869797888 0 35 0 0
4.3513489 -0.053402718 -0.18999839 1 1869797888 0 35 0 0
4.3443079 -0.079978712 -0.18970859 1 1869797888 0 35 0 0
4.3372946 -0.10647365 -0.18942755 1 1869797888 0 35 0 0
4.3303061 -0.13289295 -0.18915445 1 1869797888 0 35 0 0
4.3233433 -0.15923734 -0.18888909 1 1869797888 0 35 0 0
4.3164053 -0.18550895 -0.18863219 1 1869797888 0 35 0 0
4.3094912 -0.21171089 -0.18838334 1 1869797888 0 35 0 0
4.3026004 -0.23784508 -0.18814272 1 1869797888 0 35 0 0
4.295732 -0.26391342 -0.18790925 1 1869797888 0 35 0 0
4.2888861 -0.2899189 -0.18768442 1 1869797888 0 35 0 0
4.2820616 -0.31586361 -0.18746692 1 1869797888 0 35 0 0
4.2752581 -0.34174919 -0.18725693 1 1869797888 0 35 0 0
4.2684751 -0.36757904 -0.18705559 1 1869797888 0 35 0 0
4.2617111 -0.39335436 -0.18686146 1 1869797888 0 35 0 0
4.2549667 -0.41907737 -0.18667471 1 1869797888 0 35 0 0
4.2482409 -0.44475099 -0.18649596 1 1869797888 0 35 0 0
4.2415323 -0.47037724 -0.18632454 1 1869797888 0 35 0 0
4.2348418 -0.49595779 -0.1861605 1 1869797888 0 35 0 0
4.228168 -0.52149493 -0.18600458 1 1869797888 0 35 0 0
4.2215099 -0.54699111 -0.18585557 1 1869797888 0 35 0 0
4.2148676 -0.57244807 -0.18571442 1 1869797888 0 35 0 0
4.2082405 -0.59786808 -0.18558085 1 1869797888 0 35 0 0
4.2016277 -0.62325335 -0.18545425 1 1869797888 0 35 0 0
4.1950293 -0.64860559 -0.18533546 1 1869797888 0 35 0 0
4.1884441 -0.67392731 -0.18522376 1 1869797888 0 35 0 0
4.1818719 -0.69921988 -0.18511963 1 1869797888 0 35 0 0
4.175312 -0.72448623 -0.18502259 1 1869797888 0 35 0 0
4.1687636 -0.74972767 -0.18493283 1 1869797888 0 35 0 0
4.1622267 -0.77494633 -0.1848501 1 1869797888 0 35 0 0
4.1557002 -0.80014533 -0.18477452 1 1869797888 0 35 0 0
4.1491847 -0.82532346 -0.18470657 1 1869797888 0 35 0 0
4.1426783 -0.85048676 -0.18464565 1 1869797888 0 35 0 0
4.1361809 -0.87563574 -0.18459225 1 1869797888 0 35 0 0
4.4673028 0.21946454 -0.25118095 1 1869797888 0 36 0 0
4.4597974 0.19167262 -0.25068831 1 1869797888 0 36 0 0
4.4523282 0.16398878 -0.25020695 1 1869797888 0 36 0 0
4.4448953 0.13641004 -0.24973786 1 1869797888 0 36 0 0
4.4374976 0.10893379 -0.24927986 1 1869797888 0 36 0 0
4.4301333 0.081557557 -0.24883348 1 1869797888 0 36 0 0
4.4228029 0.054278221 -0.24839842 1 1869797888 0 36 0 0
4.4155045 0.027092807 -0.24797404 1 1869797888 0 36 0 0
4.4082389 -5.6624413e-07 -0.24756151 1 1869797888 0 36 0 0
4.4010034 -0.027005402 -0.24715966 1 1869797888 0 36 0 0
4.3937993 -0.053923529 -0.24676907 1 1869797888 0 36 0 0
4.3866248 -0.080758043 -0.24638933 1 1869797888 0 36 0 0
4.3794794 -0.10750896 -0.24602062 1 1869797888 0 36 0 0
4.3723617 -0.1341835 -0.24566239 1 1869797888 0 36 0 0
4.365272 -0.16078135 -0.24531472 1 1869797888 0 36 0 0
4.3582091 -0.18730555 -0.24497795 1 1869797888 0 36 0 0
4.3511724 -0.21375847 -0.24465168 1 1869797888 0 36 0 0
4.3441606 -0.24014248 -0.24433517 1 1869797888 0 36 0 0
4.3371744 -0.26645973 -0.24402964 1 1869797888 0 36 0 0
4.3302126 -0.29271245 -0.24373448 1 1869797888 0 36 0 0
4.3232741 -0.31890351 -0.24344933 1 1869797888 0 36 0 0
4.3163586 -0.34503463 -0.24317491 1 1869797888 0 36 0 0
4.3094654 -0.37110895 -0.24291027 1 1869797888 0 36 0 0
4.3025942 -0.39712778 -0.24265552 1 1869797888 0 36 0 0
4.2957439 -0.42309374 -0.2424112 1 1869797888 0 36 0 0
4.2889142 -0.44900936 -0.24217689 1 1869797888 0 36 0 0
4.2821045 -0.47487649 -0.24195248 1 1869797888 0 36 0 0
4.2753134 -0.50069755 -0.2417376 1 1869797888 0 36 0 0
4.2685409 -0.52647495 -0.24153292 1 1869797888 0 36 0 0
4.2617874 -0.55221009 -0.2413379 1 1869797888 0 36 0 0
4.2550507 -0.57790577 -0.24115258 1 1869797888 0 36 0 0
4.2483315 -0.60356396 -0.24097729 1 1869797888 0 36 0 0
4.2416286 -0.62918645 -0.24081135 1 1869797888 0 36 0 0
4.234941 -0.65477628 -0.24065548 1 1869797888 0 36 0 0
4.2282691 -0.68033504 -0.24050903 1 1869797888 0 36 0 0
4.2216115 -0.70586461 -0.24037212 1 1869797888 0 36 0 0
4.2149677 -0.73136687 -0.24024475 1 1869797888 0 36 0 0
4.2083383 -0.75684476 -0.24012721 1 1869797888 0 36 0 0
4.2017212 -0.78230011 -0.24001878 1 1869797888 0 36 0 0
4.1951165 -0.80773425 -0.2399199 1 1869797888 0 36 0 0
4.1885242 -0.83314854 -0.23983061 1 1869797888 0 36 0 0
4.1819434 -0.85854775 -0.23975116 1 1869797888 0 36 0 0
4.1753726 -0.88393247 -0.23968071 1 1869797888 0 36 0 0
4.1688128 -0.9093048 -0.23961991 1 1869797888 0 36 0 0
4.5045023 0.19359393 -0.30962878 1 1869797888 0 37 0 0
4.4968719 0.16562912 -0.30902869 1 1869797888 0 37 0 0
4.4892802 0.13777223 -0.30844313 1 1869797888 0 37 0 0
4.4817266 0.11001948 -0.30787212 1 1869797888 0 37 0 0
4.4742088 0.082368925 -0.30731481 1 1869797888 0 37 0 0
4.4667277 0.054817155 -0.30677205 1 1869797888 0 37 0 0
4.4592814 0.027361445 -0.30624324 1 1869797888 0 37 0 0
4.4518704 -5.2928925e-07 -0.30572885 1 1869797888 0 37 0 0
4.4444928 -0.027272219 -0.30522782 1 1869797888 0 37 0 0
4.4371476 -0.054455511 -0.30474073 1 1869797888 0 37 0 0
4.4298348 -0.0815534 -0.30426699 1 1869797888 0 37 0 0
4.422554 -0.10856651 -0.30380696 1 1869797888 0 37 0 0
4.4153032 -0.1355011 -0.30336028 1 1869797888 0 37 0 0
4.408082 -0.16235848 -0.30292684 1 1869797888 0 37 0 0
4.4008908 -0.18913981 -0.30250663 1 1869797888 0 37 0 0
4.3937278 -0.21584919 -0.30209965 1 1869797888 0 37 0 0
4.3865924 -0.24248786 -0.30170566 1 1869797888 0 37 0 0
4.3794847 -0.26905876 -0.30132455 1 1869797888 0 37 0 0
4.3724036 -0.29556447 -0.30095679 1 1869797888 0 37 0 0
4.3653474 -0.32200691 -0.30060118 1 1869797888 0 37 0 0
4.3583169 -0.34838873 -0.30025882 1 1869797888 0 37 0 0
4.3513103 -0.3747122 -0.29992896 1 1869797888 0 37 0 0
4.3443279 -0.40097973 -0.29961175 1 1869797888 0 37 0 0
4.337369 -0.42719358 -0.29930705 1 1869797888 0 37 0 0
4.3304324 -0.45335579 -0.29901439 1 1869797888 0 37 0 0
4.3235178 -0.47946918 -0.29873461 1 1869797888 0 37 0 0
4.3166242 -0.50553584 -0.29846722 1 1869797888 0 37 0 0
4.3097515 -0.53155762 -0.29821175 1 1869797888 0 37 0 0
4.3028984 -0.55753714 -0.29796857 1 1869797888 0 37 0 0
4.2960653 -0.58347565 -0.2977373 1 1869797888 0 37 0 0
4.2892513 -0.60937691 -0.29751879 1 1869797888 0 37 0 0
4.2824545 -0.6352427 -0.29731172 1 1869797888 0 37 0 0
4.2756763 -0.66107458 -0.29711765 1 1869797888 0 37 0 0
4.2689152 -0.68687505 -0.29693526 1 1869797888 0 37 0 0
4.2621703 -0.71264607 -0.29676443 1 1869797888 0 37 0 0
4.2554412 -0.73839021 -0.29660589 1 1869797888 0 37 0 0
4.2487283 -0.76410848 -0.29645914 1 1869797888 0 37 0 0
4.2420292 -0.78980434 -0.29632396 1 1869797888 0 37 0 0
4.2353449 -0.81547987 -0.29620153 1 1869797888 0 37 0 0
4.2286744 -0.84113461 -0.29609042 1 1869797888 0 37 0 0
4.2220163 -0.86677474 -0.29599041 1 1869797888 0 37 0 0
4.2153711 -0.89240044 -0.29590303 1 1869797888 0 37 0 0
4.2087379 -0.91801333 -0.29582709 1 1869797888 0 37 0 0
4.5423942 0.16730617 -0.36914235 1 1869797888 0 38 0 0
4.5346389 0.13916402 -0.36843628 1 1869797888 0 38 0 0
4.5269241 0.11112936 -0.36774701 1 1869797888 0 38 0 0
4.5192485 0.083197869 -0.36707538 1 1869797888 0 38 0 0
4.5116115 0.055368107 -0.36642009 1 1869797888 0 38 0 0
4.5040121 0.027635865 -0.36578208 1 1869797888 0 38 0 0
4.4964509 -7.6770783e-07 -0.36516148 1 1869797888 0 38 0 0
4.4889264 -0.027544867 -0.36455756 1 1869797888 0 38 0 0
4.4814358 -0.054999132 -0.3639695 1 1869797888 0 38 0 0
4.4739809 -0.082366496 -0.36339837 1 1869797888 0 38 0 0
4.4665599 -0.10964687 -0.3628431 1 1869797888 0 38 0 0
4.4591718 -0.13684784 -0.36230439 1 1869797888 0 38 0 0
4.4518161 -0.16396926 -0.3617819 1 1869797888 0 38 0 0
4.4444923 -0.19101398 -0.36127514 1 1869797888 0 38 0 0
4.4371986 -0.21798483 -0.36078387 1 1869797888 0 38 0 0
4.4299359 -0.24488403 -0.36030895 1 1869797888 0 38 0 0
4.4227023 -0.27171427 -0.35984927 1 1869797888 0 38 0 0
4.4154978 -0.29847765 -0.35940558 1 1869797888 0 38 0 0
4.4083219 -0.32517689 -0.35897738 1 1869797888 0 38 0 0
4.4011717 -0.35181418 -0.35856348 1 1869797888 0 38 0 0
4.3940492 -0.37839255 -0.35816556 1 1869797888 0 38 0 0
4.3869529 -0.40491408 -0.35778362 1 1869797888 0 38 0 0
4.3798819 -0.43138042 -0.35741597 1 1869797888 0 38 0 0
4.3728356 -0.45779517 -0.35706347 1 1869797888 0 38 0 0
4.3658133 -0.48415953 -0.35672611 1 1869797888 0 38 0 0
4.3588138 -0.51047653 -0.35640329 1 1869797888 0 38 0 0
4.3518376 -0.53674817 -0.35609525 1 1869797888 0 38 0 0
4.3448834 -0.56297678 -0.35580212 1 1869797888 0 38 0 0
4.3379507 -0.58916473 -0.35552388 1 1869797888 0 38 0 0
4.3310385 -0.61531395 -0.35525995 1 1869797888 0 38 0 0
4.3241472 -0.64142686 -0.35501057 1 1869797888 0 38 0 0
4.317275 -0.66750592 -0.3547762 1 1869797888 0 38 0 0
4.3104224 -0.69355345 -0.35455638 1 1869797888 0 38 0 0
4.3035879 -0.71957123 -0.35435051 1 1869797888 0 38 0 0
4.2967715 -0.74556148 -0.35415965 1 1869797888 0 38 0 0
4.2899723 -0.77152658 -0.35398275 1 1869797888 0 38 0 0
4.2831893 -0.79746795 -0.35382015 1 1869797888 0 38 0 0
4.276423 -0.82338941 -0.35367185 1 1869797888 0 38 0 0
4.2696724 -0.84928983 -0.35353786 1 1869797888 0 38 0 0
4.2629361 -0.87517536 -0.35341793 1 1869797888 0 38 0 0
4.2562146 -0.90104651 -0.35331219 1 1869797888 0 38 0 0
4.2495065 -0.92690575 -0.35322076 1 1869797888 0 38 0 0
4.2428112 -0.95275474 -0.35314351 1 1869797888 0 38 0 0
4.581018 0.14058736 -0.42977935 1 1869797888 0 39 0 0
4.5731363 0.11226351 -0.42896718 1 1869797888 0 39 0 0
4.5652976 0.084045596 -0.42817563 1 1869797888 0 39 0 0
4.5575004 0.055930931 -0.42740422 1 1869797888 0 39 0 0
4.5497437 0.027916435 -0.42665237 1 1869797888 0 39 0 0
4.542027 -8.046627e-07 -0.42592114 1 1869797888 0 39 0 0
4.534349 -0.027823836 -0.42520887 1 1869797888 0 39 0 0
4.5267096 -0.055554919 -0.4245165 1 1869797888 0 39 0 0
4.5191073 -0.083197154 -0.4238432 1 1869797888 0 39 0 0
4.5115423 -0.11075134 -0.42318958 1 1869797888 0 39 0 0
4.5040126 -0.1382236 -0.42255467 1 1869797888 0 39 0 0
4.4965177 -0.16561571 -0.42193896 1 1869797888 0 39 0 0
4.4890566 -0.19292943 -0.4213416 1 1869797888 0 39 0 0
4.4816294 -0.2201678 -0.42076343 1 1869797888 0 39 0 0
4.4742346 -0.24733275 -0.42020375 1 1869797888 0 39 0 0
4.4668722 -0.2744278 -0.41966265 1 1869797888 0 39 0 0
4.4595404 -0.3014546 -0.41913956 1 1869797888 0 39 0 0
4.4522395 -0.32841641 -0.41863507 1 1869797888 0 39 0 0
4.4449677 -0.35531533 -0.41814834 1 1869797888 0 39 0 0
4.4377255 -0.38215399 -0.41768008 1 1869797888 0 39 0 0
4.4305115 -0.40893438 -0.41722935 1 1869797888 0 39 0 0
4.4233251 -0.43565941 -0.41679662 1 1869797888 0 39 0 0
4.4161649 -0.46233153 -0.41638118 1 1869797888 0 39 0 0
4.4090319 -0.48895264 -0.4159835 1 1869797888 0 39 0 0
4.4019241 -0.51552546 -0.41560382 1 1869797888 0 39 0 0
4.3948417 -0.54205209 -0.41524142 1 1869797888 0 39 0 0
4.3877831 -0.56853557 -0.41489631 1 1869797888 0 39 0 0
4.3807483 -0.5949772 -0.41456848 1 1869797888 0 39 0 0
4.3737359 -0.62138003 -0.41425794 1 1869797888 0 39 0 0
4.3667459 -0.64774573 -0.41396445 1 1869797888 0 39 0 0
4.3597784 -0.67407775 -0.41368872 1 1869797888 0 39 0 0
4.3528314 -0.70037705 -0.41342908 1 1869797888 0 39 0 0
4.3459048 -0.72664684 -0.41318709 1 1869797888 0 39 0 0
4.3389983 -0.75288856 -0.41296226 1 1869797888 0 39 0 0
4.3321109 -0.77910489 -0.4127534 1 1869797888 0 39 0 0
4.325242 -0.80529821 -0.41256207 1 1869797888 0 39 0 0
4.3183913 -0.83146983 -0.41238767 1 1869797888 0 39 0 0
4.3115582 -0.85762131 -0.4122296 1 1869797888 0 39 0 0
4.3047419 -0.88375825 -0.41208881 1 1869797888 0 39 0 0
4.2979412 -0.90988052 -0.41196448 1 1869797888 0 39 0 0
4.2911568 -0.93599057 -0.41185671 1 1869797888 0 39 0 0
4.2843871 -0.96209073 -0.41176611 1 1869797888 0 39 0 0
4.2776322 -0.98818326 -0.41169196 1 1869797888 0 39 0 0
4.6124063 0.084912941 -0.49068147 1 1869797888 0 40 0 0
4.6044426 0.056507118 -0.48978776 1 1869797888 0 40 0 0
4.5965228 0.028203316 -0.48891765 1 1869797888 0 40 0 0
4.5886459 -5.221367e-07 -0.48807079 1 1869797888 0 40 0 0
4.580811 -0.028108768 -0.48724681 1 1869797888 0 40 0 0
4.5730166 -0.056122817 -0.48644489 1 1869797888 0 40 0 0
4.5652633 -0.084046789 -0.4856661 1 1869797888 0 40 0 0
4.5575485 -0.11188032 -0.48490888 1 1869797888 0 40 0 0
4.5498729 -0.13963088 -0.48417467 1 1869797888 0 40 0 0
4.5422344 -0.1672992 -0.48346192 1 1869797888 0 40 0 0
4.5346317 -0.19488834 -0.48277074 1 1869797888 0 40 0 0
4.5270658 -0.22239977 -0.48210126 1 1869797888 0 40 0 0
4.5195355 -0.2498372 -0.48145407 1 1869797888 0 40 0 0
4.5120397 -0.27720299 -0.48082763 1 1869797888 0 40 0 0
4.5045776 -0.30449948 -0.48022288 1 1869797888 0 40 0 0
4.497148 -0.33172938 -0.47963864 1 1869797888 0 40 0 0
4.4897504 -0.35889521 -0.47907537 1 1869797888 0 40 0 0
4.4823842 -0.38599941 -0.47853273 1 1869797888 0 40 0 0
4.4750495 -0.41304484 -0.47801143 1 1869797888 0 40 0 0
4.4677439 -0.44003418 -0.47751051 1 1869797888 0 40 0 0
4.4604669 -0.46696925 -0.47702962 1 1869797888 0 40 0 0
4.4532194 -0.4938525 -0.47656924 1 1869797888 0 40 0 0
4.4460001 -0.52068722 -0.47613043 1 1869797888 0 40 0 0
4.4388075 -0.54747474 -0.47571093 1 1869797888 0 40 0 0
4.4316416 -0.57421833 -0.4753117 1 1869797888 0 40 0 0
4.4245014 -0.60091978 -0.47493225 1 1869797888 0 40 0 0
4.4173865 -0.62758142 -0.47457319 1 1869797888 0 40 0 0
4.4102955 -0.65420574 -0.47423345 1 1869797888 0 40 0 0
4.4032288 -0.68079573 -0.47391373 1 1869797888 0 40 0 0
4.3961854 -0.70735294 -0.47361416 1 1869797888 0 40 0 0
4.3891644 -0.73387951 -0.4733339 1 1869797888 0 40 0 0
4.382165 -0.76037866 -0.47307342 1 1869797888 0 40 0 0
4.3751874 -0.78685158 -0.47283238 1 1869797888 0 40 0 0
4.3682303 -0.81330144 -0.47261089 1 1869797888 0 40 0 0
4.3612924 -0.83973002 -0.472408 1 1869797888 0 40 0 0
4.3543754 -0.86613828 -0.47222668 1 1869797888 0 40 0 0
4.3474765 -0.89253139 -0.47206324 1 1869797888 0 40 0 0
4.3405957 -0.91891021 -0.47191936 1 1869797888 0 40 0 0
4.3337321 -0.94527715 -0.47179455 1 1869797888 0 40 0 0
4.3268862 -0.97163373 -0.47168964 1 1869797888 0 40 0 0
4.3200564 -0.99798316 -0.47160405 1 1869797888 0 40 0 0
4.3132424 -1.0243274 -0.47153729 1 1869797888 0 40 0 0
4.6524911 0.057096612 -0.55364162 1 1869797888 0 41 0 0
4.6444025 0.028497659 -0.55264765 1 1869797888 0 41 0 0
4.6363597 -8.8900327e-07 -0.55168027 1 1869797888 0 41 0 0
4.6283622 -0.028400401 -0.55073935 1 1869797888 0 41 0 0
4.6204081 -0.056704804 -0.5498237 1 1869797888 0 41 0 0
4.6124969 -0.084916487 -0.54893392 1 1869797888 0 41 0 0
4.604629 -0.11303625 -0.54806989 1 1869797888 0 41 0 0
4.5968018 -0.14107127 -0.54723102 1 1869797888 0 41 0 0
4.5890145 -0.16902241 -0.54641706 1 1869797888 0 41 0 0
4.5812669 -0.19689246 -0.54562813 1 1869797888 0 41 0 0
4.5735579 -0.22468379 -0.54486364 1 1869797888 0 41 0 0
4.565887 -0.25239965 -0.54412419 1 1869797888 0 41 0 0
4.5582528 -0.28004217 -0.54340905 1 1869797888 0 41 0 0
4.5506558 -0.30761412 -0.54271823 1 1869797888 0 41 0 0
4.5430942 -0.33511862 -0.54205161 1 1869797888 0 41 0 0
4.5355668 -0.3625578 -0.54140896 1 1869797888 0 41 0 0
4.5280728 -0.3899343 -0.54078954 1 1869797888 0 41 0 0
4.5206127 -0.41725039 -0.54019397 1 1869797888 0 41 0 0
4.5131845 -0.44450963 -0.53962213 1 1869797888 0 41 0 0
4.5057888 -0.47171408 -0.53907412 1 1869797888 0 41 0 0
4.4984236 -0.49886549 -0.53854901 1 1869797888 0 41 0 0
4.4910879 -0.52596766 -0.53804678 1 1869797888 0 41 0 0
4.4837828 -0.55302215 -0.53756827 1 1869797888 0 41 0 0
4.4765058 -0.58003139 -0.53711194 1 1869797888 0 41 0 0
4.4692574 -0.60699844 -0.53667921 1 1869797888 0 41 0 0
4.4620366 -0.6339249 -0.53626937 1 1869797888 0 41 0 0
4.4548416 -0.66081387 -0.5358817 1 1869797888 0 41 0 0
4.4476733 -0.68766743 -0.53551692 1 1869797888 0 41 0 0
4.4405303 -0.71448815 -0.53517479 1 1869797888 0 41 0 0
4.4334116 -0.74127811 -0.53485471 1 1869797888 0 41 0 0
4.4263177 -0.7680403 -0.53455752 1 1869797888 0 41 0 0
4.4192462 -0.79477555 -0.53428191 1 1869797888 0 41 0 0
4.4121985 -0.82148808 -0.53402919 1 1869797888 0 41 0 0
4.4051723 -0.8481791 -0.53379864 1 1869797888 0 41 0 0
4.3981681 -0.87484902 -0.53359014 1 1869797888 0 41 0 0
4.3911848 -0.90150464 -0.53340453 1 1869797888 0 41 0 0
4.6934366 0.02879826 -0.6179145 1 1869797888 0 42 0 0
4.6852226 -8.6039302e-07 -0.61682147 1 1869797888 0 42 0 0
4.6770563 -0.028699238 -0.615758 1 1869797888 0 42 0 0
4.6689367 -0.057300203 -0.61472362 1 1869797888 0 42 0 0
4.6608639 -0.085806832 -0.61371881 1 1869797888 0 42 0 0
4.6528368 -0.11421956 -0.61274272 1 1869797888 0 42 0 0
4.6448531 -0.1425457 -0.61179501 1 1869797888 0 42 0 0
4.6369119 -0.17078686 -0.61087531 1 1869797888 0 42 0 0
4.6290135 -0.19894439 -0.60998386 1 1869797888 0 42 0 0
4.6211572 -0.22702219 -0.60912091 1 1869797888 0 42 0 0
4.6133413 -0.25502264 -0.60828561 1 1869797888 0 42 0 0
4.6055655 -0.28294849 -0.60747761 1 1869797888 0 42 0 0
4.5978284 -0.31080267 -0.60669714 1 1869797888 0 42 0 0
4.5901294 -0.33858788 -0.6059441 1 1869797888 0 42 0 0
4.5824676 -0.36630678 -0.60521787 1 1869797888 0 42 0 0
4.5748425 -0.39396149 -0.60451883 1 1869797888 0 42 0 0
4.5672531 -0.42155567 -0.60384649 1 1869797888 0 42 0 0
4.5596986 -0.44909084 -0.60320014 1 1869797888 0 42 0 0
4.5521789 -0.47657055 -0.60258096 1 1869797888 0 42 0 0
4.544692 -0.50399697 -0.60198802 1 1869797888 0 42 0 0
4.5372381 -0.53137261 -0.60142118 1 1869797888 0 42 0 0
4.5298166 -0.55869967 -0.6008808 1 1869797888 0 42 0 0
4.5224257 -0.58598143 -0.60036641 1 1869797888 0 42 0 0
4.5150652 -0.61321968 -0.59987706 1 1869797888 0 42 0 0
4.5077343 -0.64041698 -0.59941369 1 1869797888 0 42 0 0
4.500433 -0.66757667 -0.59897655 1 1869797888 0 42 0 0
4.4931602 -0.69470024 -0.5985648 1 1869797888 0 42 0 0
4.7269516 -0.029005632 -0.6823805 1 1869797888 0 43 0 0
4.7186608 -0.057910521 -0.68122202 1 1869797888 0 43 0 0
4.7104201 -0.086719356 -0.68009669 1 1869797888 0 43 0 0
4.7022281 -0.11543197 -0.67900342 1 1869797888 0 43 0 0
4.6940818 -0.14405669 -0.6779415 1 1869797888 0 43 0 0
4.6859827 -0.17259417 -0.67691261 1 1869797888 0 43 0 0
4.6779284 -0.20104697 -0.67591411 1 1869797888 0 43 0 0
4.6699195 -0.22941788 -0.6749478 1 1869797888 0 43 0 0
4.6619539 -0.25771022 -0.67401272 1 1869797888 0 43 0 0
4.6540298 -0.28592616 -0.67310733 1 1869797888 0 43 0 0
4.6461487 -0.31406903 -0.672234 1 1869797888 0 43 0 0
4.638309 -0.34214148 -0.67139095 1 1869797888 0 43 0 0
4.6305079 -0.37014663 -0.67057735 1 1869797888 0 43 0 0
4.6227469 -0.39808682 -0.6697945 1 1869797888 0 43 0 0
4.6150246 -0.4259648 -0.66904169 1 1869797888 0 43 0 0
4.7696404 -0.05853628 -0.74939901 1 1869797888 0 44 0 0
4.7612252 -0.087654769 -0.74814755 1 1869797888 0 44 0 0
4.7528625 -0.11667534 -0.74693185 1 1869797888 0 44 0 0
4.7445493 -0.14560556 -0.74575239 1 1869797888 0 44 0 0
4.7362847 -0.17444673 -0.74460691 1 1869797888 0 44 0 0
