# .PCD v0.7 - Point Cloud Data file format
VERSION 0.7
FIELDS x y z intensity t reflectivity ring noise range
SIZE 4 4 4 4 4 2 2 2 4
TYPE F F F F U U U U U
COUNT 1 1 1 1 1 1 1 1 1
WIDTH 870
HEIGHT 1
VIEWPOINT 0 0 0 1 0 0 0
POINTS 870
DATA ascii
3.1615388 -0.11644568 0.95431137 1 3490114048 0 8 0 0
3.1929934 -0.05878314 0.9200415 1 3490114048 0 9 0 0
3.1885519 -0.078273676 0.91888285 1 3490114048 0 9 0 0
3.1841063 -0.097716965 0.91775739 1 3490114048 0 9 0 0
3.1796572 -0.11711294 0.91666478 1 3490114048 0 9 0 0
3.175204 -0.13646296 0.91560483 1 3490114048 0 9 0 0
3.1707461 -0.15576808 0.91457802 1 3490114048 0 9 0 0
3.2247896 -4.3869017e-07 0.88566017 1 3490114048 0 10 0 0
3.2203059 -0.019760285 0.88444561 1 3490114048 0 10 0 0
3.2158208 -0.039466571 0.88326347 1 3490114048 0 10 0 0
3.211333 -0.059120808 0.88211405 1 3490114048 0 10 0 0
3.2068427 -0.07872282 0.88099688 1 3490114048 0 10 0 0
3.2023494 -0.098276719 0.8799113 1 3490114048 0 10 0 0
3.1978526 -0.11778308 0.87885785 1 3490114048 0 10 0 0
3.1933529 -0.1372429 0.87783611 1 3490114048 0 10 0 0
3.1888492 -0.15665765 0.8768459 1 3490114048 0 10 0 0
3.1843414 -0.17602834 0.8758868 1 3490114048 0 10 0 0
3.256964 0.059959836 0.85112184 1 3490114048 0 11 0 0
3.2524319 0.039914921 0.84985739 1 3490114048 0 11 0 0
3.2478991 0.019928679 0.84862506 1 3490114048 0 11 0 0
3.2433653 -3.2186509e-07 0.84742445 1 3490114048 0 11 0 0
3.2388308 -0.019873938 0.8462556 1 3490114048 0 11 0 0
3.2342947 -0.039693404 0.84511805 1 3490114048 0 11 0 0
3.2297566 -0.059459943 0.84401178 1 3490114048 0 11 0 0
3.2252176 -0.079173908 0.84293664 1 3490114048 0 11 0 0
3.2206755 -0.098839231 0.84189242 1 3490114048 0 11 0 0
3.2161312 -0.11845641 0.84087873 1 3490114048 0 11 0 0
3.2115841 -0.13802648 0.83989537 1 3490114048 0 11 0 0
3.2070339 -0.15755092 0.83894265 1 3490114048 0 11 0 0
3.2024808 -0.17703106 0.83801961 1 3490114048 0 11 0 0
3.1979239 -0.19646832 0.83712715 1 3490114048 0 11 0 0
3.193363 -0.21586406 0.83626419 1 3490114048 0 11 0 0
3.2895577 0.12116157 0.81637764 1 3490114048 0 12 0 0
3.2849684 0.10081294 0.81506974 1 3490114048 0 12 0 0
3.2803805 0.080528408 0.81379354 1 3490114048 0 12 0 0
3.2757931 0.060306538 0.81254828 1 3490114048 0 12 0 0
3.2712066 0.04014539 0.81133425 1 3490114048 0 12 0 0
3.2666202 0.020043539 0.81015092 1 3490114048 0 12 0 0
3.2620337 -5.4597854e-07 0.80899829 1 3490114048 0 12 0 0
3.257447 -0.01998825 0.80787587 1 3490114048 0 12 0 0
3.2528601 -0.039921016 0.80678374 1 3490114048 0 12 0 0
3.2482717 -0.059800606 0.80572158 1 3490114048 0 12 0 0
3.2436824 -0.079627044 0.80468953 1 3490114048 0 12 0 0
3.2390921 -0.099404335 0.80368668 1 3490114048 0 12 0 0
3.2344995 -0.1191328 0.80271351 1 3490114048 0 12 0 0
3.2299047 -0.13881381 0.8017695 1 3490114048 0 12 0 0
3.2253075 -0.15844858 0.80085474 1 3490114048 0 12 0 0
3.2207079 -0.17803879 0.79996908 1 3490114048 0 12 0 0
3.2161059 -0.19758545 0.7991119 1 3490114048 0 12 0 0
3.2115002 -0.21709013 0.79828346 1 3490114048 0 12 0 0
3.2068913 -0.23655416 0.79748356 1 3502114304 0 12 0 0
3.2022786 -0.25597912 0.79671216 1 3502114304 0 12 0 0
3.3179576 0.16300087 0.7800324 1 3490114048 0 13 0 0
3.3133061 0.14239886 0.77871877 1 3490114048 0 13 0 0
3.3086574 0.12186509 0.7774359 1 3490114048 0 13 0 0
3.3040109 0.10139748 0.77618313 1 3490114048 0 13 0 0
3.299366 0.080994584 0.77496058 1 3490114048 0 13 0 0
3.294723 0.060655043 0.77376819 1 3490114048 0 13 0 0
3.2900815 0.040377054 0.77260536 1 3490114048 0 13 0 0
3.2854409 0.020158967 0.77147198 1 3490114048 0 13 0 0
3.2808013 -4.5776366e-07 0.77036798 1 3490114048 0 13 0 0
3.2761619 -0.02010319 0.76929319 1 3490114048 0 13 0 0
3.271523 -0.040150255 0.76824731 1 3490114048 0 13 0 0
3.2668839 -0.060143497 0.76723021 1 3490114048 0 13 0 0
3.2622447 -0.080082752 0.76624131 1 3490114048 0 13 0 0
3.2576044 -0.09997239 0.7652812 1 3490114048 0 13 0 0
3.2529628 -0.11981299 0.76434922 1 3490114048 0 13 0 0
3.2483203 -0.13960527 0.76344538 1 3490114048 0 13 0 0
3.2436759 -0.15935101 0.76256931 1 3490114048 0 13 0 0
3.2390301 -0.1790514 0.76172078 1 3490114048 0 13 0 0
3.2343817 -0.19870821 0.76090026 1 3490114048 0 13 0 0
3.2297311 -0.21832241 0.76010698 1 3490114048 0 13 0 0
3.2250774 -0.23789562 0.75934106 1 3502114304 0 13 0 0
3.2204211 -0.25742927 0.75860232 1 3502114304 0 13 0 0
3.2157614 -0.27692464 0.75789064 1 3502114304 0 13 0 0
3.3514433 0.22655071 0.74469262 1 3490114048 0 14 0 0
3.3467195 0.20561033 0.74334884 1 3490114048 0 14 0 0
3.3420007 0.18474437 0.74203479 1 3490114048 0 14 0 0
3.3372853 0.16395023 0.74075061 1 3490114048 0 14 0 0
3.3325744 0.14322689 0.73949575 1 3490114048 0 14 0 0
3.3278663 0.12257244 0.73827046 1 3490114048 0 14 0 0
3.3231618 0.10198511 0.73707408 1 3490114048 0 14 0 0
3.31846 0.081463262 0.73590648 1 3490114048 0 14 0 0
3.313761 0.061005715 0.73476732 1 3490114048 0 14 0 0
3.3090637 0.040610023 0.73365688 1 3490114048 0 14 0 0
3.3043685 0.020275211 0.73257434 1 3490114048 0 14 0 0
3.2996745 -5.1021573e-07 0.73152024 1 3490114048 0 14 0 0
3.2949822 -0.020218663 0.73049355 1 3490114048 0 14 0 0
3.2902908 -0.040380664 0.72949487 1 3490114048 0 14 0 0
3.2855999 -0.060488094 0.72852337 1 3490114048 0 14 0 0
3.28091 -0.08054097 0.7275793 1 3490114048 0 14 0 0
3.2762196 -0.10054395 0.72666246 1 3490114048 0 14 0 0
3.2715292 -0.12049673 0.72577226 1 3490114048 0 14 0 0
3.2668381 -0.14040107 0.72490895 1 3490114048 0 14 0 0
3.262146 -0.16025837 0.72407252 1 3490114048 0 14 0 0
3.257453 -0.18006971 0.72326237 1 3490114048 0 14 0 0
3.252758 -0.19983715 0.72247875 1 3490114048 0 14 0 0
3.2480617 -0.21956155 0.72172129 1 3490114048 0 14 0 0
3.2433631 -0.23924439 0.72098982 1 3502114304 0 14 0 0
3.2386622 -0.25888747 0.72028464 1 3502114304 0 14 0 0
3.233959 -0.27849171 0.71960485 1 3502114304 0 14 0 0
3.2292526 -0.29805884 0.71895123 1 3502114304 0 14 0 0
3.2245433 -0.31758979 0.71832287 1 3502114304 0 14 0 0
3.3854723 0.29153973 0.70899552 1 3490114048 0 15 0 0
3.3806677 0.27023935 0.70762855 1 3490114048 0 15 0 0
3.3758688 0.24901928 0.7062912 1 3490114048 0 15 0 0
3.3710763 0.22787751 0.70498276 1 3490114048 0 15 0 0
3.3662894 0.20681266 0.70370287 1 3490114048 0 15 0 0
3.3615079 0.18582268 0.70245183 1 3490114048 0 15 0 0
3.3567314 0.1649057 0.70122898 1 3490114048 0 15 0 0
3.3519595 0.14406008 0.70003432 1 3490114048 0 15 0 0
3.347192 0.1232843 0.69886762 1 3490114048 0 15 0 0
3.3424289 0.10257654 0.69772846 1 3490114048 0 15 0 0
3.3376694 0.081935093 0.69661665 1 3490114048 0 15 0 0
3.3329129 0.061358083 0.69553214 1 3490114048 0 15 0 0
3.3281593 0.040844344 0.69447488 1 3490114048 0 15 0 0
3.3234088 0.020392034 0.69344449 1 3490114048 0 15 0 0
3.3186605 -4.7206876e-07 0.69244057 1 3490114048 0 15 0 0
3.3139143 -0.020334681 0.69146347 1 3490114048 0 15 0 0
3.3091698 -0.040612224 0.69051254 1 3490114048 0 15 0 0
3.3044269 -0.060834691 0.68958765 1 3490114048 0 15 0 0
3.2996855 -0.081001878 0.68868905 1 3490114048 0 15 0 0
3.2949448 -0.10111841 0.68781602 1 3490114048 0 15 0 0
3.290204 -0.12118468 0.68696898 1 3490114048 0 15 0 0
3.2854638 -0.1412016 0.68614709 1 3490114048 0 15 0 0
3.2807238 -0.16117084 0.68535066 1 3490114048 0 15 0 0
3.2759829 -0.18109405 0.68457961 1 3490114048 0 15 0 0
3.2712414 -0.20097259 0.68383372 1 3490114048 0 15 0 0
3.2664986 -0.22080785 0.68311274 1 3490114048 0 15 0 0
3.2617548 -0.2406013 0.68241656 1 3502114304 0 15 0 0
3.2570093 -0.2603541 0.68174493 1 3502114304 0 15 0 0
3.2522619 -0.28006798 0.68109816 1 3502114304 0 15 0 0
3.2475123 -0.29974419 0.68047583 1 3502114304 0 15 0 0
3.2427602 -0.31938389 0.67987782 1 3502114304 0 15 0 0
3.2380049 -0.33898902 0.67930436 1 3502114304 0 15 0 0
3.4151983 0.33636799 0.67150038 1 3490114048 0 16 0 0
3.4103105 0.31477052 0.67014706 1 3490114048 0 16 0 0
3.405431 0.29325864 0.66882193 1 3490114048 0 16 0 0
3.4005589 0.27182928 0.66752487 1 3490114048 0 16 0 0
3.3956945 0.25048164 0.66625571 1 3490114048 0 16 0 0
3.390837 0.22921331 0.66501427 1 3490114048 0 16 0 0
3.3859863 0.20802277 0.6638 1 3490114048 0 16 0 0
3.3811417 0.18690787 0.66261274 1 3490114048 0 16 0 0
3.3763027 0.16586725 0.66145265 1 3490114048 0 16 0 0
3.3714697 0.14489867 0.66031909 1 3490114048 0 16 0 0
3.3666418 0.1240007 0.65921223 1 3490114048 0 16 0 0
3.3618188 0.10317148 0.65813154 1 3490114048 0 16 0 0
3.3570001 0.082409307 0.65707695 1 3490114048 0 16 0 0
3.3521862 0.061712917 0.656048 1 3490114048 0 16 0 0
3.3473761 0.041080154 0.65504491 1 3490114048 0 16 0 0
3.3425696 0.020509489 0.65406734 1 3490114048 0 16 0 0
3.3377657 -4.8160553e-07 0.65311527 1 3490114048 0 16 0 0
3.3329654 -0.020451635 0.652188 1 3490114048 0 16 0 0
3.3281674 -0.040845454 0.65128607 1 3490114048 0 16 0 0
3.3233714 -0.061183367 0.65040886 1 3490114048 0 16 0 0
3.318578 -0.081465691 0.64955634 1 3490114048 0 16 0 0
3.313786 -0.10169688 0.64872837 1 3490114048 0 16 0 0
3.308995 -0.12187666 0.64792454 1 3490114048 0 16 0 0
3.3042052 -0.14200722 0.64714515 1 3490114048 0 16 0 0
3.2994161 -0.16208936 0.64638984 1 3490114048 0 16 0 0
3.294627 -0.18212484 0.64565843 1 3490114048 0 16 0 0
3.2898381 -0.20211521 0.64495087 1 3490114048 0 16 0 0
3.285049 -0.22206174 0.6442669 1 3490114048 0 16 0 0
3.2802594 -0.24196613 0.64360654 1 3502114304 0 16 0 0
3.2754686 -0.26182964 0.64296991 1 3502114304 0 16 0 0
3.2706764 -0.28165373 0.64235628 1 3502114304 0 16 0 0
3.2658832 -0.30143967 0.64176619 1 3502114304 0 16 0 0
3.2610879 -0.32118893 0.64119893 1 3502114304 0 16 0 0
3.2562904 -0.34090319 0.64065498 1 3502114304 0 16 0 0
3.2514906 -0.36058348 0.64013386 1 3502114304 0 16 0 0
3.2466879 -0.38023147 0.63963568 1 3502114304 0 16 0 0
3.4503653 0.40408552 0.63490278 1 3490114048 0 17 0 0
3.4453781 0.38208571 0.63354182 1 3490114048 0 17 0 0
3.4404008 0.36017832 0.63220823 1 3490114048 0 17 0 0
3.4354336 0.338361 0.63090211 1 3490114048 0 17 0 0
3.430476 0.31663173 0.62962306 1 3490114048 0 17 0 0
3.4255276 0.29498908 0.62837076 1 3490114048 0 17 0 0
3.4205878 0.27343032 0.62714511 1 3490114048 0 17 0 0
3.4156563 0.25195414 0.62594575 1 3490114048 0 17 0 0
3.410733 0.23055835 0.62477237 1 3490114048 0 17 0 0
3.4058173 0.20924127 0.62362492 1 3490114048 0 17 0 0
3.4009085 0.18800065 0.6225031 1 3490114048 0 17 0 0
3.3960066 0.16683497 0.62140679 1 3490114048 0 17 0 0
3.3911114 0.14574289 0.62033576 1 3490114048 0 17 0 0
3.3862221 0.12472191 0.61928976 1 3490114048 0 17 0 0
3.3813388 0.10377051 0.61826873 1 3490114048 0 17 0 0
3.376461 0.082887113 0.61727226 1 3490114048 0 17 0 0
3.3715885 0.062070016 0.61630017 1 3490114048 0 17 0 0
3.3667204 0.041317444 0.61535245 1 3490114048 0 17 0 0
3.3618572 0.020628136 0.61442864 1 3490114048 0 17 0 0
3.356998 -5.1021573e-07 0.61352897 1 3490114048 0 17 0 0
3.3521423 -0.020569209 0.61265314 1 3490114048 0 17 0 0
3.34729 -0.04108008 0.61180085 1 3490114048 0 17 0 0
3.3424411 -0.061534494 0.61097205 1 3490114048 0 17 0 0
3.3375947 -0.081932351 0.61016679 1 3490114048 0 17 0 0
3.3327508 -0.10227878 0.60938442 1 3490114048 0 17 0 0
3.3279088 -0.12257335 0.60862517 1 3490114048 0 17 0 0
3.3230689 -0.14281772 0.60788882 1 3490114048 0 17 0 0
3.3182299 -0.16301365 0.60717529 1 3490114048 0 17 0 0
3.3133926 -0.18316211 0.60648429 1 3490114048 0 17 0 0
3.3085558 -0.20326509 0.60581589 1 3490114048 0 17 0 0
3.3037193 -0.22332384 0.60516983 1 3490114048 0 17 0 0
3.298883 -0.24333996 0.60454613 1 3502114304 0 17 0 0
3.2940469 -0.26331475 0.6039446 1 3502114304 0 17 0 0
3.2892098 -0.28324971 0.60336506 1 3502114304 0 17 0 0
3.2843721 -0.30314612 0.60280734 1 3502114304 0 17 0 0
3.2795334 -0.32300562 0.60227168 1 3502114304 0 17 0 0
3.2746933 -0.34282976 0.60175788 1 3502114304 0 17 0 0
3.269851 -0.36261967 0.60126555 1 3502114304 0 17 0 0
3.265007 -0.38237685 0.60079503 1 3502114304 0 17 0 0
3.2601604 -0.40210265 0.60034591 1 3502114304 0 17 0 0
3.4811261 0.45105824 0.59641141 1 3490114048 0 18 0 0
3.4760406 0.42872939 0.59507823 1 3490114048 0 18 0 0
3.4709673 0.40649831 0.59377152 1 3490114048 0 18 0 0
3.4659059 0.38436252 0.59249103 1 3490114048 0 18 0 0
3.460856 0.36231983 0.59123665 1 3490114048 0 18 0 0
3.4558165 0.34036872 0.59000778 1 3490114048 0 18 0 0
3.4507883 0.31850678 0.5888046 1 3490114048 0 18 0 0
3.4457695 0.29673225 0.5876267 1 3490114048 0 18 0 0
3.4407611 0.27504298 0.58647364 1 3490114048 0 18 0 0
3.4357617 0.25343713 0.58534539 1 3490114048 0 18 0 0
3.4307711 0.23191279 0.58424187 1 3490114048 0 18 0 0
3.4257896 0.21046796 0.58316249 1 3490114048 0 18 0 0
3.4208162 0.18910098 0.58210731 1 3490114048 0 18 0 0
3.4158504 0.16781002 0.58107615 1 3490114048 0 18 0 0
3.4108922 0.14659296 0.58006883 1 3490114048 0 18 0 0
3.4059415 0.12544826 0.57908505 1 3490114048 0 18 0 0
3.4009969 0.1043738 0.57812446 1 3490114048 0 18 0 0
3.3960588 0.083368301 0.57718754 1 3490114048 0 18 0 0
3.3911266 0.062429599 0.57627332 1 3490114048 0 18 0 0
3.3862004 0.041556519 0.57538188 1 3490114048 0 18 0 0
3.3812795 0.020747017 0.57451332 1 3490114048 0 18 0 0
3.3763638 -5.4419041e-07 0.57366717 1 3490114048 0 18 0 0
3.3714523 -0.020687856 0.57284361 1 3490114048 0 18 0 0
3.366545 -0.041316591 0.57204211 1 3490114048 0 18 0 0
3.3616421 -0.061888035 0.57126272 1 3490114048 0 18 0 0
3.3567424 -0.082402706 0.57050538 1 3490114048 0 18 0 0
3.3518462 -0.10286493 0.56976968 1 3490114048 0 18 0 0
3.3469524 -0.12327489 0.56905574 1 3490114048 0 18 0 0
3.3420618 -0.14363402 0.56836307 1 3490114048 0 18 0 0
3.337173 -0.1639441 0.56769222 1 3490114048 0 18 0 0
3.3322859 -0.1842068 0.56704259 1 3490114048 0 18 0 0
3.3274007 -0.20442298 0.56641394 1 3490114048 0 18 0 0
3.3225167 -0.22459456 0.56580657 1 3490114048 0 18 0 0
3.3176336 -0.24472313 0.56522012 1 3502114304 0 18 0 0
3.3127508 -0.26481006 0.56465453 1 3502114304 0 18 0 0
3.3078685 -0.28485665 0.5641098 1 3502114304 0 18 0 0
3.3029864 -0.30486426 0.56358534 1 3502114304 0 18 0 0
3.2981033 -0.32483482 0.5630818 1 3502114304 0 18 0 0
3.2932198 -0.34476918 0.56259841 1 3502114304 0 18 0 0
3.2883351 -0.36466932 0.56213558 1 3502114304 0 18 0 0
3.2834489 -0.38453659 0.56169331 1 3502114304 0 18 0 0
3.2785614 -0.40437201 0.56127083 1 3502114304 0 18 0 0
3.2736714 -0.42417738 0.56086898 1 3502114304 0 18 0 0
3.2687795 -0.44395372 0.56048685 1 3502114304 0 18 0 0
3.4917285 0.40892947 0.55232328 1 3490114048 0 19 0 0
3.4865918 0.38665643 0.55112493 1 3490114048 0 19 0 0
3.4814675 0.36447772 0.54995126 1 3490114048 0 19 0 0
3.4763553 0.34239143 0.54880154 1 3490114048 0 19 0 0
3.4712548 0.32039574 0.54767561 1 3490114048 0 19 0 0
3.4661653 0.29848856 0.5465734 1 3490114048 0 19 0 0
3.4610868 0.27666771 0.5454945 1 3490114048 0 19 0 0
3.4560187 0.25493136 0.54443908 1 3490114048 0 19 0 0
3.4509606 0.23327748 0.54340661 1 3490114048 0 19 0 0
3.4459121 0.21170422 0.54239678 1 3490114048 0 19 0 0
3.4408729 0.19021006 0.54140949 1 3490114048 0 19 0 0
3.4358425 0.16879225 0.54044485 1 3490114048 0 19 0 0
3.4308205 0.14744951 0.5395025 1 3490114048 0 19 0 0
3.4258065 0.12617989 0.53858209 1 3490114048 0 19 0 0
3.4208004 0.10498177 0.53768361 1 3490114048 0 19 0 0
3.4158013 0.083853126 0.536807 1 3490114048 0 19 0 0
3.410809 0.062792026 0.53595179 1 3490114048 0 19 0 0
3.4058235 0.041797288 0.53511822 1 3490114048 0 19 0 0
3.4008443 0.020867052 0.53430581 1 3490114048 0 19 0 0
3.3958709 -5.8263538e-07 0.53351432 1 3490114048 0 19 0 0
3.390903 -0.02080727 0.53274387 1 3490114048 0 19 0 0
3.3859406 -0.041554593 0.5319941 1 3490114048 0 19 0 0
3.3809822 -0.062244233 0.53126502 1 3490114048 0 19 0 0
3.3760293 -0.082876101 0.53055674 1 3490114048 0 19 0 0
3.3710797 -0.10345527 0.52986866 1 3490114048 0 19 0 0
3.3661339 -0.12398121 0.52920091 1 3490114048 0 19 0 0
3.3611913 -0.1444564 0.52855319 1 3490114048 0 19 0 0
3.3562517 -0.16488163 0.52792561 1 3490114048 0 19 0 0
3.3513153 -0.18525866 0.52731788 1 3490114048 0 19 0 0
3.3463809 -0.20558906 0.52673018 1 3490114048 0 19 0 0
3.3414483 -0.2258743 0.52616215 1 3490114048 0 19 0 0
3.3365176 -0.24611613 0.52561361 1 3502114304 0 19 0 0
3.3315883 -0.2663157 0.52508456 1 3502114304 0 19 0 0
3.3266602 -0.28647456 0.52457488 1 3502114304 0 19 0 0
3.3217323 -0.30659461 0.52408469 1 3502114304 0 19 0 0
3.3168051 -0.32667685 0.52361381 1 3502114304 0 19 0 0
3.3118777 -0.34672272 0.52316189 1 3502114304 0 19 0 0
3.3069496 -0.36673373 0.52272904 1 3502114304 0 19 0 0
3.3020215 -0.38671172 0.52231514 1 3502114304 0 19 0 0
3.297092 -0.40665758 0.52192032 1 3502114304 0 19 0 0
3.2921612 -0.4265731 0.52154446 1 3502114304 0 19 0 0
3.2872288 -0.4464595 0.52118719 1 3502114304 0 19 0 0
3.2822945 -0.46631828 0.52084887 1 3502114304 0 19 0 0
3.5022438 0.36665288 0.50833535 1 3490114048 0 20 0 0
3.4970574 0.3444303 0.5072664 1 3490114048 0 20 0 0
3.491884 0.3222999 0.50621957 1 3490114048 0 20 0 0
3.4867227 0.30025864 0.50519472 1 3490114048 0 20 0 0
3.4815733 0.2783052 0.50419158 1 3490114048 0 20 0 0
3.4764354 0.25643742 0.50321019 1 3490114048 0 20 0 0
3.4713085 0.2346531 0.50225019 1 3490114048 0 20 0 0
3.4661922 0.21295029 0.50131136 1 3490114048 0 20 0 0
3.4610863 0.19132717 0.50039375 1 3490114048 0 20 0 0
3.4559898 0.16978179 0.499497 1 3490114048 0 20 0 0
3.4509037 0.14831248 0.49862078 1 3490114048 0 20 0 0
3.4458258 0.12691723 0.49776527 1 3490114048 0 20 0 0
3.4407566 0.10559404 0.49693018 1 3490114048 0 20 0 0
3.4356956 0.084341221 0.49611527 1 3490114048 0 20 0 0
3.4306428 0.06315735 0.49532017 1 3490114048 0 20 0 0
3.4255972 0.042039983 0.49454522 1 3490114048 0 20 0 0
3.4205589 0.020987982 0.49379 1 3490114048 0 20 0 0
3.4155273 -7.5399873e-07 0.49305436 1 3490114048 0 20 0 0
3.4105022 -0.02092756 0.49233818 1 3490114048 0 20 0 0
3.405483 -0.041794557 0.49164146 1 3490114048 0 20 0 0
3.4004693 -0.062602974 0.49096388 1 3490114048 0 20 0 0
3.395462 -0.083352923 0.4903053 1 3490114048 0 20 0 0
3.3904586 -0.10404971 0.48966572 1 3490114048 0 20 0 0
3.3854599 -0.12469305 0.48904514 1 3490114048 0 20 0 0
3.3804653 -0.14528467 0.48844323 1 3490114048 0 20 0 0
3.3754745 -0.16582577 0.48785999 1 3490114048 0 20 0 0
3.3704872 -0.18631853 0.48729521 1 3490114048 0 20 0 0
3.3655031 -0.20676389 0.48674878 1 3490114048 0 20 0 0
3.360522 -0.22716352 0.48622087 1 3490114048 0 20 0 0
3.3555434 -0.24751937 0.4857111 1 3502114304 0 20 0 0
3.3505666 -0.26783276 0.48521954 1 3502114304 0 20 0 0
3.3455913 -0.28810498 0.48474592 1 3502114304 0 20 0 0
3.3406179 -0.30833769 0.48429018 1 3502114304 0 20 0 0
3.3356457 -0.32853237 0.48385251 1 3502114304 0 20 0 0
3.3306737 -0.34869045 0.48343262 1 3502114304 0 20 0 0
3.3257024 -0.36881366 0.48303053 1 3502114304 0 20 0 0
3.3207312 -0.38890305 0.48264614 1 3502114304 0 20 0 0
3.3157599 -0.40896022 0.48227906 1 3502114304 0 20 0 0
3.3107877 -0.42898661 0.4819296 1 3502114304 0 20 0 0
3.3058145 -0.44898376 0.48159784 1 3502114304 0 20 0 0
3.3008401 -0.46895298 0.48128316 1 3502114304 0 20 0 0
3.2958641 -0.4888956 0.48098588 1 3502114304 0 20 0 0
3.2913353 -0.50888288 0.48077187 1 3502114304 0 20 0 0
3.5179324 0.34648654 0.46538541 1 3490114048 0 21 0 0
3.5126843 0.32421944 0.46441963 1 3490114048 0 21 0 0
3.5074501 0.30204359 0.46347371 1 3490114048 0 21 0 0
3.502229 0.27995631 0.46254805 1 3490114048 0 21 0 0
3.4970198 0.25795555 0.46164241 1 3490114048 0 21 0 0
3.4918234 0.23603995 0.46075624 1 3490114048 0 21 0 0
3.4866383 0.21420644 0.45989004 1 3490114048 0 21 0 0
3.4814644 0.19245367 0.45904323 1 3490114048 0 21 0 0
3.4763014 0.17077966 0.45821577 1 3490114048 0 21 0 0
3.4711492 0.14918253 0.45740724 1 3490114048 0 21 0 0
3.4660068 0.12766036 0.45661789 1 3490114048 0 21 0 0
3.4608743 0.10621139 0.45584726 1 3490114048 0 21 0 0
3.4557507 0.084833547 0.45509538 1 3490114048 0 21 0 0
3.4506359 0.06352523 0.4543618 1 3490114048 0 21 0 0
3.4455297 0.042284708 0.45364678 1 3490114048 0 21 0 0
3.4404314 0.0211099 0.45295 1 3490114048 0 21 0 0
3.4353409 -5.9604645e-07 0.45227116 1 3490114048 0 21 0 0
3.4302576 -0.021049004 0.45161065 1 3490114048 0 21 0 0
3.4251812 -0.042036247 0.45096773 1 3490114048 0 21 0 0
3.4201114 -0.062964655 0.4503426 1 3490114048 0 21 0 0
3.4150481 -0.083834074 0.44973519 1 3490114048 0 21 0 0
3.4099908 -0.10464905 0.44914499 1 3490114048 0 21 0 0
3.4049382 -0.12541048 0.44857252 1 3490114048 0 21 0 0
3.3998909 -0.1461193 0.44801718 1 3490114048 0 21 0 0
3.3948479 -0.16677772 0.4474794 1 3490114048 0 21 0 0
3.3898094 -0.18738659 0.44695848 1 3490114048 0 21 0 0
3.3847754 -0.20794795 0.44645444 1 3490114048 0 21 0 0
3.3797448 -0.22846299 0.44596723 1 3490114048 0 21 0 0
3.3747172 -0.24893379 0.44549704 1 3502114304 0 21 0 0
3.3696926 -0.26936156 0.4450435 1 3502114304 0 21 0 0
3.3646705 -0.28974792 0.44460666 1 3502114304 0 21 0 0
3.3596504 -0.31009433 0.44418636 1 3502114304 0 21 0 0
3.3546321 -0.33040237 0.44378278 1 3502114304 0 21 0 0
3.3496158 -0.35067359 0.4433955 1 3502114304 0 21 0 0
3.3446004 -0.37090933 0.44302437 1 3502114304 0 21 0 0
3.3395858 -0.39111114 0.44266981 1 3502114304 0 21 0 0
3.3345714 -0.41128042 0.4423314 1 3502114304 0 21 0 0
3.3295577 -0.43141872 0.44200909 1 3502114304 0 21 0 0
3.3245435 -0.45152739 0.44170278 1 3502114304 0 21 0 0
3.3195283 -0.47160795 0.44141263 1 3502114304 0 21 0 0
3.314513 -0.49166209 0.4411386 1 3502114304 0 21 0 0
3.3094957 -0.51169056 0.4408803 1 3502114304 0 21 0 0
3.3044772 -0.53169549 0.44063818 1 3502114304 0 21 0 0
3.5283563 0.30384389 0.42139268 1 3490114048 0 22 0 0
3.523062 0.28162163 0.42054608 1 3490114048 0 22 0 0
3.5177813 0.25948697 0.41971785 1 3490114048 0 22 0 0
3.5125136 0.23743802 0.41890776 1 3490114048 0 22 0 0
3.5072591 0.21547349 0.41811514 1 3490114048 0 22 0 0
3.5020163 0.19358982 0.41734082 1 3490114048 0 22 0 0
3.4967859 0.17178592 0.4165839 1 3490114048 0 22 0 0
3.4915667 0.15005995 0.41584465 1 3490114048 0 22 0 0
3.4863589 0.12841007 0.41512266 1 3490114048 0 22 0 0
3.4811611 0.1068339 0.41441807 1 3490114048 0 22 0 0
3.4759743 0.085330144 0.41373047 1 3490114048 0 22 0 0
3.4707968 0.06389644 0.41305974 1 3490114048 0 22 0 0
3.4656289 0.042531304 0.41240582 1 3490114048 0 22 0 0
3.46047 0.021232843 0.41176862 1 3490114048 0 22 0 0
3.4553194 -7.7009202e-07 0.41114819 1 3490114048 0 22 0 0
3.4501772 -0.021170981 0.41054407 1 3490114048 0 22 0 0
3.4450428 -0.042279921 0.40995625 1 3490114048 0 22 0 0
3.4399164 -0.063329078 0.4093847 1 3490114048 0 22 0 0
3.434797 -0.08431875 0.40882927 1 3490114048 0 22 0 0
3.4296842 -0.10525354 0.40828976 1 3490114048 0 22 0 0
3.4245775 -0.12613374 0.40776616 1 3490114048 0 22 0 0
3.4194763 -0.14696123 0.40725878 1 3490114048 0 22 0 0
3.4143808 -0.16773723 0.40676686 1 3490114048 0 22 0 0
3.4092908 -0.18846342 0.40629065 1 3490114048 0 22 0 0
3.4042053 -0.2091416 0.40582982 1 3490114048 0 22 0 0
3.3991244 -0.22977309 0.40538466 1 3490114048 0 22 0 0
3.3940477 -0.25035959 0.40495464 1 3502114304 0 22 0 0
3.3889742 -0.27090296 0.40454015 1 3502114304 0 22 0 0
3.3839047 -0.29140431 0.40414074 1 3502114304 0 22 0 0
3.3788376 -0.31186554 0.40375668 1 3502114304 0 22 0 0
3.3737733 -0.33228773 0.40338761 1 3502114304 0 22 0 0
3.3687115 -0.3526727 0.40303335 1 3502114304 0 22 0 0
3.3636513 -0.37302193 0.40269423 1 3502114304 0 22 0 0
3.3585927 -0.39333704 0.40236992 1 3502114304 0 22 0 0
3.3535357 -0.41361949 0.40206063 1 3502114304 0 22 0 0
3.3484793 -0.43387043 0.40176591 1 3502114304 0 22 0 0
3.3434231 -0.45409164 0.4014861 1 3502114304 0 22 0 0
3.3383675 -0.47428438 0.40122083 1 3502114304 0 22 0 0
3.3333118 -0.49445045 0.40097028 1 3502114304 0 22 0 0
3.3282549 -0.5145911 0.40073442 1 3502114304 0 22 0 0
3.3231976 -0.53470755 0.40051281 1 3502114304 0 22 0 0
3.3181388 -0.55480164 0.40030587 1 3502114304 0 22 0 0
3.538728 0.2610327 0.37741873 1 3490114048 0 23 0 0
3.5333884 0.23884964 0.37668595 1 3490114048 0 23 0 0
3.5280626 0.2167514 0.37596935 1 3490114048 0 23 0 0
3.5227504 0.19473606 0.37526876 1 3490114048 0 23 0 0
3.517451 0.17280121 0.37458435 1 3490114048 0 23 0 0
3.5121641 0.15094519 0.37391552 1 3490114048 0 23 0 0
3.5068896 0.12916614 0.37326264 1 3490114048 0 23 0 0
3.5016265 0.1074621 0.3726252 1 3490114048 0 23 0 0
3.4963748 0.085830867 0.37200335 1 3490114048 0 23 0 0
3.4911337 0.064270832 0.37139684 1 3490114048 0 23 0 0
3.4859033 0.04277996 0.37080544 1 3490114048 0 23 0 0
3.4806828 0.021356905 0.37022915 1 3490114048 0 23 0 0
3.4754717 -5.8531759e-07 0.36966795 1 3490114048 0 23 0 0
3.4702699 -0.021294249 0.36912155 1 3490114048 0 23 0 0
3.4650769 -0.042525876 0.36859009 1 3490114048 0 23 0 0
3.4598923 -0.06369669 0.3680732 1 3490114048 0 23 0 0
3.4547162 -0.084807493 0.36757073 1 3490114048 0 23 0 0
3.4495471 -0.10586306 0.3670831 1 3490114048 0 23 0 0
3.4443851 -0.12686336 0.36660963 1 3490114048 0 23 0 0
3.4392297 -0.14781012 0.36615059 1 3490114048 0 23 0 0
3.4340808 -0.16870502 0.365706 1 3490114048 0 23 0 0
3.4289379 -0.18954967 0.36527532 1 3490114048 0 23 0 0
3.4238009 -0.21034555 0.36485863 1 3490114048 0 23 0 0
3.418669 -0.23109439 0.36445609 1 3490114048 0 23 0 0
3.4135425 -0.25179788 0.36406741 1 3502114304 0 23 0 0
3.4084201 -0.27245739 0.36369249 1 3502114304 0 23 0 0
3.403302 -0.29307479 0.36333138 1 3502114304 0 23 0 0
3.3981874 -0.31365138 0.36298397 1 3502114304 0 23 0 0
3.3930764 -0.334189 0.36265033 1 3502114304 0 23 0 0
3.3879688 -0.35468882 0.36233017 1 3502114304 0 23 0 0
3.3828633 -0.3751525 0.36202356 1 3502114304 0 23 0 0
3.3777602 -0.39558184 0.36173028 1 3502114304 0 23 0 0
3.3726592 -0.4159781 0.3614507 1 3502114304 0 23 0 0
3.3675601 -0.43634272 0.36118433 1 3502114304 0 23 0 0
3.3624618 -0.45667747 0.36093119 1 3502114304 0 23 0 0
3.3573647 -0.47698343 0.36069149 1 3502114304 0 23 0 0
3.3522682 -0.49726245 0.3604649 1 3502114304 0 23 0 0
3.3471715 -0.51751584 0.36025152 1 3502114304 0 23 0 0
3.3420749 -0.53774506 0.36005136 1 3502114304 0 23 0 0
3.3369777 -0.55795145 0.35986432 1 3502114304 0 23 0 0
3.3318794 -0.57813668 0.35969031 1 3502114304 0 23 0 0
3.3267803 -0.59830183 0.35952935 1 3502114304 0 23 0 0
3.5544565 0.24027361 0.33407342 1 3490114048 0 24 0 0
3.5490587 0.21804143 0.33343396 1 3490114048 0 24 0 0
3.5436754 0.19589254 0.33280924 1 3490114048 0 24 0 0
3.5383065 0.17382583 0.33219841 1 3490114048 0 24 0 0
3.5329509 0.1518386 0.33160192 1 3490114048 0 24 0 0
3.5276082 0.12992933 0.3310194 1 3490114048 0 24 0 0
3.5222785 0.10809588 0.33045071 1 3490114048 0 24 0 0
3.5169613 0.08633627 0.32989603 1 3490114048 0 24 0 0
3.5116558 0.06464874 0.32935491 1 3490114048 0 24 0 0
3.5063617 0.043031242 0.32882744 1 3490114048 0 24 0 0
3.5010786 0.021482162 0.32831338 1 3490114048 0 24 0 0
3.4958062 -3.7193297e-07 0.32781279 1 3490114048 0 24 0 0
3.4905434 -0.021418704 0.32732549 1 3490114048 0 24 0 0
3.4852908 -0.042773772 0.32685152 1 3490114048 0 24 0 0
3.4800475 -0.064067952 0.32639045 1 3490114048 0 24 0 0
3.4748135 -0.085300967 0.32594243 1 3490114048 0 24 0 0
3.4695876 -0.10647803 0.32550713 1 3490114048 0 24 0 0
3.4643698 -0.12759946 0.32508507 1 3490114048 0 24 0 0
3.4591591 -0.14866672 0.3246758 1 3490114048 0 24 0 0
3.4539566 -0.16968134 0.32427907 1 3490114048 0 24 0 0
3.4487605 -0.19064522 0.32389492 1 3490114048 0 24 0 0
3.4435709 -0.21156012 0.32352349 1 3490114048 0 24 0 0
3.4383874 -0.23242739 0.32316452 1 3490114048 0 24 0 0
3.4332097 -0.25324854 0.3228178 1 3502114304 0 24 0 0
3.4280376 -0.2740255 0.32248345 1 3502114304 0 24 0 0
3.4228704 -0.29475996 0.32216147 1 3502114304 0 24 0 0
3.4177082 -0.31545293 0.32185164 1 3502114304 0 24 0 0
3.4125497 -0.33610663 0.32155412 1 3502114304 0 24 0 0
3.4073951 -0.35672244 0.32126844 1 3502114304 0 24 0 0
3.4022441 -0.37730166 0.32099497 1 3502114304 0 24 0 0
3.3970962 -0.39784622 0.3207337 1 3502114304 0 24 0 0
3.3919508 -0.41835737 0.32048425 1 3502114304 0 24 0 0
3.3868082 -0.43883672 0.3202467 1 3502114304 0 24 0 0
3.3816674 -0.45928591 0.32002115 1 3502114304 0 24 0 0
3.3765283 -0.47970584 0.31980726 1 3502114304 0 24 0 0
3.3713903 -0.50009888 0.3196052 1 3502114304 0 24 0 0
3.3662536 -0.52046597 0.31941494 1 3502114304 0 24 0 0
3.3611171 -0.54080892 0.31923658 1 3502114304 0 24 0 0
3.3559811 -0.56112891 0.31906959 1 3502114304 0 24 0 0
3.3508444 -0.5814274 0.31891468 1 3502114304 0 24 0 0
3.3457077 -0.60170597 0.31877109 1 3502114304 0 24 0 0
3.3405697 -0.6219663 0.31863919 1 3502114304 0 24 0 0
3.5648007 0.19706026 0.2899431 1 3490114048 0 25 0 0
3.559361 0.17486016 0.28940767 1 3490114048 0 25 0 0
3.5539355 0.1527404 0.28888497 1 3490114048 0 25 0 0
3.5485244 0.13069966 0.28837445 1 3490114048 0 25 0 0
3.5431271 0.10873552 0.28787619 1 3490114048 0 25 0 0
3.5377431 0.086846359 0.28739002 1 3490114048 0 25 0 0
3.532372 0.065029979 0.28691599 1 3490114048 0 25 0 0
3.5270131 0.043284703 0.28645378 1 3490114048 0 25 0 0
3.5216665 0.021608448 0.28600335 1 3490114048 0 25 0 0
3.5163314 -5.3882599e-07 0.28556463 1 3490114048 0 25 0 0
3.5110073 -0.021544117 0.28513753 1 3490114048 0 25 0 0
3.5056939 -0.043024201 0.28472218 1 3490114048 0 25 0 0
3.5003908 -0.064442515 0.28431824 1 3490114048 0 25 0 0
3.4950981 -0.085799016 0.28392586 1 3490114048 0 25 0 0
3.4898148 -0.10709888 0.28354448 1 3490114048 0 25 0 0
3.48454 -0.12834232 0.28317463 1 3490114048 0 25 0 0
3.4792738 -0.1495311 0.2828159 1 3490114048 0 25 0 0
3.474016 -0.17066678 0.28246829 1 3490114048 0 25 0 0
3.468766 -0.19175109 0.28213182 1 3490114048 0 25 0 0
3.4635234 -0.21278572 0.28180635 1 3490114048 0 25 0 0
3.4582875 -0.23377258 0.28149191 1 3490114048 0 25 0 0
3.4530587 -0.25471258 0.2811881 1 3502114304 0 25 0 0
3.4478359 -0.27560797 0.28089517 1 3502114304 0 25 0 0
3.4426188 -0.29646042 0.28061312 1 3502114304 0 25 0 0
3.4374077 -0.3172712 0.2803416 1 3502114304 0 25 0 0
3.4322011 -0.33804229 0.28008097 1 3502114304 0 25 0 0
3.4269998 -0.35877481 0.2798309 1 3502114304 0 25 0 0
3.4218023 -0.37947068 0.27959135 1 3502114304 0 25 0 0
3.4166088 -0.40013143 0.27936226 1 3502114304 0 25 0 0
3.4114189 -0.42075846 0.27914381 1 3502114304 0 25 0 0
3.4062321 -0.44135359 0.2789357 1 3502114304 0 25 0 0
3.4010479 -0.46191788 0.27873802 1 3502114304 0 25 0 0
3.3958664 -0.48245329 0.2785508 1 3502114304 0 25 0 0
3.3906868 -0.50296122 0.2783739 1 3502114304 0 25 0 0
3.385509 -0.52344316 0.27820709 1 3502114304 0 25 0 0
3.3803322 -0.54390043 0.27805078 1 3502114304 0 25 0 0
3.3751569 -0.56433517 0.27790478 1 3502114304 0 25 0 0
3.3699815 -0.58474791 0.277769 1 3502114304 0 25 0 0
3.3648067 -0.60514086 0.27764302 1 3502114304 0 25 0 0
3.3596315 -0.62551504 0.27752754 1 3502114304 0 25 0 0
3.3544557 -0.64587241 0.27742213 1 3502114304 0 25 0 0
3.3492796 -0.6662125 0.27732709 1 3502114304 0 25 0 0
3.5806236 0.17590465 0.24619293 1 3490114048 0 26 0 0
3.5751274 0.15365134 0.24574554 1 3490114048 0 26 0 0
3.5696461 0.13147739 0.24530882 1 3490114048 0 26 0 0
3.5641806 0.10938164 0.24488217 1 3490114048 0 26 0 0
3.5587285 0.087361507 0.24446636 1 3490114048 0 26 0 0
3.5532908 0.065415114 0.24406064 1 3490114048 0 26 0 0
3.5478668 0.043540426 0.24366522 1 3490114048 0 26 0 0
3.5424557 0.021735974 0.24327976 1 3490114048 0 26 0 0
3.5370567 -5.6505201e-07 0.24290442 1 3490114048 0 26 0 0
3.5316703 -0.021671059 0.24253905 1 3490114048 0 26 0 0
3.5262957 -0.043277159 0.24218351 1 3490114048 0 26 0 0
3.520932 -0.064820595 0.24183798 1 3490114048 0 26 0 0
3.5155797 -0.086301737 0.24150223 1 3490114048 0 26 0 0
3.5102375 -0.10772572 0.24117595 1 3490114048 0 26 0 0
3.504905 -0.1290926 0.24085945 1 3490114048 0 26 0 0
3.4995825 -0.15040402 0.24055272 1 3490114048 0 26 0 0
3.4942687 -0.17166167 0.24025536 1 3490114048 0 26 0 0
3.4889638 -0.19286765 0.23996741 1 3490114048 0 26 0 0
3.4836676 -0.21402334 0.23968893 1 3490114048 0 26 0 0
3.4783788 -0.23513053 0.23941982 1 3490114048 0 26 0 0
3.4730978 -0.25619075 0.23916006 1 3502114304 0 26 0 0
3.4678235 -0.27720574 0.2389096 1 3502114304 0 26 0 0
3.4625564 -0.29817733 0.23866808 1 3502114304 0 26 0 0
3.4572952 -0.31910685 0.23843604 1 3502114304 0 26 0 0
3.45204 -0.33999619 0.238213 1 3502114304 0 26 0 0
3.4467907 -0.36084667 0.23799902 1 3502114304 0 26 0 0
3.4415462 -0.38166019 0.23779404 1 3502114304 0 26 0 0
3.4363067 -0.40243828 0.23759824 1 3502114304 0 26 0 0
3.431071 -0.42318249 0.23741138 1 3502114304 0 26 0 0
3.4258401 -0.44389406 0.23723328 1 3502114304 0 26 0 0
3.4206121 -0.46457508 0.23706418 1 3502114304 0 26 0 0
3.4153874 -0.48522648 0.23690403 1 3502114304 0 26 0 0
3.4101655 -0.50585061 0.23675263 1 3502114304 0 26 0 0
3.4049461 -0.52644843 0.23661023 1 3502114304 0 26 0 0
3.399729 -0.54702181 0.23647648 1 3502114304 0 26 0 0
3.3945131 -0.56757164 0.23635155 1 3502114304 0 26 0 0
3.3892989 -0.58810014 0.23623532 1 3502114304 0 26 0 0
3.3840859 -0.60860777 0.23612761 1 3502114304 0 26 0 0
3.3788729 -0.62909746 0.23602879 1 3502114304 0 26 0 0
3.3736601 -0.64956999 0.23593879 1 3502114304 0 26 0 0
3.3684478 -0.67002517 0.23585719 1 3502114304 0 26 0 0
3.3632345 -0.69046789 0.23578435 1 3502114304 0 26 0 0
3.5909851 0.13226372 0.20180196 1 3490114048 0 27 0 0
3.5854487 0.11003447 0.2014491 1 3490114048 0 27 0 0
3.5799282 0.087881878 0.20110494 1 3490114048 0 27 0 0
3.5744228 0.06580402 0.20076919 1 3490114048 0 27 0 0
3.5689318 0.043798976 0.20044196 1 3490114048 0 27 0 0
3.5634551 0.021864772 0.20012301 1 3490114048 0 27 0 0
3.5579922 -5.9604645e-07 0.19981229 1 3490114048 0 27 0 0
3.552542 -0.021799045 0.19950992 1 3490114048 0 27 0 0
3.5471046 -0.04353248 0.19921589 1 3490114048 0 27 0 0
3.5416799 -0.065202594 0.19892991 1 3490114048 0 27 0 0
3.536267 -0.086809576 0.19865227 1 3490114048 0 27 0 0
3.5308652 -0.10835889 0.1983825 1 3490114048 0 27 0 0
3.5254745 -0.1298501 0.19812042 1 3490114048 0 27 0 0
3.5200939 -0.15128553 0.19786662 1 3490114048 0 27 0 0
3.5147238 -0.17266674 0.19762051 1 3490114048 0 27 0 0
3.5093634 -0.19399545 0.19738239 1 3490114048 0 27 0 0
3.5040121 -0.21527332 0.19715202 1 3490114048 0 27 0 0
3.4986696 -0.23650211 0.19692928 1 3490114048 0 27 0 0
3.4933355 -0.25768358 0.1967144 1 3502114304 0 27 0 0
3.4880095 -0.27881932 0.1965071 1 3502114304 0 27 0 0
3.482691 -0.29991108 0.19630748 1 3502114304 0 27 0 0
3.4773796 -0.32096073 0.19611549 1 3502114304 0 27 0 0
3.4720755 -0.34196928 0.19593084 1 3502114304 0 27 0 0
3.4667773 -0.36293909 0.19575381 1 3502114304 0 27 0 0
3.4614849 -0.38387147 0.19558442 1 3502114304 0 27 0 0
3.4561985 -0.40476787 0.19542229 1 3502114304 0 27 0 0
3.4509172 -0.42563018 0.19526768 1 3502114304 0 27 0 0
3.4456406 -0.4464598 0.19512051 1 3502114304 0 27 0 0
3.4403687 -0.4672583 0.19498062 1 3502114304 0 27 0 0
3.4351003 -0.48802751 0.194848 1 3502114304 0 27 0 0
3.4298358 -0.50876856 0.19472277 1 3502114304 0 27 0 0
3.4245741 -0.52948326 0.19460499 1 3502114304 0 27 0 0
3.4193158 -0.55017322 0.19449443 1 3502114304 0 27 0 0
3.4140596 -0.57083988 0.19439107 1 3502114304 0 27 0 0
3.4088054 -0.59148473 0.19429487 1 3502114304 0 27 0 0
3.4035535 -0.6121093 0.19420582 1 3502114304 0 27 0 0
3.3983023 -0.63271511 0.1941241 1 3502114304 0 27 0 0
3.3930526 -0.65330368 0.19404942 1 3502114304 0 27 0 0
3.3878033 -0.67387539 0.19398224 1 3502114304 0 27 0 0
3.3825538 -0.69443405 0.19392192 1 3502114304 0 27 0 0
3.3773043 -0.71498013 0.19386876 1 3502114304 0 27 0 0
3.3720543 -0.73551518 0.19382292 1 3502114304 0 27 0 0
3.6013517 0.088407837 0.15728569 1 3490114048 0 28 0 0
3.5957775 0.066197105 0.15702176 1 3490114048 0 28 0 0
3.5902188 0.04406023 0.15676421 1 3490114048 0 28 0 0
3.5846753 0.021994866 0.15651333 1 3490114048 0 28 0 0
3.5791464 -7.6293941e-07 0.15626895 1 3490114048 0 28 0 0
3.573632 -0.021928525 0.15603083 1 3490114048 0 28 0 0
3.568131 -0.043790679 0.15579987 1 3490114048 0 28 0 0
3.5626438 -0.065588832 0.15557486 1 3490114048 0 28 0 0
3.5571694 -0.08732298 0.15535611 1 3490114048 0 28 0 0
3.5517073 -0.10899862 0.15514386 1 3490114048 0 28 0 0
3.546257 -0.13061567 0.1549378 1 3490114048 0 28 0 0
3.540818 -0.15217631 0.15473807 1 3490114048 0 28 0 0
3.5353906 -0.17368194 0.15454453 1 3490114048 0 28 0 0
3.5299733 -0.19513474 0.15435725 1 3490114048 0 28 0 0
3.5245667 -0.21653621 0.154176 1 3490114048 0 28 0 0
3.5191696 -0.23788781 0.15400082 1 3490114048 0 28 0 0
3.513782 -0.25919163 0.15383166 1 3502114304 0 28 0 0
3.5084028 -0.28044954 0.1536687 1 3502114304 0 28 0 0
3.5030327 -0.30166292 0.1535117 1 3502114304 0 28 0 0
3.4976702 -0.32283366 0.15336078 1 3502114304 0 28 0 0
3.4923155 -0.34396294 0.15321547 1 3502114304 0 28 0 0
3.4869683 -0.36505297 0.15307623 1 3502114304 0 28 0 0
3.4816277 -0.38610539 0.15294319 1 3502114304 0 28 0 0
3.4762936 -0.4071213 0.1528157 1 3502114304 0 28 0 0
3.4709654 -0.42810297 0.15269399 1 3502114304 0 28 0 0
3.4656432 -0.44905165 0.15257812 1 3502114304 0 28 0 0
3.4603262 -0.46996894 0.15246809 1 3502114304 0 28 0 0
3.455014 -0.49085653 0.15236378 1 3502114304 0 28 0 0
3.4497058 -0.51171601 0.15226543 1 3502114304 0 28 0 0
3.4444017 -0.5325489 0.15217268 1 3502114304 0 28 0 0
3.4391015 -0.55335671 0.15208548 1 3502114304 0 28 0 0
3.4338043 -0.57414114 0.1520043 1 3502114304 0 28 0 0
3.4285104 -0.59490353 0.15192866 1 3502114304 0 28 0 0
3.4232185 -0.61564577 0.15185857 1 3502114304 0 28 0 0
3.4179289 -0.63636905 0.15179431 1 3502114304 0 28 0 0
3.4126408 -0.65707546 0.15173572 1 3502114304 0 28 0 0
3.4073551 -0.6777643 0.15168262 1 3502114304 0 28 0 0
3.4020693 -0.69844055 0.15163529 1 3502114304 0 28 0 0
3.3967841 -0.71910411 0.15159369 1 3502114304 0 28 0 0
3.391499 -0.73975652 0.15155751 1 3502114304 0 28 0 0
3.3862135 -0.76039928 0.15152699 1 3502114304 0 28 0 0
3.6173654 0.066594593 0.11279649 1 3490114048 0 29 0 0
3.6117375 0.044324245 0.11261046 1 3490114048 0 29 0 0
3.6061263 0.022126693 0.1124292 1 3490114048 0 29 0 0
3.6005306 -6.2227247e-07 0.11225265 1 3490114048 0 29 0 0
3.5949504 -0.022059279 0.11208075 1 3490114048 0 29 0 0
3.5893853 -0.044051517 0.11191356 1 3490114048 0 29 0 0
3.5838342 -0.065978967 0.11175108 1 3490114048 0 29 0 0
3.5782976 -0.087841578 0.11159301 1 3490114048 0 29 0 0
3.5727737 -0.1096454 0.11143982 1 3490114048 0 29 0 0
3.5672631 -0.13138962 0.11129087 1 3490114048 0 29 0 0
3.561765 -0.15307665 0.11114651 1 3490114048 0 29 0 0
3.5562789 -0.17470831 0.11100662 1 3490114048 0 29 0 0
3.5508044 -0.19628626 0.11087102 1 3490114048 0 29 0 0
3.545341 -0.21781248 0.11074024 1 3490114048 0 29 0 0
3.5398886 -0.23928855 0.1106137 1 3490114048 0 29 0 0
3.5344462 -0.26071596 0.11049151 1 3502114304 0 29 0 0
3.5290139 -0.28209701 0.11037368 1 3502114304 0 29 0 0
3.5235906 -0.30343327 0.11026031 1 3502114304 0 29 0 0
3.5181766 -0.3247264 0.11015129 1 3502114304 0 29 0 0
3.5127711 -0.34597772 0.11004627 1 3502114304 0 29 0 0
3.5073738 -0.36718932 0.10994571 1 3502114304 0 29 0 0
3.5019839 -0.38836274 0.10984963 1 3502114304 0 29 0 0
3.4966018 -0.40949953 0.10975736 1 3502114304 0 29 0 0
3.4912264 -0.43060195 0.10966957 1 3502114304 0 29 0 0
3.4858572 -0.45167086 0.10958606 1 3502114304 0 29 0 0
3.4804945 -0.47270811 0.10950661 1 3502114304 0 29 0 0
3.4751372 -0.49371555 0.10943121 1 3502114304 0 29 0 0
3.4697855 -0.51469445 0.10936004 1 3502114304 0 29 0 0
3.4644384 -0.53564674 0.1092931 1 3502114304 0 29 0 0
3.459096 -0.55657387 0.1092301 1 3502114304 0 29 0 0
3.4537573 -0.5774774 0.10917145 1 3502114304 0 29 0 0
3.4484222 -0.59835857 0.10911673 1 3502114304 0 29 0 0
3.4430907 -0.61921966 0.10906607 1 3502114304 0 29 0 0
3.437762 -0.64006186 0.10901958 1 3502114304 0 29 0 0
3.4324355 -0.66088659 0.10897744 1 3502114304 0 29 0 0
3.4271116 -0.68169409 0.10893929 1 3502114304 0 29 0 0
3.4217894 -0.70248908 0.10890478 1 3502114304 0 29 0 0
3.4164681 -0.72327119 0.1088745 1 3502114304 0 29 0 0
3.4111476 -0.74404234 0.10884857 1 3502114304 0 29 0 0
3.4058278 -0.76480389 0.10882652 1 3502114304 0 29 0 0
3.4005079 -0.78555703 0.1088084 1 3502114304 0 29 0 0
3.6278186 0.022259755 0.067849278 1 3490114048 0 30 0 0
3.622155 -4.5359133e-07 0.06774193 1 3490114048 0 30 0 0
3.616508 -0.022191724 0.067637861 1 3490114048 0 30 0 0
3.610877 -0.044315033 0.067536235 1 3490114048 0 30 0 0
3.6052616 -0.066373043 0.06743747 1 3490114048 0 30 0 0
3.5996616 -0.08836595 0.067341805 1 3490114048 0 30 0 0
3.5940752 -0.11029861 0.067248583 1 3490114048 0 30 0 0
3.5885034 -0.13217159 0.067158163 1 3490114048 0 30 0 0
3.5829446 -0.15398681 0.067070663 1 3490114048 0 30 0 0
3.5773993 -0.17574583 0.066985846 1 3490114048 0 30 0 0
3.571866 -0.19745064 0.066903412 1 3490114048 0 30 0 0
3.5663455 -0.21910296 0.066824019 1 3490114048 0 30 0 0
3.5608363 -0.24070457 0.066747129 1 3490114048 0 30 0 0
3.5553386 -0.26225707 0.066672981 1 3502114304 0 30 0 0
3.5498517 -0.28376266 0.066601396 1 3502114304 0 30 0 0
3.5443752 -0.30522317 0.066532552 1 3502114304 0 30 0 0
3.5389087 -0.32663986 0.066466331 1 3502114304 0 30 0 0
3.5334511 -0.34801459 0.066402793 1 3502114304 0 30 0 0
3.5280032 -0.36934924 0.066341817 1 3502114304 0 30 0 0
3.5225637 -0.39064506 0.066283226 1 3502114304 0 30 0 0
3.5171325 -0.4119041 0.066227376 1 3502114304 0 30 0 0
3.5117092 -0.43312821 0.06617409 1 3502114304 0 30 0 0
3.5062931 -0.45431861 0.066123247 1 3502114304 0 30 0 0
3.5008841 -0.47547725 0.066074967 1 3502114304 0 30 0 0
3.4954813 -0.49660581 0.066029191 1 3502114304 0 30 0 0
3.4900844 -0.5177055 0.065986335 1 3502114304 0 30 0 0
3.4846935 -0.53877842 0.065945566 1 3502114304 0 30 0 0
3.4793081 -0.5598262 0.065907478 1 3502114304 0 30 0 0
3.4739275 -0.58084989 0.065871716 1 3502114304 0 30 0 0
3.4685512 -0.60185158 0.065838695 1 3502114304 0 30 0 0
3.4631789 -0.62283242 0.065807998 1 3502114304 0 30 0 0
3.4578106 -0.64379454 0.065779865 1 3502114304 0 30 0 0
3.4524453 -0.66473943 0.065754056 1 3502114304 0 30 0 0
3.4470832 -0.6856668 0.06573087 1 3502114304 0 30 0 0
3.4417236 -0.70658141 0.065710068 1 3502114304 0 30 0 0
3.4363656 -0.72748375 0.065691829 1 3502114304 0 30 0 0
3.4310098 -0.74837452 0.065675795 1 3502114304 0 30 0 0
3.6383157 -0.02232543 0.022679329 1 3490114048 0 31 0 0
3.6326177 -0.044581994 0.022645175 1 3490114048 0 31 0 0
3.6269367 -0.066772178 0.022611916 1 3490114048 0 31 0 0
3.6212716 -0.088896513 0.022579551 1 3490114048 0 31 0 0
3.6156223 -0.11096002 0.022548258 1 3490114048 0 31 0 0
3.6099877 -0.13296287 0.022517681 1 3490114048 0 31 0 0
3.6043675 -0.15490744 0.022488236 1 3490114048 0 31 0 0
3.5987616 -0.1767953 0.022459686 1 3490114048 0 31 0 0
3.5931695 -0.19862816 0.022431791 1 3490114048 0 31 0 0
3.5875902 -0.22040786 0.02240479 1 3490114048 0 31 0 0
3.5820239 -0.24213666 0.022378922 1 3490114048 0 31 0 0
3.5764699 -0.26381576 0.022353709 1 3502114304 0 31 0 0
3.5709274 -0.28544751 0.022329748 1 3502114304 0 31 0 0
3.5653963 -0.3070333 0.022306561 1 3502114304 0 31 0 0
3.5598762 -0.32857502 0.02228415 1 3502114304 0 31 0 0
3.5543666 -0.35007435 0.022262812 1 3502114304 0 31 0 0
3.548867 -0.37153307 0.022242129 1 3502114304 0 31 0 0
3.5433769 -0.39295313 0.0222224 1 3502114304 0 31 0 0
3.5378959 -0.4143357 0.022203565 1 3502114304 0 31 0 0
3.5324237 -0.43568298 0.022185624 1 3502114304 0 31 0 0
3.5269597 -0.45699665 0.022168577 1 3502114304 0 31 0 0
3.5215034 -0.47827801 0.022152305 1 3502114304 0 31 0 0
3.5160546 -0.49952865 0.022136986 1 3502114304 0 31 0 0
3.510613 -0.52075058 0.022122324 1 3502114304 0 31 0 0
3.5051777 -0.54194558 0.022108793 1 3502114304 0 31 0 0
3.4997485 -0.56311482 0.022095859 1 3502114304 0 31 0 0
3.4943252 -0.58426046 0.022083819 1 3502114304 0 31 0 0
3.4889071 -0.60538357 0.022072673 1 3502114304 0 31 0 0
3.4834938 -0.626486 0.022062421 1 3502114304 0 31 0 0
3.4780853 -0.64756972 0.022052824 1 3502114304 0 31 0 0
3.4726803 -0.66863573 0.022044182 1 3502114304 0 31 0 0
3.6546185 -0.044851866 -0.022782564 1 3490114048 0 32 0 0
3.6488702 -0.067175962 -0.022748709 1 3490114048 0 32 0 0
3.6431396 -0.089433208 -0.022716105 1 3490114048 0 32 0 0
3.6374254 -0.11162902 -0.022684336 1 3490114048 0 32 0 0
3.6317272 -0.13376348 -0.02265358 1 3490114048 0 32 0 0
3.6260445 -0.15583913 -0.022623301 1 3490114048 0 32 0 0
3.6203773 -0.17785712 -0.022594392 1 3490114048 0 32 0 0
3.6147246 -0.19981976 -0.022566319 1 3490114048 0 32 0 0
3.6090863 -0.2217287 -0.022539258 1 3490114048 0 32 0 0
3.6034615 -0.24358585 -0.022513092 1 3490114048 0 32 0 0
3.5978498 -0.26539296 -0.022487879 1 3502114304 0 32 0 0
3.5922515 -0.28715226 -0.022463262 1 3502114304 0 32 0 0
3.5866652 -0.30886501 -0.022439718 1 3502114304 0 32 0 0
3.5810909 -0.33053324 -0.022417188 1 3502114304 0 32 0 0
3.5755279 -0.35215881 -0.022395372 1 3502114304 0 32 0 0
3.5699759 -0.37374294 -0.022374868 1 3502114304 0 32 0 0
3.5644341 -0.39528835 -0.022354901 1 3502114304 0 32 0 0
3.5589027 -0.41679588 -0.022335887 1 3502114304 0 32 0 0
3.553381 -0.43826771 -0.022317767 1 3502114304 0 32 0 0
3.5478683 -0.45970565 -0.022300184 1 3502114304 0 32 0 0
3.5423644 -0.48111114 -0.022283733 1 3502114304 0 32 0 0
3.5368688 -0.50248563 -0.022268057 1 3502114304 0 32 0 0
3.5313811 -0.52383119 -0.022253513 1 3502114304 0 32 0 0
3.5259008 -0.54514951 -0.022239566 1 3502114304 0 32 0 0
3.5204275 -0.56644195 -0.022226572 1 3502114304 0 32 0 0
3.5149603 -0.58771074 -0.022214353 1 3502114304 0 32 0 0
3.5095 -0.60895675 -0.022203207 1 3502114304 0 32 0 0
3.6652768 -0.089976586 -0.068569303 1 3490114048 0 33 0 0
3.6594968 -0.11230633 -0.068472683 1 3490114048 0 33 0 0
3.6537337 -0.13457417 -0.068379104 1 3490114048 0 33 0 0
3.6479876 -0.15678211 -0.068288207 1 3490114048 0 33 0 0
3.6422579 -0.178932 -0.06820029 1 3490114048 0 33 0 0
3.6365435 -0.20102586 -0.068114877 1 3490114048 0 33 0 0
3.6308446 -0.22306544 -0.068032563 1 3490114048 0 33 0 0
3.6251607 -0.24505261 -0.06795305 1 3490114048 0 33 0 0
3.6194911 -0.26698938 -0.067876279 1 3502114304 0 33 0 0
3.6138351 -0.28887755 -0.067802012 1 3502114304 0 33 0 0
3.6081927 -0.31071874 -0.067730606 1 3502114304 0 33 0 0
3.6025631 -0.33251494 -0.067661941 1 3502114304 0 33 0 0
3.5969458 -0.35426822 -0.067596018 1 3502114304 0 33 0 0
3.5913403 -0.37598002 -0.067532599 1 3502114304 0 33 0 0
3.5857468 -0.397652 -0.06747216 1 3502114304 0 33 0 0
3.5801637 -0.41928583 -0.067414343 1 3502114304 0 33 0 0
3.5745914 -0.44088405 -0.067358851 1 3502114304 0 33 0 0
3.5690296 -0.46244746 -0.067306519 1 3502114304 0 33 0 0
3.563477 -0.4839783 -0.06725651 1 3502114304 0 33 0 0
3.5579336 -0.50547844 -0.067209184 1 3502114304 0 33 0 0
3.5523994 -0.52694905 -0.067164302 1 3502114304 0 33 0 0
3.5468733 -0.54839224 -0.06712234 1 3502114304 0 33 0 0
3.6818478 -0.11299227 -0.114842 1 3490114048 0 34 0 0
3.6760194 -0.13539484 -0.11468399 1 3490114048 0 34 0 0
3.6702085 -0.15773706 -0.1145308 1 3490114048 0 34 0 0
3.6644149 -0.1800206 -0.11438209 1 3490114048 0 34 0 0
3.6586382 -0.20224708 -0.1142385 1 3490114048 0 34 0 0
3.6528778 -0.22441886 -0.11409944 1 3490114048 0 34 0 0
3.6471334 -0.24653804 -0.11396509 1 3490114048 0 34 0 0
3.6414044 -0.26860571 -0.11383545 1 3502114304 0 34 0 0
3.6356902 -0.29062447 -0.1137104 1 3502114304 0 34 0 0
3.6299903 -0.3125959 -0.11358982 1 3502114304 0 34 0 0
3.6243048 -0.33452186 -0.11347413 1 3502114304 0 34 0 0
3.6186321 -0.35640407 -0.11336291 1 3502114304 0 34 0 0
3.6129727 -0.37824455 -0.11325616 1 3502114304 0 34 0 0
3.6073256 -0.40004498 -0.11315417 1 3502114304 0 34 0 0
3.6016905 -0.42180705 -0.11305618 1 3502114304 0 34 0 0
3.5960672 -0.44353262 -0.11296302 1 3502114304 0 34 0 0
3.5904546 -0.46522364 -0.11287439 1 3502114304 0 34 0 0
3.692719 -0.15870455 -0.1613766 1 3490114048 0 35 0 0
3.6868606 -0.18112306 -0.16116619 1 3490114048 0 35 0 0
3.6810205 -0.20348427 -0.16096246 1 3490114048 0 35 0 0
3.6751974 -0.2257902 -0.16076523 1 3490114048 0 35 0 0
3.6693914 -0.24804254 -0.16057467 1 3490114048 0 35 0 0
3.6636019 -0.27024314 -0.16039085 1 3502114304 0 35 0 0
3.6578283 -0.29239425 -0.16021371 1 3502114304 0 35 0 0
3.6520703 -0.31449732 -0.16004282 1 3502114304 0 35 0 0
3.646327 -0.33655471 -0.15987855 1 3502114304 0 35 0 0
3.6405988 -0.3585678 -0.15972108 1 3502114304 0 35 0 0
3.6348839 -0.38053867 -0.15956974 1 3502114304 0 35 0 0
3.6291831 -0.40246901 -0.1594249 1 3502114304 0 35 0 0
3.7037022 -0.20473835 -0.20831311 1 3490114048 0 36 0 0
3.6978157 -0.2271798 -0.20805651 1 3490114048 0 36 0 0
3.6919472 -0.24956724 -0.20780838 1 3490114048 0 36 0 0
3.6860964 -0.27190235 -0.2075693 1 3502114304 0 36 0 0
3.6802623 -0.29418749 -0.20733845 1 3502114304 0 36 0 0
3.6744452 -0.31642404 -0.20711625 1 3502114304 0 36 0 0
