# .PCD v0.7 - Point Cloud Data file format
VERSION 0.7
FIELDS x y z intensity t reflectivity ring noise range
SIZE 4 4 4 4 4 2 2 2 4
TYPE F F F F U U U U U
COUNT 1 1 1 1 1 1 1 1 1
WIDTH 862
HEIGHT 1
VIEWPOINT 0 0 0 1 0 0 0
POINTS 862
DATA ascii
2.8563955 0.26364443 0.089431345 1 4087360000 0 29 0 0
2.8564081 0.24597926 0.089382827 1 4087360000 0 29 0 0
2.8564196 0.22833255 0.089337766 1 4087360000 0 29 0 0
2.8564303 0.21070306 0.089295924 1 4087360000 0 29 0 0
2.8564401 0.19308925 0.089257538 1 4087360000 0 29 0 0
2.8564491 0.17548977 0.089222491 1 4087360000 0 29 0 0
2.8564572 0.15790346 0.089190781 1 4087360000 0 29 0 0
2.8564644 0.14032894 0.089162409 1 4087360000 0 29 0 0
2.8564708 0.12276495 0.089137375 1 4087360000 0 29 0 0
2.8564763 0.10521004 0.089115798 1 4087360000 0 29 0 0
2.8564813 0.08766295 0.089097559 1 4087360000 0 29 0 0
2.865407 0.47910273 0.054333031 1 4087360000 0 30 0 0
2.8654211 0.46104965 0.054278791 1 4087360000 0 30 0 0
2.8654344 0.44303215 0.054226458 1 4087360000 0 30 0 0
2.8654473 0.42504829 0.054176331 1 4087360000 0 30 0 0
2.8654599 0.40709853 0.054128349 1 4087360000 0 30 0 0
2.8654714 0.3891784 0.054082334 1 4087360000 0 30 0 0
2.8654828 0.37128776 0.054038584 1 4087360000 0 30 0 0
2.8654933 0.35342547 0.053996861 1 4087360000 0 30 0 0
2.8655038 0.33558998 0.053957224 1 4087360000 0 30 0 0
2.8655133 0.31777993 0.053919673 1 4087360000 0 30 0 0
2.8655224 0.29999384 0.053884208 1 4087360000 0 30 0 0
2.865531 0.28223044 0.05385077 1 4087360000 0 30 0 0
2.8655391 0.26448846 0.053819358 1 4087360000 0 30 0 0
2.8655465 0.2467663 0.053790092 1 4087360000 0 30 0 0
2.8655536 0.22906291 0.053762853 1 4087360000 0 30 0 0
2.8655598 0.21137659 0.05373764 1 4087360000 0 30 0 0
2.865566 0.19370618 0.053714454 1 4087360000 0 30 0 0
2.8655715 0.17605032 0.053693235 1 4087360000 0 30 0 0
2.8655765 0.15840758 0.053674221 1 4087360000 0 30 0 0
2.8655806 0.14077686 0.053656995 1 4087360000 0 30 0 0
2.8655846 0.12315665 0.053642035 1 4087360000 0 30 0 0
2.8655879 0.10554566 0.053628981 1 4087360000 0 30 0 0
2.8655908 0.087942533 0.053617895 1 4087360000 0 30 0 0
2.8655932 0.070345998 0.053608835 1 4087360000 0 30 0 0
2.8655951 0.052754775 0.053601801 1 4087360000 0 30 0 0
2.8655963 0.035167471 0.053596795 1 4087360000 0 30 0 0
2.8746881 0.49880531 0.018186688 1 4087360000 0 31 0 0
2.8746929 0.48065513 0.018167615 1 4087360000 0 31 0 0
2.8746974 0.46254215 0.018149495 1 4087360000 0 31 0 0
2.874702 0.44446504 0.018131793 1 4087360000 0 31 0 0
2.8747063 0.42642185 0.018114984 1 4087360000 0 31 0 0
2.8747106 0.40841278 0.018098891 1 4087360000 0 31 0 0
2.8747146 0.39043385 0.018083572 1 4087360000 0 31 0 0
2.8747182 0.37248459 0.01806885 1 4087360000 0 31 0 0
2.874722 0.35456365 0.018054962 1 4087360000 0 31 0 0
2.8747253 0.33666995 0.018041611 1 4087360000 0 31 0 0
2.8747287 0.31880194 0.018028915 1 4087360000 0 31 0 0
2.8747313 0.30095801 0.018017054 1 4087360000 0 31 0 0
2.8747344 0.28313696 0.018005788 1 4087360000 0 31 0 0
2.8747373 0.26533753 0.017995358 1 4087360000 0 31 0 0
2.8747396 0.24755801 0.017985582 1 4087360000 0 31 0 0
2.874742 0.22979736 0.017976344 1 4087360000 0 31 0 0
2.8747442 0.21205398 0.017967939 1 4087360000 0 31 0 0
2.8747461 0.19432664 0.017960191 1 4087360000 0 31 0 0
2.8747478 0.17661403 0.017953098 1 4087360000 0 31 0 0
2.8747497 0.1589147 0.017946661 1 4087360000 0 31 0 0
2.8747511 0.1412273 0.017940938 1 4087360000 0 31 0 0
2.8747525 0.12355064 0.017935932 1 4087360000 0 31 0 0
2.8747532 0.10588323 0.017931581 1 4087360000 0 31 0 0
2.8747547 0.08822377 0.017927825 1 4087360000 0 31 0 0
2.8747551 0.070570961 0.017924726 1 4087360000 0 31 0 0
2.8747559 0.052923344 0.017922401 1 4087360000 0 31 0 0
2.8747563 0.035279956 0.017920792 1 4087360000 0 31 0 0
2.8747568 0.01763906 0.017919779 1 4087360000 0 31 0 0
2.8747568 -4.8398971e-07 0.017919362 1 4087360000 0 31 0 0
2.8747568 -0.017640045 0.017919838 1 4087360000 0 31 0 0
2.8840475 0.51867813 -0.018266022 1 4087360000 0 32 0 0
2.8840423 0.50042844 -0.018246114 1 4087360000 0 32 0 0
2.8840375 0.48221755 -0.0182271 1 4087360000 0 32 0 0
2.8840325 0.46404406 -0.018208563 1 4087360000 0 32 0 0
2.8840282 0.44590685 -0.01819104 1 4087360000 0 32 0 0
2.8840237 0.42780384 -0.018174052 1 4087360000 0 32 0 0
2.8840196 0.40973541 -0.018157959 1 4087360000 0 32 0 0
2.8840158 0.39169708 -0.018142402 1 4087360000 0 32 0 0
2.8840117 0.37368873 -0.01812762 1 4087360000 0 32 0 0
2.8840084 0.35570908 -0.018113554 1 4087360000 0 32 0 0
2.8840048 0.33775672 -0.018100142 1 4087360000 0 32 0 0
2.8840017 0.31983033 -0.018087566 1 4087360000 0 32 0 0
2.8839986 0.30192819 -0.018075585 1 4087360000 0 32 0 0
2.8839955 0.28404909 -0.018064082 1 4087360000 0 32 0 0
2.8839929 0.26619175 -0.018053532 1 4087360000 0 32 0 0
2.8839903 0.24835466 -0.018043756 1 4087360000 0 32 0 0
2.8839879 0.23053639 -0.018034458 1 4087360000 0 32 0 0
2.8839858 0.21273567 -0.018025994 1 4087360000 0 32 0 0
2.8839836 0.19495107 -0.018018126 1 4087360000 0 32 0 0
2.8839819 0.17718139 -0.018010974 1 4087360000 0 32 0 0
2.8839803 0.15942498 -0.018004477 1 4087360000 0 32 0 0
2.8839788 0.1416807 -0.017998755 1 4087360000 0 32 0 0
2.8839777 0.12394717 -0.017993689 1 4087360000 0 32 0 0
2.8839765 0.10622292 -0.017989218 1 4087360000 0 32 0 0
2.8839755 0.088506766 -0.017985642 1 4087360000 0 32 0 0
2.8839746 0.070797302 -0.017982602 1 4087360000 0 32 0 0
2.8839738 0.053093214 -0.01797998 1 4087360000 0 32 0 0
2.8839736 0.035393115 -0.01797837 1 4087360000 0 32 0 0
2.8839734 0.017695673 -0.017977417 1 4087360000 0 32 0 0
2.8839734 -4.5299529e-07 -0.017976999 1 4087360000 0 32 0 0
2.8839734 -0.017696559 -0.017977417 1 4087360000 0 32 0 0
2.8839736 -0.035394005 -0.01797837 1 4087360000 0 32 0 0
2.8839738 -0.053094164 -0.017980039 1 4087360000 0 32 0 0
2.8845761 -0.070811622 -0.017986238 1 4087360000 0 32 0 0
2.893507 0.55711955 -0.055108726 1 4087360000 0 33 0 0
2.8934906 0.53872544 -0.055044472 1 4087360000 0 33 0 0
2.8934746 0.52037358 -0.054982364 1 4087360000 0 33 0 0
2.8934591 0.50206244 -0.05492264 1 4087360000 0 33 0 0
2.8934445 0.48379049 -0.054864883 1 4087360000 0 33 0 0
2.89343 0.46555629 -0.054809451 1 4087360000 0 33 0 0
2.8934164 0.44735849 -0.054756284 1 4087360000 0 33 0 0
2.8934033 0.42919526 -0.054704964 1 4087360000 0 33 0 0
2.8933907 0.4110668 -0.054656029 1 4087360000 0 33 0 0
2.8933787 0.39296865 -0.054609239 1 4087360000 0 33 0 0
2.8933673 0.37490088 -0.054564536 1 4087360000 0 33 0 0
2.8933563 0.35686207 -0.054522216 1 4087360000 0 33 0 0
2.8933458 0.33885074 -0.054481745 1 4087360000 0 33 0 0
2.8933361 0.32086551 -0.054443359 1 4087360000 0 33 0 0
2.893327 0.30290478 -0.054407239 1 4087360000 0 33 0 0
2.8933182 0.28496733 -0.054373085 1 4087360000 0 33 0 0
2.8933098 0.2670517 -0.054341078 1 4087360000 0 33 0 0
2.8933022 0.24915655 -0.054311335 1 4087360000 0 33 0 0
2.8932953 0.2312804 -0.05428344 1 4087360000 0 33 0 0
2.8932886 0.21342196 -0.05425781 1 4087360000 0 33 0 0
2.8932824 0.19557981 -0.054234207 1 4087360000 0 33 0 0
2.8932769 0.17775252 -0.05421257 1 4087360000 0 33 0 0
2.8932719 0.15993857 -0.05419296 1 4087360000 0 33 0 0
2.8932674 0.14213705 -0.054175675 1 4087360000 0 33 0 0
2.8932636 0.1243462 -0.054160178 1 4087360000 0 33 0 0
2.89326 0.10656492 -0.054146945 1 4087360000 0 33 0 0
2.8932571 0.088791616 -0.054135621 1 4087360000 0 33 0 0
2.893255 0.0710252 -0.054126382 1 4087360000 0 33 0 0
2.8932531 0.05326404 -0.054119229 1 4087360000 0 33 0 0
2.8932517 0.035506997 -0.054114103 1 4087360000 0 33 0 0
2.8932509 0.017752551 -0.054110944 1 4087360000 0 33 0 0
2.8932507 -5.0246712e-07 -0.05411005 1 4087360000 0 33 0 0
2.8932509 -0.017753549 -0.054111063 1 4087360000 0 33 0 0
2.8932517 -0.035507903 -0.054114103 1 4087360000 0 33 0 0
2.8932531 -0.053264979 -0.054119229 1 4087360000 0 33 0 0
2.893255 -0.071024708 -0.054126382 1 4087360000 0 33 0 0
2.8932571 -0.088791274 -0.054135501 1 4087360000 0 33 0 0
2.89326 -0.10656456 -0.054146886 1 4087360000 0 33 0 0
2.9030511 0.57745248 -0.092280746 1 4087360000 0 34 0 0
2.9030223 0.55895156 -0.092169046 1 4087360000 0 34 0 0
2.9029946 0.5404948 -0.092061102 1 4087360000 0 34 0 0
2.9029682 0.52208078 -0.091957033 1 4087360000 0 34 0 0
2.9029422 0.50370777 -0.091856539 1 4087360000 0 34 0 0
2.9029174 0.48537436 -0.091759741 1 4087360000 0 34 0 0
2.9028935 0.46707889 -0.091666639 1 4087360000 0 34 0 0
2.9028707 0.44882017 -0.091577411 1 4087360000 0 34 0 0
2.9028485 0.43059635 -0.09149164 1 4087360000 0 34 0 0
2.9028273 0.4124074 -0.091409445 1 4087360000 0 34 0 0
2.9028072 0.39424923 -0.091330826 1 4087360000 0 34 0 0
2.9027879 0.37612146 -0.091255903 1 4087360000 0 34 0 0
2.9027698 0.35802299 -0.091184556 1 4087360000 0 34 0 0
2.9027524 0.33995226 -0.091116786 1 4087360000 0 34 0 0
2.9027357 0.32190791 -0.091052651 1 4087360000 0 34 0 0
2.9027202 0.3038882 -0.090991974 1 4087360000 0 34 0 0
2.9027057 0.28589192 -0.090934694 1 4087360000 0 34 0 0
2.9026918 0.2679176 -0.09088105 1 4087360000 0 34 0 0
2.9026787 0.24996394 -0.090830922 1 4087360000 0 34 0 0
2.9026668 0.23202948 -0.090784252 1 4087360000 0 34 0 0
2.9026558 0.21411283 -0.090741038 1 4087360000 0 34 0 0
2.9026458 0.19621266 -0.090701461 1 4087360000 0 34 0 0
2.9026363 0.17832737 -0.090665281 1 4087360000 0 34 0 0
2.9026282 0.16045573 -0.090632498 1 4087360000 0 34 0 0
2.9026206 0.14259648 -0.090603352 1 4087360000 0 34 0 0
2.9026136 0.1247481 -0.090577662 1 4087360000 0 34 0 0
2.9026082 0.10690931 -0.090555191 1 4087360000 0 34 0 0
2.9026034 0.089078471 -0.090536296 1 4087360000 0 34 0 0
2.9025993 0.071254559 -0.09052074 1 4087360000 0 34 0 0
2.9025965 0.053436022 -0.090508759 1 4087360000 0 34 0 0
2.9025939 0.03562161 -0.090500176 1 4087360000 0 34 0 0
2.9025927 0.017809849 -0.09049511 1 4087360000 0 34 0 0
2.9025924 -4.8160553e-07 -0.090493202 1 4087360000 0 34 0 0
2.9025927 -0.017810803 -0.09049511 1 4087360000 0 34 0 0
2.9025939 -0.035622519 -0.090500176 1 4087360000 0 34 0 0
2.9025965 -0.053436983 -0.09050864 1 4087360000 0 34 0 0
2.9025993 -0.071254112 -0.090520799 1 4087360000 0 34 0 0
2.9026034 -0.089078106 -0.090536296 1 4087360000 0 34 0 0
2.9026082 -0.10690883 -0.090555191 1 4087360000 0 34 0 0
2.9026141 -0.12474774 -0.090577662 1 4087360000 0 34 0 0
2.9026206 -0.14259619 -0.090603352 1 4087360000 0 34 0 0
2.9026282 -0.16045552 -0.090632558 1 4087360000 0 34 0 0
2.9127338 0.61663026 -0.12999123 1 4087360000 0 35 0 0
2.9126904 0.59797198 -0.12982315 1 4087360000 0 35 0 0
2.9126484 0.57936162 -0.12966043 1 4087360000 0 35 0 0
2.9126081 0.56079727 -0.12950313 1 4087360000 0 35 0 0
2.9125693 0.54227746 -0.1293509 1 4087360000 0 35 0 0
2.9125314 0.52380079 -0.12920403 1 4087360000 0 35 0 0
2.9124951 0.50536531 -0.12906253 1 4087360000 0 35 0 0
2.9124599 0.48696995 -0.12892604 1 4087360000 0 35 0 0
2.9124265 0.46861282 -0.12879473 1 4087360000 0 35 0 0
2.912394 0.45029253 -0.12866879 1 4087360000 0 35 0 0
2.9123628 0.43200752 -0.12854791 1 4087360000 0 35 0 0
2.9123333 0.41375792 -0.12843215 1 4087360000 0 35 0 0
2.9123049 0.39553916 -0.12832147 1 4087360000 0 35 0 0
2.9122777 0.37735122 -0.12821591 1 4087360000 0 35 0 0
2.9122517 0.3591927 -0.12811536 1 4087360000 0 35 0 0
2.9122274 0.34106192 -0.12801963 1 4087360000 0 35 0 0
2.9122043 0.32295787 -0.12792915 1 4087360000 0 35 0 0
2.9121823 0.30487865 -0.12784356 1 4087360000 0 35 0 0
2.9121616 0.28682327 -0.12776315 1 4087360000 0 35 0 0
2.912142 0.26878998 -0.12768757 1 4087360000 0 35 0 0
2.9121239 0.25077742 -0.12761676 1 4087360000 0 35 0 0
2.9121068 0.23278414 -0.1275509 1 4087360000 0 35 0 0
2.9120913 0.21480888 -0.1274901 1 4087360000 0 35 0 0
2.912077 0.19685017 -0.12743419 1 4087360000 0 35 0 0
2.9120638 0.1789066 -0.12738311 1 4087360000 0 35 0 0
2.9120522 0.16097669 -0.12733704 1 4087360000 0 35 0 0
2.9120417 0.14305942 -0.12729585 1 4087360000 0 35 0 0
2.9120321 0.12515296 -0.12725943 1 4087360000 0 35 0 0
2.9120243 0.10725597 -0.1272279 1 4087360000 0 35 0 0
2.9120171 0.089367472 -0.12720138 1 4087360000 0 35 0 0
2.9120116 0.071485572 -0.12717956 1 4087360000 0 35 0 0
2.9120073 0.053609259 -0.12716264 1 4087360000 0 35 0 0
2.9120042 0.035737097 -0.1271506 1 4087360000 0 35 0 0
2.9120026 0.017867645 -0.1271432 1 4087360000 0 35 0 0
2.9120018 -4.4226644e-07 -0.12714076 1 4087360000 0 35 0 0
2.9120026 -0.01786859 -0.1271432 1 4087360000 0 35 0 0
2.9120042 -0.035738062 -0.12715042 1 4087360000 0 35 0 0
2.9120073 -0.053610299 -0.12716252 1 4087360000 0 35 0 0
2.9120116 -0.071485184 -0.12717956 1 4087360000 0 35 0 0
2.9120173 -0.08936701 -0.1272015 1 4087360000 0 35 0 0
2.9120243 -0.10725561 -0.12722802 1 4087360000 0 35 0 0
2.9120324 -0.1251525 -0.12725961 1 4087360000 0 35 0 0
2.9120417 -0.14305905 -0.12729591 1 4087360000 0 35 0 0
2.9120522 -0.16097642 -0.12733728 1 4087360000 0 35 0 0
2.9120641 -0.17890625 -0.12738323 1 4087360000 0 35 0 0
2.9120772 -0.19684991 -0.12743425 1 4087360000 0 35 0 0
2.912091 -0.21480849 -0.12749004 1 4087360000 0 35 0 0
2.922488 0.6374557 -0.16798222 1 4087360000 0 36 0 0
2.9224303 0.6186831 -0.16775775 1 4087360000 0 36 0 0
2.9223745 0.59996021 -0.16754007 1 4087360000 0 36 0 0
2.9223201 0.58128542 -0.16732919 1 4087360000 0 36 0 0
2.9222679 0.56265706 -0.16712534 1 4087360000 0 36 0 0
2.9222174 0.54407388 -0.16692847 1 4087360000 0 36 0 0
2.9221685 0.52553409 -0.16673845 1 4087360000 0 36 0 0
2.9221215 0.50703567 -0.16655505 1 4087360000 0 36 0 0
2.922076 0.48857784 -0.16637832 1 4087360000 0 36 0 0
2.9220326 0.47015849 -0.16620857 1 4087360000 0 36 0 0
2.9219906 0.4517763 -0.16604549 1 4087360000 0 36 0 0
2.9219506 0.43342978 -0.16588885 1 4087360000 0 36 0 0
2.9219122 0.41511878 -0.165739 1 4087360000 0 36 0 0
2.9218752 0.39683893 -0.16559559 1 4087360000 0 36 0 0
2.9218402 0.37859011 -0.16545886 1 4087360000 0 36 0 0
2.9218066 0.3603712 -0.16532868 1 4087360000 0 36 0 0
2.9217749 0.34218019 -0.165205 1 4087360000 0 36 0 0
2.9217448 0.324016 -0.16508788 1 4087360000 0 36 0 0
2.9217162 0.30587688 -0.16497695 1 4087360000 0 36 0 0
2.9216897 0.2877616 -0.16487253 1 4087360000 0 36 0 0
2.9216642 0.26966885 -0.16477466 1 4087360000 0 36 0 0
2.9216409 0.25159699 -0.16468316 1 4087360000 0 36 0 0
2.9216192 0.23354457 -0.16459817 1 4087360000 0 36 0 0
2.9215991 0.21551016 -0.16451943 1 4087360000 0 36 0 0
2.9215801 0.19749255 -0.16444695 1 4087360000 0 36 0 0
2.9215634 0.17949022 -0.16438097 1 4087360000 0 36 0 0
2.9215481 0.16150181 -0.16432124 1 4087360000 0 36 0 0
2.9215343 0.14352576 -0.16426784 1 4087360000 0 36 0 0
2.9215221 0.12556084 -0.16422081 1 4087360000 0 36 0 0
2.9215117 0.10760558 -0.16417998 1 4087360000 0 36 0 0
2.9215028 0.089658551 -0.16414547 1 4087360000 0 36 0 0
2.9214957 0.071718425 -0.16411728 1 4087360000 0 36 0 0
2.9214897 0.05378392 -0.16409522 1 4087360000 0 36 0 0
2.9214861 0.035853472 -0.16407967 1 4087360000 0 36 0 0
2.9214838 0.017925829 -0.16407013 1 4087360000 0 36 0 0
2.9214828 -4.8160553e-07 -0.16406703 1 4087360000 0 36 0 0
2.9214838 -0.017926723 -0.16407025 1 4087360000 0 36 0 0
2.9214861 -0.035854451 -0.16407961 1 4087360000 0 36 0 0
2.9214902 -0.053784795 -0.16409534 1 4087360000 0 36 0 0
2.9214952 -0.071718007 -0.16411728 1 4087360000 0 36 0 0
2.9215026 -0.089658089 -0.16414535 1 4087360000 0 36 0 0
2.9215114 -0.10760509 -0.16417992 1 4087360000 0 36 0 0
2.9215221 -0.12556031 -0.16422093 1 4087360000 0 36 0 0
2.9215343 -0.14352532 -0.1642679 1 4087360000 0 36 0 0
2.9215481 -0.16150136 -0.16432136 1 4087360000 0 36 0 0
2.9215631 -0.17948982 -0.16438097 1 4087360000 0 36 0 0
2.9215801 -0.19749214 -0.16444689 1 4087360000 0 36 0 0
2.9215987 -0.21550986 -0.16451937 1 4087360000 0 36 0 0
2.9216189 -0.23354414 -0.16459805 1 4087360000 0 36 0 0
2.9216406 -0.25159654 -0.16468316 1 4087360000 0 36 0 0
2.921664 -0.26966849 -0.16477466 1 4087360000 0 36 0 0
2.9323497 0.65848118 -0.20639151 1 4087360000 0 37 0 0
2.9322765 0.63959074 -0.20610619 1 4087360000 0 37 0 0
2.9322054 0.62075257 -0.2058298 1 4087360000 0 37 0 0
2.9321368 0.60196435 -0.20556176 1 4087360000 0 37 0 0
2.9320703 0.58322471 -0.20530236 1 4087360000 0 37 0 0
2.9320059 0.56453198 -0.20505154 1 4087360000 0 37 0 0
2.9319437 0.54588479 -0.20480895 1 4087360000 0 37 0 0
2.9318836 0.52728117 -0.20457488 1 4087360000 0 37 0 0
2.9318254 0.50871944 -0.20434922 1 4087360000 0 37 0 0
2.9317696 0.49019846 -0.20413184 1 4087360000 0 37 0 0
2.931716 0.47171661 -0.20392299 1 4087360000 0 37 0 0
2.9316645 0.45327193 -0.20372188 1 4087360000 0 37 0 0
2.9316149 0.43486342 -0.20352924 1 4087360000 0 37 0 0
2.9315677 0.4164905 -0.20334464 1 4087360000 0 37 0 0
2.9315221 0.39814913 -0.20316821 1 4087360000 0 37 0 0
2.9314792 0.37983909 -0.20299989 1 4087360000 0 37 0 0
2.931438 0.36155891 -0.20283961 1 4087360000 0 37 0 0
2.9313989 0.34330714 -0.20268732 1 4087360000 0 37 0 0
2.9313617 0.32508227 -0.20254302 1 4087360000 0 37 0 0
2.9313266 0.30688304 -0.2024067 1 4087360000 0 37 0 0
2.931294 0.28870764 -0.20227838 1 4087360000 0 37 0 0
2.9312627 0.27055487 -0.20215786 1 4087360000 0 37 0 0
2.9312336 0.25242311 -0.20204514 1 4087360000 0 37 0 0
2.9312069 0.234311 -0.20194048 1 4087360000 0 37 0 0
2.9311821 0.21621715 -0.20184344 1 4087360000 0 37 0 0
2.931159 0.19814008 -0.20175421 1 4087360000 0 37 0 0
2.931138 0.18007837 -0.20167297 1 4087360000 0 37 0 0
2.931119 0.16203079 -0.20159942 1 4087360000 0 37 0 0
2.9311025 0.14399582 -0.20153391 1 4087360000 0 37 0 0
2.9310875 0.12597188 -0.20147598 1 4087360000 0 37 0 0
2.9310749 0.10795775 -0.20142573 1 4087360000 0 37 0 0
2.9310641 0.08995197 -0.20138329 1 4087360000 0 37 0 0
2.9310546 0.071953095 -0.20134836 1 4087360000 0 37 0 0
2.9310477 0.053959798 -0.20132136 1 4087360000 0 37 0 0
2.9310427 0.035970625 -0.20130199 1 4087360000 0 37 0 0
2.9310396 0.017984351 -0.20129043 1 4087360000 0 37 0 0
2.9310389 -5.6266782e-07 -0.20128661 1 4087360000 0 37 0 0
2.93104 -0.017985431 -0.20129061 1 4087360000 0 37 0 0
2.9310427 -0.03597169 -0.20130211 1 4087360000 0 37 0 0
2.9310479 -0.053960759 -0.20132148 1 4087360000 0 37 0 0
2.9310546 -0.071952656 -0.2013486 1 4087360000 0 37 0 0
2.9310637 -0.089951463 -0.20138329 1 4087360000 0 37 0 0
2.9310744 -0.10795728 -0.20142567 1 4087360000 0 37 0 0
2.9310873 -0.12597145 -0.20147586 1 4087360000 0 37 0 0
2.9311023 -0.14399539 -0.20153397 1 4087360000 0 37 0 0
2.9311192 -0.16203038 -0.2015996 1 4087360000 0 37 0 0
2.931138 -0.18007806 -0.20167297 1 4087360000 0 37 0 0
2.931159 -0.19813974 -0.20175433 1 4087360000 0 37 0 0
2.9311819 -0.2162167 -0.20184344 1 4087360000 0 37 0 0
2.9312067 -0.23431049 -0.2019403 1 4087360000 0 37 0 0
2.9312334 -0.25242266 -0.20204514 1 4087360000 0 37 0 0
2.9312625 -0.27055439 -0.20215768 1 4087360000 0 37 0 0
2.9312935 -0.28870717 -0.20227808 1 4087360000 0 37 0 0
2.9313266 -0.30688262 -0.20240647 1 4087360000 0 37 0 0
2.9313612 -0.32508197 -0.2025429 1 4087360000 0 37 0 0
2.9424176 0.69877851 -0.24560273 1 4087360000 0 38 0 0
2.9423251 0.67971182 -0.24524224 1 4087360000 0 38 0 0
2.942235 0.66070092 -0.24489224 1 4087360000 0 38 0 0
2.9421477 0.64174414 -0.24455279 1 4087360000 0 38 0 0
2.9420633 0.62283939 -0.24422342 1 4087360000 0 38 0 0
2.9419813 0.60398549 -0.24390441 1 4087360000 0 38 0 0
2.9419017 0.58518052 -0.24359542 1 4087360000 0 38 0 0
2.9418254 0.5664227 -0.24329674 1 4087360000 0 38 0 0
2.9417512 0.54771078 -0.24300814 1 4087360000 0 38 0 0
2.94168 0.52904296 -0.24272949 1 4087360000 0 38 0 0
2.9416106 0.51041734 -0.24246073 1 4087360000 0 38 0 0
2.9415445 0.49183276 -0.2422021 1 4087360000 0 38 0 0
2.9414804 0.47328752 -0.24195307 1 4087360000 0 38 0 0
2.9414186 0.45478016 -0.24171394 1 4087360000 0 38 0 0
2.9413598 0.4363088 -0.24148452 1 4087360000 0 38 0 0
2.9413037 0.4178738 -0.24126494 1 4087360000 0 38 0 0
2.9412498 0.39947024 -0.24105483 1 4087360000 0 38 0 0
2.9411983 0.38109839 -0.2408545 1 4087360000 0 38 0 0
2.9411492 0.36275676 -0.24066371 1 4087360000 0 38 0 0
2.9411025 0.34444353 -0.24048227 1 4087360000 0 38 0 0
2.9410586 0.32615772 -0.24031061 1 4087360000 0 38 0 0
2.9410167 0.30789727 -0.24014819 1 4087360000 0 38 0 0
2.9409773 0.28966129 -0.23999542 1 4087360000 0 38 0 0
2.9409409 0.27144787 -0.23985183 1 4087360000 0 38 0 0
2.9409065 0.25325605 -0.23971808 1 4087360000 0 38 0 0
2.9408746 0.23508373 -0.23959339 1 4087360000 0 38 0 0
2.9408445 0.21692993 -0.23947793 1 4087360000 0 38 0 0
2.9408176 0.19879302 -0.23937184 1 4087360000 0 38 0 0
2.9407926 0.18067151 -0.23927498 1 4087360000 0 38 0 0
2.9407701 0.16256429 -0.23918754 1 4087360000 0 38 0 0
2.9407501 0.14446962 -0.23910928 1 4087360000 0 38 0 0
2.9407322 0.12638627 -0.23904049 1 4087360000 0 38 0 0
2.940717 0.10831288 -0.23898047 1 4087360000 0 38 0 0
2.9407039 0.090247743 -0.23893005 1 4087360000 0 38 0 0
2.9406934 0.072189651 -0.23888874 1 4087360000 0 38 0 0
2.940685 0.0541372 -0.23885649 1 4087360000 0 38 0 0
2.9406793 0.036088951 -0.23883355 1 4087360000 0 38 0 0
2.9406755 0.018043529 -0.23881972 1 4087360000 0 38 0 0
2.9406743 -5.5313109e-07 -0.23881525 1 4087360000 0 38 0 0
2.9406755 -0.018044489 -0.23881984 1 4087360000 0 38 0 0
2.9406793 -0.036090005 -0.23883355 1 4087360000 0 38 0 0
2.940685 -0.054138239 -0.23885661 1 4087360000 0 38 0 0
2.9406934 -0.072189309 -0.23888874 1 4087360000 0 38 0 0
2.9407039 -0.090247326 -0.23893023 1 4087360000 0 38 0 0
2.940717 -0.10831245 -0.23898065 1 4087360000 0 38 0 0
2.9407322 -0.12638597 -0.23904032 1 4087360000 0 38 0 0
2.9407501 -0.14446932 -0.23910934 1 4087360000 0 38 0 0
2.9407701 -0.16256389 -0.23918772 1 4087360000 0 38 0 0
2.9407928 -0.18067129 -0.23927516 1 4087360000 0 38 0 0
2.9408176 -0.1987927 -0.2393719 1 4087360000 0 38 0 0
2.9408445 -0.21692951 -0.23947799 1 4087360000 0 38 0 0
2.9408743 -0.23508324 -0.23959327 1 4087360000 0 38 0 0
2.9409063 -0.25325561 -0.23971778 1 4087360000 0 38 0 0
2.9409409 -0.27144769 -0.23985195 1 4087360000 0 38 0 0
2.9409778 -0.28966093 -0.23999536 1 4087360000 0 38 0 0
2.9410167 -0.30789709 -0.24014825 1 4087360000 0 38 0 0
2.9410586 -0.3261573 -0.24031055 1 4087360000 0 38 0 0
2.9411025 -0.34444332 -0.24048245 1 4087360000 0 38 0 0
2.9411492 -0.36275622 -0.24066365 1 4087360000 0 38 0 0
2.9411981 -0.38109806 -0.24085444 1 4087360000 0 38 0 0
2.9525299 0.72034669 -0.28498942 1 4087360000 0 39 0 0
2.9524193 0.70115376 -0.284558 1 4087360000 0 39 0 0
2.952312 0.68201894 -0.28413898 1 4087360000 0 39 0 0
2.9522076 0.6629405 -0.28373224 1 4087360000 0 39 0 0
2.952106 0.64391631 -0.28333741 1 4087360000 0 39 0 0
2.9520078 0.62494469 -0.28295451 1 4087360000 0 39 0 0
2.9519122 0.60602432 -0.28258353 1 4087360000 0 39 0 0
2.9518199 0.58715343 -0.2822246 1 4087360000 0 39 0 0
2.951731 0.56833005 -0.28187722 1 4087360000 0 39 0 0
2.9516449 0.5495528 -0.28154188 1 4087360000 0 39 0 0
2.9515615 0.53082013 -0.28121775 1 4087360000 0 39 0 0
2.9514816 0.51213008 -0.28090554 1 4087360000 0 39 0 0
2.9514043 0.49348158 -0.28060478 1 4087360000 0 39 0 0
2.9513299 0.47487244 -0.28031522 1 4087360000 0 39 0 0
2.9512584 0.45630154 -0.28003734 1 4087360000 0 39 0 0
2.95119 0.43776703 -0.27977067 1 4087360000 0 39 0 0
2.9511244 0.41926891 -0.27951521 1 4087360000 0 39 0 0
2.951062 0.40080291 -0.27927119 1 4087360000 0 39 0 0
2.9510021 0.38236865 -0.27903825 1 4087360000 0 39 0 0
2.9509451 0.36396495 -0.27881652 1 4087360000 0 39 0 0
2.950891 0.34558991 -0.27860564 1 4087360000 0 39 0 0
2.9508398 0.32724237 -0.27840596 1 4087360000 0 39 0 0
2.9507914 0.30892059 -0.27821738 1 4087360000 0 39 0 0
2.9507458 0.29062337 -0.27803975 1 4087360000 0 39 0 0
2.9507027 0.272349 -0.27787298 1 4087360000 0 39 0 0
2.9506629 0.25409615 -0.27771717 1 4087360000 0 39 0 0
2.9506254 0.23586316 -0.27757233 1 4087360000 0 39 0 0
2.9505911 0.21764873 -0.2774381 1 4087360000 0 39 0 0
2.9505596 0.19945148 -0.27731496 1 4087360000 0 39 0 0
2.9505305 0.18126991 -0.27720243 1 4087360000 0 39 0 0
2.9505048 0.16310248 -0.27710086 1 4087360000 0 39 0 0
2.9504812 0.14494763 -0.27700979 1 4087360000 0 39 0 0
2.9504607 0.12680449 -0.27692956 1 4087360000 0 39 0 0
2.9504428 0.10867109 -0.27685994 1 4087360000 0 39 0 0
2.9504278 0.090546161 -0.27680129 1 4087360000 0 39 0 0
2.9504154 0.072428323 -0.27675313 1 4087360000 0 39 0 0
2.9504058 0.054316152 -0.27671582 1 4087360000 0 39 0 0
2.9503987 0.036208201 -0.27668911 1 4087360000 0 39 0 0
2.9503949 0.018103275 -0.27667338 1 4087360000 0 39 0 0
2.9503932 -4.8160553e-07 -0.27666789 1 4087360000 0 39 0 0
2.9503949 -0.01810416 -0.27667326 1 4087360000 0 39 0 0
2.9503987 -0.03620927 -0.27668923 1 4087360000 0 39 0 0
2.9504058 -0.054317191 -0.27671605 1 4087360000 0 39 0 0
2.9504154 -0.072427966 -0.27675337 1 4087360000 0 39 0 0
2.9504278 -0.090545803 -0.27680153 1 4087360000 0 39 0 0
2.9504428 -0.10867066 -0.27685994 1 4087360000 0 39 0 0
2.9504607 -0.12680401 -0.27692968 1 4087360000 0 39 0 0
2.9504812 -0.14494732 -0.27701002 1 4087360000 0 39 0 0
2.9505048 -0.16310205 -0.27710074 1 4087360000 0 39 0 0
2.9505305 -0.18126945 -0.27720267 1 4087360000 0 39 0 0
2.9505596 -0.19945118 -0.27731508 1 4087360000 0 39 0 0
2.9505913 -0.2176484 -0.2774381 1 4087360000 0 39 0 0
2.9506259 -0.23586282 -0.27757221 1 4087360000 0 39 0 0
2.9506629 -0.25409576 -0.27771705 1 4087360000 0 39 0 0
2.9507031 -0.27234873 -0.27787298 1 4087360000 0 39 0 0
2.9507458 -0.29062304 -0.27803963 1 4087360000 0 39 0 0
2.9507914 -0.30892044 -0.27821738 1 4087360000 0 39 0 0
2.9508398 -0.3272419 -0.27840596 1 4087360000 0 39 0 0
2.950891 -0.34558952 -0.27860576 1 4087360000 0 39 0 0
2.9509451 -0.3639645 -0.27881652 1 4087360000 0 39 0 0
2.9510021 -0.38236842 -0.27903837 1 4087360000 0 39 0 0
2.951062 -0.40080246 -0.27927119 1 4087360000 0 39 0 0
2.9511244 -0.41926855 -0.27951545 1 4087360000 0 39 0 0
2.95119 -0.4377681 -0.27977067 1 4087360000 0 39 0 0
2.9629033 0.76151967 -0.32539147 1 4087360000 0 40 0 0
2.9627697 0.74213547 -0.32487065 1 4087360000 0 40 0 0
2.9626398 0.72281301 -0.32436389 1 4087360000 0 40 0 0
2.962513 0.70355088 -0.3238712 1 4087360000 0 40 0 0
2.9623904 0.68434715 -0.32339281 1 4087360000 0 40 0 0
2.962271 0.66520017 -0.32292813 1 4087360000 0 40 0 0
2.9621553 0.64610815 -0.3224774 1 4087360000 0 40 0 0
2.9620428 0.62706912 -0.3220399 1 4087360000 0 40 0 0
2.9619341 0.60808176 -0.32161647 1 4087360000 0 40 0 0
2.9618289 0.58914429 -0.32120663 1 4087360000 0 40 0 0
2.9617271 0.57025462 -0.32080978 1 4087360000 0 40 0 0
2.9616287 0.55141169 -0.32042676 1 4087360000 0 40 0 0
2.9615338 0.53261334 -0.32005686 1 4087360000 0 40 0 0
2.9614422 0.5138585 -0.31970006 1 4087360000 0 40 0 0
2.961354 0.49514499 -0.31935662 1 4087360000 0 40 0 0
2.9612691 0.47647166 -0.31902629 1 4087360000 0 40 0 0
2.9611876 0.45783675 -0.31870884 1 4087360000 0 40 0 0
2.9611096 0.43923843 -0.31840438 1 4087360000 0 40 0 0
2.9610345 0.42067692 -0.31811279 1 4087360000 0 40 0 0
2.960963 0.40214762 -0.31783384 1 4087360000 0 40 0 0
2.9608946 0.38365054 -0.31756788 1 4087360000 0 40 0 0
2.9608297 0.3651841 -0.31731457 1 4087360000 0 40 0 0
2.960768 0.34674665 -0.317074 1 4087360000 0 40 0 0
2.9607096 0.32833683 -0.31684595 1 4087360000 0 40 0 0
2.960654 0.30995324 -0.31663066 1 4087360000 0 40 0 0
2.960602 0.29159415 -0.31642765 1 4087360000 0 40 0 0
2.9605532 0.27325818 -0.31623739 1 4087360000 0 40 0 0
2.9605074 0.25494388 -0.31605953 1 4087360000 0 40 0 0
2.960465 0.23664968 -0.31589407 1 4087360000 0 40 0 0
2.9604256 0.21837413 -0.31574088 1 4087360000 0 40 0 0
2.9603896 0.20011592 -0.3156001 1 4087360000 0 40 0 0
2.9603565 0.18187343 -0.31547171 1 4087360000 0 40 0 0
2.9603267 0.1636454 -0.3153556 1 4087360000 0 40 0 0
2.9603 0.14543018 -0.31525165 1 4087360000 0 40 0 0
2.9602764 0.12722641 -0.31516021 1 4087360000 0 40 0 0
2.9602563 0.10903255 -0.31508094 1 4087360000 0 40 0 0
2.9602389 0.090847328 -0.31501371 1 4087360000 0 40 0 0
2.9602249 0.072669163 -0.31495887 1 4087360000 0 40 0 0
2.9602139 0.054496843 -0.31491631 1 4087360000 0 40 0 0
2.9602063 0.036328603 -0.31488568 1 4087360000 0 40 0 0
2.9602013 0.018163288 -0.31486732 1 4087360000 0 40 0 0
2.9601998 -5.9843063e-07 -0.31486136 1 4087360000 0 40 0 0
2.9602013 -0.01816435 -0.31486744 1 4087360000 0 40 0 0
2.9602063 -0.036329642 -0.3148858 1 4087360000 0 40 0 0
2.9602139 -0.054497734 -0.31491619 1 4087360000 0 40 0 0
2.9602249 -0.072668731 -0.31495899 1 4087360000 0 40 0 0
2.9602389 -0.090846859 -0.31501383 1 4087360000 0 40 0 0
2.9602563 -0.1090321 -0.31508094 1 4087360000 0 40 0 0
2.9602766 -0.12722586 -0.31516021 1 4087360000 0 40 0 0
2.9603002 -0.14542976 -0.31525165 1 4087360000 0 40 0 0
2.9603267 -0.16364501 -0.3153556 1 4087360000 0 40 0 0
2.9603567 -0.18187308 -0.31547159 1 4087360000 0 40 0 0
2.9603896 -0.20011564 -0.3156001 1 4087360000 0 40 0 0
2.9604256 -0.21837391 -0.31574076 1 4087360000 0 40 0 0
2.960465 -0.23664941 -0.31589395 1 4087360000 0 40 0 0
2.9605074 -0.25494358 -0.31605953 1 4087360000 0 40 0 0
2.9605532 -0.27325791 -0.31623739 1 4087360000 0 40 0 0
2.960602 -0.29159394 -0.31642789 1 4087360000 0 40 0 0
2.9606543 -0.309953 -0.31663066 1 4087360000 0 40 0 0
2.9607096 -0.32833666 -0.31684607 1 4087360000 0 40 0 0
2.960768 -0.34674624 -0.31707412 1 4087360000 0 40 0 0
2.9608297 -0.36518371 -0.3173148 1 4087360000 0 40 0 0
2.9608946 -0.38365009 -0.31756788 1 4087360000 0 40 0 0
2.960963 -0.40214723 -0.31783396 1 4087360000 0 40 0 0
2.9610348 -0.42067656 -0.31811291 1 4087360000 0 40 0 0
2.9611096 -0.43923953 -0.3184045 1 4087360000 0 40 0 0
2.9611876 -0.4578377 -0.31870884 1 4087360000 0 40 0 0
2.9612694 -0.47647288 -0.31902653 1 4087360000 0 40 0 0
2.961354 -0.49514624 -0.31935674 1 4087360000 0 40 0 0
2.9728458 0.72530311 -0.36411458 1 4087360000 0 41 0 0
2.9727035 0.70597088 -0.36355978 1 4087360000 0 41 0 0
2.9725649 0.68669754 -0.36302072 1 4087360000 0 41 0 0
2.9724307 0.66748178 -0.36249739 1 4087360000 0 41 0 0
2.9723003 0.64832097 -0.36198944 1 4087360000 0 41 0 0
2.9721737 0.62921387 -0.3614971 1 4087360000 0 41 0 0
2.9720514 0.6101588 -0.36102003 1 4087360000 0 41 0 0
2.9719326 0.59115392 -0.36055809 1 4087360000 0 41 0 0
2.9718182 0.57219762 -0.36011153 1 4087360000 0 41 0 0
2.9717071 0.55328816 -0.35967988 1 4087360000 0 41 0 0
2.9716003 0.53442395 -0.35926324 1 4087360000 0 41 0 0
2.9714971 0.51560324 -0.35886151 1 4087360000 0 41 0 0
2.9713979 0.49682447 -0.35847479 1 4087360000 0 41 0 0
2.971302 0.47808585 -0.35810238 1 4087360000 0 41 0 0
2.9712105 0.45938623 -0.35774499 1 4087360000 0 41 0 0
2.9711223 0.44072369 -0.35740203 1 4087360000 0 41 0 0
2.9710381 0.42209816 -0.35707349 1 4087360000 0 41 0 0
2.9709573 0.40350506 -0.35675949 1 4087360000 0 41 0 0
2.9708803 0.38494438 -0.35645992 1 4087360000 0 41 0 0
2.9708073 0.36641461 -0.35617489 1 4087360000 0 41 0 0
2.9707379 0.34791431 -0.35590392 1 4087360000 0 41 0 0
2.9706717 0.32944167 -0.35564691 1 4087360000 0 41 0 0
2.9706097 0.31099552 -0.35540444 1 4087360000 0 41 0 0
2.9705508 0.29257393 -0.35517591 1 4087360000 0 41 0 0
2.9704959 0.27417585 -0.35496169 1 4087360000 0 41 0 0
2.9704442 0.2557995 -0.35476118 1 4087360000 0 41 0 0
2.9703963 0.23744348 -0.35457486 1 4087360000 0 41 0 0
2.9703522 0.21910648 -0.35440248 1 4087360000 0 41 0 0
2.9703114 0.20078665 -0.35424381 1 4087360000 0 41 0 0
2.9702742 0.18248291 -0.35409921 1 4087360000 0 41 0 0
2.9702406 0.16419345 -0.35396844 1 4087360000 0 41 0 0
2.9702108 0.14591707 -0.35385162 1 4087360000 0 41 0 0
2.9701843 0.12765206 -0.35374838 1 4087360000 0 41 0 0
2.9701614 0.10939728 -0.35365909 1 4087360000 0 41 0 0
2.9701419 0.091151208 -0.35358351 1 4087360000 0 41 0 0
2.9701259 0.072912127 -0.35352176 1 4087360000 0 41 0 0
2.9701138 0.054678973 -0.3534736 1 4087360000 0 41 0 0
2.9701049 0.036450081 -0.35343939 1 4087360000 0 41 0 0
2.9700997 0.018224038 -0.35341865 1 4087360000 0 41 0 0
2.9700978 -6.318092e-07 -0.35341173 1 4087360000 0 41 0 0
2.9700997 -0.018225135 -0.35341865 1 4087360000 0 41 0 0
2.9701049 -0.036451217 -0.35343915 1 4087360000 0 41 0 0
2.9701138 -0.054680012 -0.35347348 1 4087360000 0 41 0 0
2.9701262 -0.072911888 -0.35352176 1 4087360000 0 41 0 0
2.9701419 -0.091150835 -0.35358351 1 4087360000 0 41 0 0
2.9701614 -0.10939699 -0.35365909 1 4087360000 0 41 0 0
2.9701843 -0.12765177 -0.35374838 1 4087360000 0 41 0 0
2.9702108 -0.14591657 -0.35385162 1 4087360000 0 41 0 0
2.9702406 -0.16419308 -0.35396832 1 4087360000 0 41 0 0
2.9702742 -0.18248256 -0.35409909 1 4087360000 0 41 0 0
2.9703114 -0.20078632 -0.35424381 1 4087360000 0 41 0 0
2.9703524 -0.21910614 -0.35440236 1 4087360000 0 41 0 0
2.9703968 -0.23744327 -0.35457486 1 4087360000 0 41 0 0
2.9704442 -0.25579926 -0.35476106 1 4087360000 0 41 0 0
2.9704959 -0.27417564 -0.35496157 1 4087360000 0 41 0 0
2.970551 -0.29257372 -0.35517615 1 4087360000 0 41 0 0
2.9706097 -0.3109951 -0.35540444 1 4087360000 0 41 0 0
2.9706719 -0.32944149 -0.35564715 1 4087360000 0 41 0 0
2.9707379 -0.34791401 -0.35590392 1 4087360000 0 41 0 0
2.9708073 -0.36641446 -0.35617489 1 4087360000 0 41 0 0
2.9708807 -0.38494426 -0.35646003 1 4087360000 0 41 0 0
2.9709575 -0.40350473 -0.35675985 1 4087360000 0 41 0 0
2.9710381 -0.42209774 -0.35707396 1 4087360000 0 41 0 0
2.9711227 -0.44072491 -0.35740227 1 4087360000 0 41 0 0
2.9712105 -0.45938739 -0.35774511 1 4087360000 0 41 0 0
2.9713025 -0.47808716 -0.35810262 1 4087360000 0 41 0 0
2.9713979 -0.49682575 -0.35847491 1 4087360000 0 41 0 0
2.9714971 -0.51560438 -0.35886163 1 4099360256 0 41 0 0
2.9716003 -0.53442484 -0.35926324 1 4099360256 0 41 0 0
2.9717073 -0.55328935 -0.35968 1 4099360256 0 41 0 0
2.9826906 0.66978562 -0.40245754 1 4087360000 0 42 0 0
2.9825454 0.65055573 -0.40189201 1 4087360000 0 42 0 0
2.9824045 0.63137978 -0.40134329 1 4087360000 0 42 0 0
2.9822681 0.61225623 -0.40081173 1 4087360000 0 42 0 0
2.9821362 0.59318364 -0.40029746 1 4087360000 0 42 0 0
2.9820082 0.57415956 -0.39979953 1 4087360000 0 42 0 0
2.9818847 0.55518299 -0.39931887 1 4087360000 0 42 0 0
2.9817657 0.53625202 -0.39885479 1 4087360000 0 42 0 0
2.9816506 0.51736492 -0.39840728 1 4087360000 0 42 0 0
2.9815402 0.49852023 -0.39797634 1 4087360000 0 42 0 0
2.9814336 0.47971609 -0.39756161 1 4087360000 0 42 0 0
2.9813313 0.46095115 -0.39716345 1 4087360000 0 42 0 0
2.9812331 0.44222355 -0.39678127 1 4087360000 0 42 0 0
2.9811394 0.4235332 -0.39641553 1 4087360000 0 42 0 0
2.9810495 0.40487579 -0.39606565 1 4087360000 0 42 0 0
2.9809639 0.38625091 -0.3957321 1 4087360000 0 42 0 0
2.9808822 0.3676573 -0.39541429 1 4087360000 0 42 0 0
2.9808047 0.34909335 -0.39511257 1 4087360000 0 42 0 0
2.9807315 0.33055732 -0.39482647 1 4087360000 0 42 0 0
2.9806619 0.31204787 -0.39455634 1 4087360000 0 42 0 0
2.9805965 0.29356354 -0.39430195 1 4087360000 0 42 0 0
2.9805353 0.27510267 -0.39406317 1 4087360000 0 42 0 0
2.980478 0.25666371 -0.3938399 1 4087360000 0 42 0 0
2.9804246 0.23824522 -0.39363223 1 4087360000 0 42 0 0
2.9803753 0.21984588 -0.39343995 1 4087360000 0 42 0 0
2.9803302 0.20146401 -0.39326352 1 4087360000 0 42 0 0
2.9802885 0.18309818 -0.39310247 1 4087360000 0 42 0 0
2.9802513 0.16474685 -0.39295667 1 4087360000 0 42 0 0
2.9802179 0.14640866 -0.3928265 1 4087360000 0 42 0 0
2.9801881 0.12808204 -0.39271146 1 4087360000 0 42 0 0
2.9801629 0.10976571 -0.39261204 1 4087360000 0 42 0 0
2.9801412 0.091458067 -0.39252776 1 4087360000 0 42 0 0
2.9801235 0.073157623 -0.39245898 1 4087360000 0 42 0 0
2.9801097 0.05486295 -0.39240545 1 4087360000 0 42 0 0
2.9800999 0.036572699 -0.39236742 1 4087360000 0 42 0 0
2.980094 0.018285343 -0.39234442 1 4087360000 0 42 0 0
2.980092 -5.3882599e-07 -0.39233655 1 4087360000 0 42 0 0
2.9800942 -0.018286359 -0.39234453 1 4087360000 0 42 0 0
2.9800999 -0.036573697 -0.3923673 1 4087360000 0 42 0 0
2.9801097 -0.054864038 -0.39240557 1 4087360000 0 42 0 0
2.9801235 -0.073157243 -0.39245898 1 4087360000 0 42 0 0
2.9801412 -0.09145768 -0.39252776 1 4087360000 0 42 0 0
2.9801629 -0.10976537 -0.39261204 1 4087360000 0 42 0 0
2.9801886 -0.12808162 -0.3927117 1 4087360000 0 42 0 0
2.9802179 -0.14640823 -0.3928265 1 4087360000 0 42 0 0
2.9802513 -0.16474642 -0.39295667 1 4087360000 0 42 0 0
2.9802885 -0.18309776 -0.39310247 1 4087360000 0 42 0 0
2.9803302 -0.20146364 -0.3932634 1 4087360000 0 42 0 0
2.9803753 -0.21984552 -0.39343995 1 4087360000 0 42 0 0
2.9804246 -0.23824497 -0.39363188 1 4087360000 0 42 0 0
2.980478 -0.25666326 -0.39383978 1 4087360000 0 42 0 0
2.9805355 -0.27510223 -0.39406294 1 4087360000 0 42 0 0
2.9805965 -0.29356307 -0.39430171 1 4087360000 0 42 0 0
2.9806621 -0.31204757 -0.39455634 1 4087360000 0 42 0 0
2.9807315 -0.33055702 -0.39482647 1 4087360000 0 42 0 0
2.9808049 -0.34909293 -0.39511257 1 4087360000 0 42 0 0
2.9808824 -0.36765683 -0.39541429 1 4087360000 0 42 0 0
2.9809639 -0.38625062 -0.3957321 1 4087360000 0 42 0 0
2.9810498 -0.40487537 -0.39606589 1 4087360000 0 42 0 0
2.9811394 -0.42353284 -0.39641553 1 4087360000 0 42 0 0
2.9812334 -0.44222465 -0.3967815 1 4087360000 0 42 0 0
2.9813313 -0.46095222 -0.39716357 1 4087360000 0 42 0 0
2.9814336 -0.4797172 -0.39756185 1 4087360000 0 42 0 0
2.9815402 -0.49852145 -0.39797634 1 4087360000 0 42 0 0
2.9816508 -0.51736623 -0.3984074 1 4099360256 0 42 0 0
2.9817657 -0.53625315 -0.39885479 1 4099360256 0 42 0 0
2.981885 -0.55518419 -0.39931911 1 4099360256 0 42 0 0
2.9820082 -0.57416081 -0.3998 1 4099360256 0 42 0 0
2.9925892 0.614375 -0.44101018 1 4087360000 0 43 0 0
2.9924436 0.59523374 -0.44044238 1 4087360000 0 43 0 0
2.9923024 0.57614166 -0.43989307 1 4087360000 0 43 0 0
2.992166 0.5570972 -0.43936223 1 4087360000 0 43 0 0
2.9920344 0.53809881 -0.43884975 1 4087360000 0 43 0 0
2.9919076 0.51914459 -0.43835574 1 4087360000 0 43 0 0
2.9917855 0.50023311 -0.43787998 1 4087360000 0 43 0 0
2.991668 0.48136288 -0.43742198 1 4087360000 0 43 0 0
2.9915552 0.46253189 -0.43698233 1 4087360000 0 43 0 0
2.9914467 0.44373861 -0.43656069 1 4087360000 0 43 0 0
2.9913433 0.42498291 -0.43615693 1 4087360000 0 43 0 0
2.9912441 0.40626037 -0.43577069 1 4087360000 0 43 0 0
2.9911494 0.38757077 -0.43540233 1 4087360000 0 43 0 0
2.9910593 0.36891243 -0.43505114 1 4087360000 0 43 0 0
2.9909737 0.35028422 -0.43471807 1 4087360000 0 43 0 0
2.9908926 0.33168414 -0.43440229 1 4087360000 0 43 0 0
2.9908159 0.31311089 -0.43410403 1 4087360000 0 43 0 0
2.9907439 0.29456294 -0.43382329 1 4087360000 0 43 0 0
2.9906762 0.27603853 -0.43355948 1 4087360000 0 43 0 0
2.990613 0.25753647 -0.43331319 1 4087360000 0 43 0 0
2.9905541 0.23905496 -0.43308371 1 4087360000 0 43 0 0
2.9904997 0.22059268 -0.43287176 1 4087360000 0 43 0 0
2.9904497 0.20214798 -0.43267673 1 4087360000 0 43 0 0
2.9904039 0.1837195 -0.43249899 1 4087360000 0 43 0 0
2.9903629 0.16530578 -0.4323383 1 4087360000 0 43 0 0
2.9903259 0.14690524 -0.43219453 1 4087360000 0 43 0 0
2.9902933 0.12851641 -0.43206745 1 4087360000 0 43 0 0
2.9902651 0.11013778 -0.4319579 1 4087360000 0 43 0 0
2.9902413 0.091767959 -0.4318648 1 4087360000 0 43 0 0
2.9902217 0.073405437 -0.43178874 1 4087360000 0 43 0 0
2.9902065 0.055048898 -0.43172985 1 4087360000 0 43 0 0
2.9901955 0.036696687 -0.43168753 1 4087360000 0 43 0 0
2.9901891 0.018347368 -0.43166214 1 4087360000 0 43 0 0
2.9901869 -5.5119392e-07 -0.4316538 1 4087360000 0 43 0 0
2.9901891 -0.018348297 -0.43166226 1 4087360000 0 43 0 0
2.9901955 -0.036697675 -0.4316873 1 4087360000 0 43 0 0
2.9902065 -0.055049933 -0.43172973 1 4087360000 0 43 0 0
2.9902217 -0.073405124 -0.43178874 1 4087360000 0 43 0 0
2.9902413 -0.091767654 -0.43186492 1 4087360000 0 43 0 0
2.9902651 -0.11013734 -0.43195766 1 4087360000 0 43 0 0
2.9902933 -0.12851596 -0.43206745 1 4087360000 0 43 0 0
2.9903259 -0.14690487 -0.43219441 1 4087360000 0 43 0 0
2.9903629 -0.16530533 -0.43233806 1 4087360000 0 43 0 0
2.9904039 -0.18371917 -0.43249899 1 4087360000 0 43 0 0
2.9904497 -0.20214766 -0.43267685 1 4087360000 0 43 0 0
2.9904997 -0.22059226 -0.43287176 1 4087360000 0 43 0 0
2.9905541 -0.2390545 -0.43308371 1 4087360000 0 43 0 0
2.990613 -0.25753605 -0.43331319 1 4087360000 0 43 0 0
2.9906764 -0.27603829 -0.4335596 1 4087360000 0 43 0 0
2.9907439 -0.29456267 -0.43382329 1 4087360000 0 43 0 0
2.9908164 -0.31311062 -0.43410403 1 4087360000 0 43 0 0
2.9908929 -0.33168381 -0.43440264 1 4087360000 0 43 0 0
2.9909737 -0.35028389 -0.43471819 1 4087360000 0 43 0 0
2.9910595 -0.36891213 -0.43505126 1 4087360000 0 43 0 0
2.9911494 -0.38757029 -0.43540221 1 4087360000 0 43 0 0
2.9912441 -0.40626001 -0.43577069 1 4087360000 0 43 0 0
2.9913433 -0.42498255 -0.43615681 1 4087360000 0 43 0 0
2.9914467 -0.44373953 -0.43656057 1 4087360000 0 43 0 0
2.9915552 -0.46253291 -0.43698245 1 4087360000 0 43 0 0
2.991668 -0.48136389 -0.43742198 1 4087360000 0 43 0 0
2.9917855 -0.50023448 -0.43787974 1 4087360000 0 43 0 0
2.9919078 -0.51914591 -0.43835586 1 4099360256 0 43 0 0
2.9920349 -0.53809988 -0.4388501 1 4099360256 0 43 0 0
2.9921663 -0.55709851 -0.43936247 1 4099360256 0 43 0 0
3.0025561 0.55903161 -0.4798283 1 4087360000 0 44 0 0
3.0024118 0.53996491 -0.4792667 1 4087360000 0 44 0 0
3.0022728 0.52094334 -0.47872549 1 4087360000 0 44 0 0
3.0021389 0.50196445 -0.47820407 1 4087360000 0 44 0 0
3.0020101 0.48302695 -0.47770232 1 4087360000 0 44 0 0
3.0018866 0.46412909 -0.47722036 1 4087360000 0 44 0 0
3.0017679 0.44526947 -0.47675818 1 4087360000 0 44 0 0
3.0016544 0.42644775 -0.4763158 1 4087360000 0 44 0 0
3.0015454 0.40765929 -0.47589236 1 4087360000 0 44 0 0
3.001442 0.3889043 -0.4754886 1 4087360000 0 44 0 0
3.0013433 0.37018085 -0.47510439 1 4087360000 0 44 0 0
3.0012493 0.35148758 -0.47473913 1 4087360000 0 44 0 0
3.0011606 0.33282286 -0.47439319 1 4087360000 0 44 0 0
3.0010767 0.31418514 -0.47406632 1 4087360000 0 44 0 0
3.0009975 0.29557279 -0.4737584 1 4087360000 0 44 0 0
3.0009234 0.27698436 -0.47346944 1 4087360000 0 44 0 0
3.000854 0.25841826 -0.47319931 1 4087360000 0 44 0 0
3.0007896 0.2398732 -0.47294825 1 4087360000 0 44 0 0
3.0007298 0.22134729 -0.47271603 1 4087360000 0 44 0 0
3.000675 0.20283918 -0.47250229 1 4087360000 0 44 0 0
3.0006249 0.18434753 -0.47230738 1 4087360000 0 44 0 0
3.0005798 0.16587056 -0.47213119 1 4087360000 0 44 0 0
3.0005395 0.14740688 -0.4719736 1 4087360000 0 44 0 0
3.0005038 0.12895517 -0.47183472 1 4087360000 0 44 0 0
3.0004725 0.1105137 -0.4717142 1 4087360000 0 44 0 0
3.0004468 0.092081144 -0.47161251 1 4087360000 0 44 0 0
3.0004253 0.073655926 -0.47152954 1 4087360000 0 44 0 0
3.0004086 0.055236634 -0.47146434 1 4087360000 0 44 0 0
3.0003967 0.036821831 -0.4714182 1 4087360000 0 44 0 0
3.0003896 0.018409919 -0.47139043 1 4087360000 0 44 0 0
3.0003872 -5.2846968e-07 -0.47138125 1 4087360000 0 44 0 0
3.0003896 -0.018410917 -0.47139066 1 4087360000 0 44 0 0
3.0003967 -0.036822859 -0.47141832 1 4087360000 0 44 0 0
3.0004086 -0.055237837 -0.47146434 1 4087360000 0 44 0 0
3.0004253 -0.07365562 -0.47152919 1 4087360000 0 44 0 0
3.0004468 -0.092080817 -0.47161275 1 4087360000 0 44 0 0
3.000473 -0.11051328 -0.47171432 1 4087360000 0 44 0 0
3.0005038 -0.12895471 -0.47183472 1 4087360000 0 44 0 0
3.0005395 -0.14740653 -0.47197372 1 4087360000 0 44 0 0
3.0005798 -0.16587016 -0.47213119 1 4087360000 0 44 0 0
3.0006251 -0.18434699 -0.47230738 1 4087360000 0 44 0 0
3.0006752 -0.20283872 -0.47250229 1 4087360000 0 44 0 0
3.0007298 -0.22134678 -0.4727158 1 4087360000 0 44 0 0
3.0007896 -0.23987272 -0.47294825 1 4087360000 0 44 0 0
3.000854 -0.25841805 -0.47319931 1 4087360000 0 44 0 0
3.0009234 -0.27698392 -0.47346956 1 4087360000 0 44 0 0
3.0009975 -0.29557252 -0.47375852 1 4087360000 0 44 0 0
3.0010769 -0.31418473 -0.47406632 1 4087360000 0 44 0 0
3.0011609 -0.33282241 -0.47439331 1 4087360000 0 44 0 0
3.0012496 -0.35148719 -0.47473925 1 4087360000 0 44 0 0
3.0013433 -0.37018058 -0.47510439 1 4087360000 0 44 0 0
3.001442 -0.38890404 -0.47548872 1 4087360000 0 44 0 0
3.0015457 -0.40765902 -0.47589248 1 4087360000 0 44 0 0
3.0016544 -0.42644751 -0.4763158 1 4087360000 0 44 0 0
3.0017679 -0.44527054 -0.4767583 1 4087360000 0 44 0 0
3.0018866 -0.46413031 -0.47722059 1 4087360000 0 44 0 0
3.0020103 -0.48302814 -0.47770232 1 4087360000 0 44 0 0
3.0021389 -0.50196552 -0.47820395 1 4087360000 0 44 0 0
3.0022728 -0.52094454 -0.47872549 1 4099360256 0 44 0 0
3.0126054 0.50371426 -0.51896793 1 4087360000 0 45 0 0
3.0124652 0.48470914 -0.51842159 1 4087360000 0 45 0 0
3.0123305 0.46574393 -0.51789707 1 4087360000 0 45 0 0
3.0122011 0.44681725 -0.51739377 1 4087360000 0 45 0 0
3.0120776 0.42792851 -0.51691169 1 4087360000 0 45 0 0
3.0119591 0.40907386 -0.51645082 1 4087360000 0 45 0 0
3.0118463 0.39025244 -0.51601118 1 4087360000 0 45 0 0
3.0117388 0.37146303 -0.51559252 1 4087360000 0 45 0 0
3.0116365 0.35270408 -0.51519471 1 4087360000 0 45 0 0
3.0115399 0.33397388 -0.51481801 1 4087360000 0 45 0 0
3.0114486 0.31527099 -0.51446193 1 4087360000 0 45 0 0
3.0113626 0.29659358 -0.5141266 1 4087360000 0 45 0 0
3.0112817 0.27794045 -0.51381212 1 4087360000 0 45 0 0
3.0112064 0.2593098 -0.51351804 1 4087360000 0 45 0 0
3.0111358 0.24070005 -0.51324445 1 4087360000 0 45 0 0
3.0110712 0.22210994 -0.51299149 1 4087360000 0 45 0 0
3.0110114 0.20353778 -0.51275915 1 4087360000 0 45 0 0
3.0109568 0.18498214 -0.51254672 1 4087360000 0 45 0 0
3.0109074 0.16644147 -0.51235503 1 4087360000 0 45 0 0
3.0108633 0.14791404 -0.51218325 1 4087360000 0 45 0 0
3.0108244 0.12939864 -0.51203173 1 4087360000 0 45 0 0
3.0107908 0.1108937 -0.51190084 1 4087360000 0 45 0 0
3.0107625 0.092397735 -0.51178998 1 4087360000 0 45 0 0
3.0107393 0.073909134 -0.51169938 1 4087360000 0 45 0 0
3.010721 0.055426549 -0.51162893 1 4087360000 0 45 0 0
3.0107083 0.036948338 -0.5115785 1 4087360000 0 45 0 0
3.0107002 0.018473119 -0.51154834 1 4087360000 0 45 0 0
3.0106978 -5.9932466e-07 -0.51153809 1 4087360000 0 45 0 0
3.0107002 -0.018474365 -0.51154834 1 4087360000 0 45 0 0
3.0107083 -0.03694953 -0.51157838 1 4087360000 0 45 0 0
3.010721 -0.055427674 -0.51162869 1 4087360000 0 45 0 0
3.0107393 -0.073908746 -0.51169938 1 4087360000 0 45 0 0
3.0107625 -0.092397459 -0.51178986 1 4087360000 0 45 0 0
3.0107908 -0.11089353 -0.51190084 1 4087360000 0 45 0 0
3.0108244 -0.12939844 -0.51203185 1 4087360000 0 45 0 0
3.0108635 -0.14791375 -0.51218337 1 4087360000 0 45 0 0
3.0109074 -0.16644096 -0.51235491 1 4087360000 0 45 0 0
3.0109568 -0.18498172 -0.51254672 1 4087360000 0 45 0 0
3.0110114 -0.20353752 -0.51275891 1 4087360000 0 45 0 0
3.0110712 -0.22210959 -0.51299149 1 4087360000 0 45 0 0
3.0111361 -0.2406998 -0.51324445 1 4087360000 0 45 0 0
3.0112064 -0.25930938 -0.51351827 1 4087360000 0 45 0 0
3.0112817 -0.27794012 -0.51381212 1 4087360000 0 45 0 0
3.0113626 -0.2965931 -0.51412672 1 4087360000 0 45 0 0
3.0114486 -0.31527054 -0.51446217 1 4087360000 0 45 0 0
3.0115402 -0.33397353 -0.51481825 1 4087360000 0 45 0 0
3.0116365 -0.35270378 -0.51519483 1 4087360000 0 45 0 0
3.0117388 -0.3714627 -0.51559252 1 4087360000 0 45 0 0
3.0118463 -0.39025202 -0.51601106 1 4087360000 0 45 0 0
3.0119591 -0.40907356 -0.5164507 1 4087360000 0 45 0 0
3.0120776 -0.42792815 -0.51691169 1 4087360000 0 45 0 0
3.0122015 -0.44681826 -0.51739365 1 4087360000 0 45 0 0
3.0123305 -0.46574512 -0.51789683 1 4087360000 0 45 0 0
3.0124652 -0.48471034 -0.51842159 1 4087360000 0 45 0 0
3.022752 0.44838217 -0.55848688 1 4087360000 0 46 0 0
3.0226181 0.42942613 -0.55796486 1 4087360000 0 46 0 0
3.0224898 0.41050413 -0.55746585 1 4087360000 0 46 0 0
3.0223677 0.3916156 -0.55698937 1 4087360000 0 46 0 0
3.0222511 0.37275967 -0.55653614 1 4087360000 0 46 0 0
3.0221407 0.35393423 -0.55610508 1 4087360000 0 46 0 0
3.0220358 0.33513784 -0.5556969 1 4087360000 0 46 0 0
3.0219369 0.31636891 -0.5553115 1 4087360000 0 46 0 0
3.0218434 0.29762593 -0.55494839 1 4087360000 0 46 0 0
3.0217562 0.27890715 -0.55460757 1 4087360000 0 46 0 0
3.0216744 0.2602112 -0.55428904 1 4087360000 0 46 0 0
3.0215981 0.24153648 -0.55399281 1 4087360000 0 46 0 0
3.021528 0.22288142 -0.55371863 1 4087360000 0 46 0 0
3.0214632 0.20424442 -0.55346674 1 4087360000 0 46 0 0
3.0214043 0.18562421 -0.55323726 1 4087360000 0 46 0 0
3.0213509 0.16701883 -0.55302912 1 4087360000 0 46 0 0
3.0213029 0.14842701 -0.55284339 1 4087360000 0 46 0 0
3.021261 0.12984708 -0.55267924 1 4087360000 0 46 0 0
3.0212245 0.11127809 -0.5525375 1 4087360000 0 46 0 0
3.0211937 0.092717923 -0.55241734 1 4087360000 0 46 0 0
