# .PCD v0.7 - Point Cloud Data file format
VERSION 0.7
FIELDS x y z intensity t reflectivity ring noise range
SIZE 4 4 4 4 4 2 2 2 4
TYPE F F F F U U U U U
COUNT 1 1 1 1 1 1 1 1 1
WIDTH 872
HEIGHT 1
VIEWPOINT 0 0 0 1 0 0 0
POINTS 872
DATA ascii
-0.94207364 -0.29844746 -0.21908247 1 4135361024 0 49 0 0
-0.94388723 -0.29266131 -0.21908247 1 4135361024 0 49 0 0
-0.94566506 -0.28686419 -0.21908247 1 4135361024 0 49 0 0
-0.9474076 -0.28105628 -0.21908247 1 4135361024 0 49 0 0
-0.9491142 -0.27523783 -0.21908247 1 4135361024 0 49 0 0
-0.95078498 -0.26940894 -0.21908247 1 4135361024 0 49 0 0
-0.95242023 -0.26356998 -0.21908247 1 4135361024 0 49 0 0
-0.95401955 -0.25772104 -0.21908247 1 4135361024 0 49 0 0
-0.95558304 -0.25186244 -0.21908247 1 4135361024 0 49 0 0
-0.95711052 -0.24599431 -0.21908247 1 4135361024 0 49 0 0
-0.95860189 -0.24011694 -0.21908247 1 4135361024 0 49 0 0
-0.96005714 -0.23423053 -0.21908247 1 4135361024 0 49 0 0
-0.96147621 -0.22833532 -0.21908247 1 4135361024 0 49 0 0
-0.96285909 -0.2224315 -0.21908247 1 4135361024 0 49 0 0
-0.96420586 -0.2165193 -0.21908247 1 4135361024 0 49 0 0
-0.96551627 -0.21059896 -0.21908247 1 4135361024 0 49 0 0
-0.96679014 -0.20467065 -0.21908247 1 4135361024 0 49 0 0
-0.96802801 -0.19873469 -0.21908247 1 4135361024 0 49 0 0
-0.9692291 -0.19279122 -0.21908247 1 4135361024 0 49 0 0
-0.97039384 -0.18684049 -0.21908247 1 4135361024 0 49 0 0
-0.97152197 -0.18088272 -0.21908247 1 4135361024 0 49 0 0
-0.97261351 -0.17491817 -0.21908247 1 4135361024 0 49 0 0
-0.97366852 -0.16894794 -0.21908247 1 4135361024 0 49 0 0
-0.97468656 -0.16297042 -0.21908247 1 4135361024 0 49 0 0
-0.97566837 -0.15698679 -0.21908247 1 4135361024 0 49 0 0
-0.97661316 -0.15099724 -0.21908247 1 4135361024 0 49 0 0
-0.9775213 -0.14500195 -0.21908247 1 4135361024 0 49 0 0
-0.97839248 -0.13900125 -0.21908247 1 4135361024 0 49 0 0
-0.97922701 -0.13299535 -0.21908247 1 4135361024 0 49 0 0
-0.9800247 -0.1269844 -0.21908247 1 4135361024 0 49 0 0
-0.98078543 -0.12096865 -0.21908247 1 4135361024 0 49 0 0
-0.98150909 -0.11494835 -0.21908247 1 4135361024 0 49 0 0
-0.98219609 -0.10892378 -0.21908247 1 4135361024 0 49 0 0
-0.98284608 -0.10289506 -0.21908247 1 4135361024 0 49 0 0
-0.98345888 -0.096862487 -0.21908247 1 4135361024 0 49 0 0
-0.98403472 -0.090826251 -0.21908247 1 4135361024 0 49 0 0
-0.98457342 -0.084786594 -0.21908247 1 4135361024 0 49 0 0
-0.98507506 -0.078743763 -0.21908247 1 4135361024 0 49 0 0
-0.98553967 -0.072697952 -0.21908247 1 4135361024 0 49 0 0
-0.98596722 -0.0666494 -0.21908247 1 4135361024 0 49 0 0
-0.98635769 -0.060598362 -0.21908247 1 4135361024 0 49 0 0
-0.98671097 -0.05454503 -0.21908247 1 4135361024 0 49 0 0
-0.98702699 -0.048489641 -0.21908247 1 4135361024 0 49 0 0
-0.98730588 -0.042432427 -0.21908247 1 4135361024 0 49 0 0
-0.9875477 -0.036373612 -0.21908247 1 4135361024 0 49 0 0
-0.98775232 -0.030313432 -0.21908247 1 4135361024 0 49 0 0
-0.98791981 -0.024252107 -0.21908247 1 4135361024 0 49 0 0
-0.98804998 -0.018189877 -0.21908247 1 4135361024 0 49 0 0
-0.98814285 -0.012126956 -0.21908247 1 4135361024 0 49 0 0
-0.9881987 -0.0060635814 -0.21908247 1 4135361024 0 49 0 0
-0.93301642 8.1566874e-08 -0.21908247 1 4039358976 0 50 0 0
-0.93299901 0.0057249791 -0.21908247 1 4039358976 0 50 0 0
-0.93294603 0.011449439 -0.21908247 1 4039358976 0 50 0 0
-0.93285847 0.017173689 -0.21908247 1 4039358976 0 50 0 0
-0.93273556 0.022897296 -0.21908247 1 4039358976 0 50 0 0
-0.93257719 0.028620033 -0.21908247 1 4039358976 0 50 0 0
-0.93238419 0.034341697 -0.21908247 1 4039358976 0 50 0 0
-0.93215591 0.04006207 -0.21908247 1 4039358976 0 50 0 0
-0.93189275 0.045780938 -0.21908247 1 4039358976 0 50 0 0
-0.93159413 0.051498089 -0.21908247 1 4039358976 0 50 0 0
-0.93126065 0.057213273 -0.21908247 1 4039358976 0 50 0 0
-0.93089187 0.062926315 -0.21908247 1 4039358976 0 50 0 0
-0.93048841 0.068636999 -0.21908247 1 4039358976 0 50 0 0
-0.93004984 0.074345089 -0.21908247 1 4039358976 0 50 0 0
-0.92957604 0.080050372 -0.21908247 1 4039358976 0 50 0 0
-0.92906743 0.085752666 -0.21908247 1 4039358976 0 50 0 0
-0.92852378 0.091451488 -0.21908247 1 4039358976 0 50 0 0
-0.92794526 0.0971471 -0.21908247 1 4039358976 0 50 0 0
-0.92733163 0.10283905 -0.21908247 1 4039358976 0 50 0 0
-0.92668301 0.10852712 -0.21908247 1 4039358976 0 50 0 0
-0.92599982 0.11421115 -0.21908247 1 4039358976 0 50 0 0
-0.92528152 0.11989081 -0.21908247 1 4039358976 0 50 0 0
-0.92452848 0.12556601 -0.21908247 1 4039358976 0 50 0 0
-0.92374051 0.13123645 -0.21908247 1 4039358976 0 50 0 0
-0.9229179 0.13690194 -0.21908247 1 4039358976 0 50 0 0
-0.92206061 0.14256231 -0.21908247 1 4039358976 0 50 0 0
-0.92116833 0.14821732 -0.21908247 1 4039358976 0 50 0 0
-0.92024159 0.15386672 -0.21908247 1 4039358976 0 50 0 0
-0.91928029 0.15951036 -0.21908247 1 4039358976 0 50 0 0
-0.91828436 0.16514795 -0.21908247 1 4039358976 0 50 0 0
-0.91725373 0.17077912 -0.21908247 1 4039358976 0 50 0 0
-0.9161886 0.17640407 -0.21908247 1 4039358976 0 50 0 0
-0.91508895 0.18202241 -0.21908247 1 4039358976 0 50 0 0
-0.91395473 0.18763389 -0.21908247 1 4039358976 0 50 0 0
-0.91278625 0.19323826 -0.21908247 1 4039358976 0 50 0 0
-0.9115833 0.1988354 -0.21908247 1 4039358976 0 50 0 0
-0.91034603 0.20442504 -0.21908247 1 4039358976 0 50 0 0
-0.90907478 0.21000701 -0.21908247 1 4039358976 0 50 0 0
-0.90776891 0.21558103 -0.21908247 1 4039358976 0 50 0 0
-0.90642923 0.22114694 -0.21908247 1 4039358976 0 50 0 0
-0.90505522 0.2267046 -0.21908247 1 4039358976 0 50 0 0
-0.90364701 0.23225363 -0.21908247 1 4039358976 0 50 0 0
-0.90220487 0.23779392 -0.21908247 1 4039358976 0 50 0 0
-0.90072906 0.24332513 -0.21908247 1 4039358976 0 50 0 0
-0.89921898 0.24884725 -0.21908247 1 4039358976 0 50 0 0
-0.8976751 0.25436014 -0.21908247 1 4039358976 0 50 0 0
-0.89609748 0.25986338 -0.21908247 1 4039358976 0 50 0 0
-0.89448601 0.26535687 -0.21908247 1 4039358976 0 50 0 0
-0.89284092 0.27084029 -0.21908247 1 4051359232 0 50 0 0
-0.89116246 0.2763136 -0.21908247 1 4051359232 0 50 0 0
-0.88945031 0.28177649 -0.21908247 1 4051359232 0 50 0 0
-0.88770443 0.28722876 -0.21908247 1 4051359232 0 50 0 0
-0.88592535 0.29267025 -0.21908247 1 4051359232 0 50 0 0
-0.88411307 0.29810068 -0.21908247 1 4051359232 0 50 0 0
-0.88226724 0.30351987 -0.21908247 1 4051359232 0 50 0 0
-0.8803882 0.30892766 -0.21908247 1 4051359232 0 50 0 0
-0.87847614 0.31432387 -0.21908247 1 4051359232 0 50 0 0
-0.87653083 0.31970793 -0.21908247 1 4051359232 0 50 0 0
-0.87455267 0.32508025 -0.21908247 1 4051359232 0 50 0 0
-0.87254155 0.33044037 -0.21908247 1 4051359232 0 50 0 0
-0.8704977 0.33578795 -0.21908247 1 4051359232 0 50 0 0
-0.86842108 0.34112293 -0.21908247 1 4051359232 0 50 0 0
-0.86631155 0.34644502 -0.21908247 1 4051359232 0 50 0 0
-0.86416936 0.35175407 -0.21908247 1 4051359232 0 50 0 0
-0.86199486 0.35704994 -0.21908247 1 4051359232 0 50 0 0
-0.85978764 0.36233234 -0.21908247 1 4051359232 0 50 0 0
-0.8575483 0.36760107 -0.21908247 1 4051359232 0 50 0 0
-0.85527658 0.37285602 -0.21908247 1 4051359232 0 50 0 0
-0.85297287 0.37809688 -0.21908247 1 4051359232 0 50 0 0
-0.85063672 0.38332352 -0.21908247 1 4051359232 0 50 0 0
-0.84826875 0.38853568 -0.21908247 1 4051359232 0 50 0 0
-0.84586859 0.39373305 -0.21908247 1 4051359232 0 50 0 0
-0.84343702 0.39891589 -0.21908247 1 4051359232 0 50 0 0
-0.84097344 0.40408361 -0.21908247 1 4051359232 0 50 0 0
-0.83847815 0.4092361 -0.21908247 1 4051359232 0 50 0 0
-0.83595139 0.41437319 -0.21908247 1 4051359232 0 50 0 0
-0.83339292 0.41949475 -0.21908247 1 4051359232 0 50 0 0
-0.83080339 0.42460051 -0.21908247 1 4051359232 0 50 0 0
-0.82818246 0.42969024 -0.21908247 1 4051359232 0 50 0 0
-0.82553047 0.43476376 -0.21908247 1 4051359232 0 50 0 0
-0.82284689 0.43982089 -0.21908247 1 4051359232 0 50 0 0
-0.82013297 0.44486156 -0.21908247 1 4051359232 0 50 0 0
-0.8173877 0.44988543 -0.21908247 1 4051359232 0 50 0 0
-0.81461203 0.45489243 -0.21908247 1 4051359232 0 50 0 0
-0.81180567 0.4598822 -0.21908247 1 4051359232 0 50 0 0
-0.80896837 0.46485451 -0.21908247 1 4051359232 0 50 0 0
-0.80610096 0.46980953 -0.21908247 1 4051359232 0 50 0 0
-0.80320317 0.47474679 -0.21908247 1 4051359232 0 50 0 0
-0.80027497 0.47966644 -0.21908247 1 4051359232 0 50 0 0
-0.79731655 0.48456767 -0.21908247 1 4051359232 0 50 0 0
-0.79432839 0.48945072 -0.21908247 1 4051359232 0 50 0 0
-0.79131025 0.49431559 -0.21908247 1 4051359232 0 50 0 0
-0.78826231 0.49916157 -0.21908247 1 4051359232 0 50 0 0
-0.78518468 0.50398892 -0.21908247 1 4051359232 0 50 0 0
-0.78207737 0.50879723 -0.21908247 1 4051359232 0 50 0 0
-0.77894074 0.51358634 -0.21908247 1 4051359232 0 50 0 0
-0.77577466 0.5183562 -0.21908247 1 4051359232 0 50 0 0
-0.77257973 0.52310652 -0.21908247 1 4051359232 0 50 0 0
-0.76935554 0.52783698 -0.21908247 1 4051359232 0 50 0 0
-0.76610237 0.53254777 -0.21908247 1 4051359232 0 50 0 0
-0.76282018 0.53723848 -0.21908247 1 4051359232 0 50 0 0
-0.75950944 0.54190892 -0.21908247 1 4051359232 0 50 0 0
-0.75616997 0.54655892 -0.21908247 1 4051359232 0 50 0 0
-0.75280213 0.55118847 -0.21908247 1 4051359232 0 50 0 0
-0.74940592 0.55579728 -0.21908247 1 4051359232 0 50 0 0
-0.74598151 0.56038505 -0.21908247 1 4051359232 0 50 0 0
-0.74252898 0.56495184 -0.21908247 1 4051359232 0 50 0 0
-0.73904836 0.56949717 -0.21908247 1 4051359232 0 50 0 0
-0.73554033 0.57402116 -0.21908247 1 4051359232 0 50 0 0
-0.73200423 0.57852364 -0.21908247 1 4051359232 0 50 0 0
-0.72844064 0.58300436 -0.21908247 1 4051359232 0 50 0 0
-0.7248497 0.58746284 -0.21908247 1 4051359232 0 50 0 0
-0.72123158 0.59189928 -0.21908247 1 4051359232 0 50 0 0
-0.7175861 0.59631342 -0.21908247 1 4051359232 0 50 0 0
-0.7139138 0.60070533 -0.21908247 1 4051359232 0 50 0 0
-0.71021456 0.60507458 -0.21908247 1 4051359232 0 50 0 0
-0.70648843 0.60942107 -0.21908247 1 4051359232 0 50 0 0
-0.7027356 0.61374438 -0.21908247 1 4051359232 0 50 0 0
-0.69895661 0.61804473 -0.21908247 1 4051359232 0 50 0 0
-0.69515121 0.6223219 -0.21908247 1 4051359232 0 50 0 0
-0.69131958 0.62657547 -0.21908247 1 4051359232 0 50 0 0
-0.68746191 0.63080567 -0.21908247 1 4051359232 0 50 0 0
-0.68357855 0.63501191 -0.21908247 1 4051359232 0 50 0 0
-0.67966932 0.63919437 -0.21908247 1 4051359232 0 50 0 0
-0.67573434 0.64335281 -0.21908247 1 4051359232 0 50 0 0
-0.67177403 0.64748669 -0.21908247 1 4051359232 0 50 0 0
-0.66778868 0.65159637 -0.21908247 1 4051359232 0 50 0 0
-0.66377795 0.65568161 -0.21908247 1 4051359232 0 50 0 0
-0.65974247 0.65974224 -0.21908247 1 4051359232 0 50 0 0
-0.65568173 0.66377801 -0.21908247 1 4051359232 0 50 0 0
-0.65159655 0.66778868 -0.21908247 1 4051359232 0 50 0 0
-0.64748704 0.67177403 -0.21908247 1 4051359232 0 50 0 0
-0.64335281 0.6757344 -0.21908247 1 4051359232 0 50 0 0
-0.63919443 0.6796692 -0.21908247 1 4051359232 0 50 0 0
-0.63501191 0.68357849 -0.21908247 1 4051359232 0 50 0 0
-0.63080561 0.68746185 -0.21908247 1 4051359232 0 50 0 0
-0.62657559 0.69131947 -0.21908247 1 4051359232 0 50 0 0
-0.62232172 0.69515115 -0.21908247 1 4051359232 0 50 0 0
-0.61804473 0.69895661 -0.21908247 1 4051359232 0 50 0 0
-0.6137445 0.7027356 -0.21908247 1 4051359232 0 50 0 0
-0.60942107 0.70648819 -0.21908247 1 4051359232 0 50 0 0
-0.60507482 0.71021438 -0.21908247 1 4051359232 0 50 0 0
-0.6007055 0.71391374 -0.21908247 1 4051359232 0 50 0 0
-0.59631371 0.71758604 -0.21908247 1 4051359232 0 50 0 0
-0.59189945 0.72123146 -0.21908247 1 4051359232 0 50 0 0
-0.5874629 0.7248497 -0.21908247 1 4051359232 0 50 0 0
-0.58300418 0.72844058 -0.21908247 1 4051359232 0 50 0 0
-0.57852346 0.73200405 -0.21908247 1 4051359232 0 50 0 0
-0.57402116 0.73554027 -0.21908247 1 4051359232 0 50 0 0
-0.56949735 0.73904842 -0.21908247 1 4051359232 0 50 0 0
-0.56495172 0.74252892 -0.21908247 1 4051359232 0 50 0 0
-0.56038493 0.74598145 -0.21908247 1 4051359232 0 50 0 0
-0.55579722 0.74940574 -0.21908247 1 4051359232 0 50 0 0
-0.55118853 0.75280219 -0.21908247 1 4051359232 0 50 0 0
-0.54655904 0.75617003 -0.21908247 1 4051359232 0 50 0 0
-0.54190904 0.75950938 -0.21908247 1 4051359232 0 50 0 0
-0.53723848 0.76282018 -0.21908247 1 4051359232 0 50 0 0
-0.53254777 0.76610237 -0.21908247 1 4051359232 0 50 0 0
-0.52783698 0.7693553 -0.21908247 1 4051359232 0 50 0 0
-0.52310628 0.77257979 -0.21908247 1 4051359232 0 50 0 0
-0.51835632 0.77577466 -0.21908247 1 4051359232 0 50 0 0
-0.51358664 0.77894062 -0.21908247 1 4051359232 0 50 0 0
-0.50879735 0.78207737 -0.21908247 1 4051359232 0 50 0 0
-0.5039891 0.78518462 -0.21908247 1 4051359232 0 50 0 0
-0.4991619 0.78826207 -0.21908247 1 4051359232 0 50 0 0
-0.49431562 0.79131013 -0.21908247 1 4051359232 0 50 0 0
-0.48945102 0.79432827 -0.21908247 1 4051359232 0 50 0 0
-0.48456776 0.79731673 -0.21908247 1 4051359232 0 50 0 0
-0.47966635 0.80027479 -0.21908247 1 4051359232 0 50 0 0
-0.47474709 0.80320305 -0.21908247 1 4051359232 0 50 0 0
-0.46980968 0.80610085 -0.21908247 1 4051359232 0 50 0 0
-0.46485448 0.80896831 -0.21908247 1 4063359488 0 50 0 0
-0.45988217 0.81180549 -0.21908247 1 4063359488 0 50 0 0
-0.45489234 0.81461197 -0.21908247 1 4063359488 0 50 0 0
-0.44988537 0.81738776 -0.21908247 1 4063359488 0 50 0 0
-0.4448615 0.82013279 -0.21908247 1 4063359488 0 50 0 0
-0.43982095 0.82284713 -0.21908247 1 4063359488 0 50 0 0
-0.43476376 0.82553023 -0.21908247 1 4063359488 0 50 0 0
-0.42969009 0.82818228 -0.21908247 1 4063359488 0 50 0 0
-0.42460042 0.83080328 -0.21908247 1 4063359488 0 50 0 0
-0.41949466 0.8333931 -0.21908247 1 4063359488 0 50 0 0
-0.41437322 0.83595121 -0.21908247 1 4063359488 0 50 0 0
-0.40923598 0.83847797 -0.21908247 1 4063359488 0 50 0 0
-0.40408367 0.84097332 -0.21908247 1 4063359488 0 50 0 0
-0.39891586 0.8434369 -0.21908247 1 4063359488 0 50 0 0
-0.39373305 0.84586865 -0.21908247 1 4063359488 0 50 0 0
-0.38853559 0.84826875 -0.21908247 1 4063359488 0 50 0 0
-0.38332358 0.85063648 -0.21908247 1 4063359488 0 50 0 0
-0.37809694 0.85297257 -0.21908247 1 4063359488 0 50 0 0
-0.37285614 0.85527647 -0.21908247 1 4063359488 0 50 0 0
-0.36760128 0.85754818 -0.21908247 1 4063359488 0 50 0 0
-0.36233246 0.85978782 -0.21908247 1 4063359488 0 50 0 0
-0.35704997 0.86199462 -0.21908247 1 4063359488 0 50 0 0
-0.35175428 0.86416942 -0.21908247 1 4063359488 0 50 0 0
-0.34644526 0.86631149 -0.21908247 1 4063359488 0 50 0 0
-0.34112316 0.86842072 -0.21908247 1 4063359488 0 50 0 0
-0.33578813 0.87049747 -0.21908247 1 4063359488 0 50 0 0
-0.3304404 0.87254149 -0.21908247 1 4063359488 0 50 0 0
-0.32508034 0.87455285 -0.21908247 1 4063359488 0 50 0 0
-3.1237774 8.5643339 -2.1405923 1 4063359488 0 50 0 0
-3.0711696 8.5833397 -2.1405923 1 4063359488 0 50 0 0
-3.0184438 8.6020222 -2.1405923 1 4063359488 0 50 0 0
-2.965606 8.6203804 -2.1405923 1 4063359488 0 50 0 0
-2.9126554 8.6384163 -2.1405923 1 4063359488 0 50 0 0
-2.8595965 8.656126 -2.1405923 1 4063359488 0 50 0 0
-2.8064303 8.6735077 -2.1405923 1 4063359488 0 50 0 0
-2.7531579 8.6905642 -2.1405923 1 4063359488 0 50 0 0
-2.6997817 8.7072954 -2.1405923 1 4063359488 0 50 0 0
-2.6463037 8.7236948 -2.1405923 1 4063359488 0 50 0 0
-2.5927253 8.7397699 -2.1405923 1 4063359488 0 50 0 0
-2.5390503 8.7555141 -2.1405923 1 4063359488 0 50 0 0
-2.4852812 8.7709274 -2.1405923 1 4063359488 0 50 0 0
-2.4314153 8.7860117 -2.1405923 1 4063359488 0 50 0 0
-2.3774595 8.800765 -2.1405923 1 4063359488 0 50 0 0
-2.3234141 8.8151894 -2.1405923 1 4063359488 0 50 0 0
-2.2692866 8.829277 -2.1405923 1 4063359488 0 50 0 0
-2.2150662 8.8430347 -2.1405923 1 4063359488 0 50 0 0
-2.1607659 8.8564596 -2.1405923 1 4063359488 0 50 0 0
-2.1063809 8.8695517 -2.1405923 1 4063359488 0 50 0 0
-2.0519216 8.882309 -2.1405923 1 4063359488 0 50 0 0
-1.9973798 8.8947325 -2.1405923 1 4063359488 0 50 0 0
-1.9427675 8.9068203 -2.1405923 1 4063359488 0 50 0 0
-1.888078 8.9185724 -2.1405923 1 4063359488 0 50 0 0
-1.8333201 8.9299917 -2.1405923 1 4063359488 0 50 0 0
-1.7784909 8.9410715 -2.1405923 1 4063359488 0 50 0 0
-1.7235962 8.9518175 -2.1405923 1 4063359488 0 50 0 0
-1.6686351 8.9622231 -2.1405923 1 4063359488 0 50 0 0
-1.6136119 8.9722939 -2.1405923 1 4063359488 0 50 0 0
-1.5585291 8.9820271 -2.1405923 1 4063359488 0 50 0 0
-1.5033871 8.9914188 -2.1405923 1 4063359488 0 50 0 0
-1.4481895 9.000474 -2.1405923 1 4063359488 0 50 0 0
-1.392935 9.0091906 -2.1405923 1 4063359488 0 50 0 0
-1.3376297 9.0175686 -2.1405923 1 4063359488 0 50 0 0
-1.2822734 9.0256062 -2.1405923 1 4063359488 0 50 0 0
-1.226869 9.0333052 -2.1405923 1 4063359488 0 50 0 0
-1.1714183 9.0406628 -2.1405923 1 4063359488 0 50 0 0
-1.1159228 9.0476799 -2.1405923 1 4063359488 0 50 0 0
-1.0603869 9.0543575 -2.1405923 1 4063359488 0 50 0 0
-1.0048107 9.0606918 -2.1405923 1 4063359488 0 50 0 0
-0.94919676 9.0666866 -2.1405923 1 4063359488 0 50 0 0
-0.89354604 9.072341 -2.1405923 1 4063359488 0 50 0 0
-0.83786178 9.077652 -2.1405923 1 4063359488 0 50 0 0
-0.78215176 9.0826225 -2.1405923 1 4063359488 0 50 0 0
-0.72640711 9.0872498 -2.1405923 1 4063359488 0 50 0 0
-0.67063487 9.0915375 -2.1405923 1 4063359488 0 50 0 0
-0.61483675 9.0954809 -2.1405923 1 4063359488 0 50 0 0
-0.55901515 9.099082 -2.1405923 1 4063359488 0 50 0 0
-0.50317347 9.1023417 -2.1405923 1 4063359488 0 50 0 0
-0.4473128 9.105257 -2.1405923 1 4063359488 0 50 0 0
-0.39143646 9.10783 -2.1405923 1 4063359488 0 50 0 0
-0.33554345 9.1100588 -2.1405923 1 4063359488 0 50 0 0
-0.27963924 9.1119471 -2.1405923 1 4063359488 0 50 0 0
-0.2237239 9.113492 -2.1405923 1 4063359488 0 50 0 0
-0.16780072 9.1146936 -2.1405923 1 4063359488 0 50 0 0
-0.11187088 9.1155519 -2.1405923 1 4063359488 0 50 0 0
-0.05593767 9.116066 -2.1405923 1 4063359488 0 50 0 0
-1.1250377e-06 9.1162367 -2.1405923 1 4063359488 0 50 0 0
0.055937119 9.116066 -2.1405923 1 4063359488 0 50 0 0
0.11187034 9.1155519 -2.1405923 1 4063359488 0 50 0 0
0.16779907 9.1146936 -2.1405923 1 4063359488 0 50 0 0
0.15339948 6.248795 -1.4677281 1 4063359488 0 50 0 0
0.191761 6.2484655 -1.4678991 1 4063359488 0 50 0 0
0.23013054 6.2480612 -1.4681084 1 4063359488 0 50 0 0
0.26850793 6.2475839 -1.4683557 1 4063359488 0 50 0 0
0.30689713 6.2470336 -1.4686413 1 4063359488 0 50 0 0
0.3452988 6.2464089 -1.4689648 1 4063359488 0 50 0 0
0.38371462 6.2457113 -1.4693265 1 4063359488 0 50 0 0
0.42214522 6.2449389 -1.4697268 1 4063359488 0 50 0 0
0.46059239 6.2440934 -1.470165 1 4063359488 0 50 0 0
0.49905878 6.2431731 -1.4706421 1 4063359488 0 50 0 0
0.53754264 6.2421794 -1.4711571 1 4063359488 0 50 0 0
0.57605124 6.2411113 -1.4717107 1 4063359488 0 50 0 0
0.6145823 6.2399693 -1.4723029 1 4063359488 0 50 0 0
0.94919515 9.0666866 -2.1405923 1 4063359488 0 50 0 0
1.0048101 9.0606909 -2.1405923 1 4063359488 0 50 0 0
1.0603868 9.0543575 -2.1405923 1 4063359488 0 50 0 0
1.1159244 9.0476799 -2.1405923 1 4063359488 0 50 0 0
1.1714188 9.0406628 -2.1405923 1 4063359488 0 50 0 0
1.2268691 9.0333052 -2.1405923 1 4063359488 0 50 0 0
1.2822732 9.0256062 -2.1405923 1 4063359488 0 50 0 0
1.3376296 9.0175686 -2.1405923 1 4063359488 0 50 0 0
1.3929346 9.0091906 -2.1405923 1 4063359488 0 50 0 0
1.4481884 9.000474 -2.1405923 1 4063359488 0 50 0 0
1.5033854 8.9914188 -2.1405923 1 4063359488 0 50 0 0
1.5585287 8.9820251 -2.1405923 1 4063359488 0 50 0 0
1.6136129 8.9722939 -2.1405923 1 4063359488 0 50 0 0
1.6686348 8.9622231 -2.1405923 1 4063359488 0 50 0 0
1.7235949 8.9518175 -2.1405923 1 4063359488 0 50 0 0
1.7784909 8.9410715 -2.1405923 1 4063359488 0 50 0 0
1.8333172 8.9299917 -2.1405923 1 4063359488 0 50 0 0
1.888078 8.9185724 -2.1405923 1 4063359488 0 50 0 0
1.9427667 8.9068213 -2.1405923 1 4063359488 0 50 0 0
1.9973791 8.8947325 -2.1405923 1 4063359488 0 50 0 0
2.0519202 8.882309 -2.1405923 1 4063359488 0 50 0 0
2.1063838 8.8695526 -2.1405923 1 4075359744 0 50 0 0
2.1607659 8.8564596 -2.1405923 1 4075359744 0 50 0 0
2.2150662 8.8430347 -2.1405923 1 4075359744 0 50 0 0
2.2692809 8.829278 -2.1405923 1 4075359744 0 50 0 0
2.3234134 8.8151894 -2.1405923 1 4075359744 0 50 0 0
2.3774598 8.800765 -2.1405923 1 4075359744 0 50 0 0
2.4314144 8.7860117 -2.1405923 1 4075359744 0 50 0 0
2.4852788 8.7709274 -2.1405923 1 4075359744 0 50 0 0
2.5390518 8.7555151 -2.1405923 1 4075359744 0 50 0 0
2.5927258 8.739769 -2.1405923 1 4075359744 0 50 0 0
2.6463027 8.7236948 -2.1405923 1 4075359744 0 50 0 0
2.6997814 8.7072954 -2.1405923 1 4075359744 0 50 0 0
2.7531557 8.6905651 -2.1405923 1 4075359744 0 50 0 0
2.8064291 8.6735077 -2.1405923 1 4075359744 0 50 0 0
2.8595986 8.6561251 -2.1405923 1 4075359744 0 50 0 0
2.9126549 8.6384153 -2.1405923 1 4075359744 0 50 0 0
2.9656038 8.6203804 -2.1405923 1 4075359744 0 50 0 0
3.018445 8.6020231 -2.1405923 1 4075359744 0 50 0 0
3.071167 8.5833387 -2.1405923 1 4075359744 0 50 0 0
3.1237767 8.564333 -2.1405923 1 4075359744 0 50 0 0
0.32508039 0.87455285 -0.21908247 1 4075359744 0 50 0 0
0.33044034 0.87254155 -0.21908247 1 4075359744 0 50 0 0
0.33578795 0.87049747 -0.21908247 1 4075359744 0 50 0 0
0.3411231 0.86842072 -0.21908247 1 4075359744 0 50 0 0
0.34644505 0.86631131 -0.21908247 1 4075359744 0 50 0 0
0.35175428 0.86416942 -0.21908247 1 4075359744 0 50 0 0
0.35705 0.86199462 -0.21908247 1 4075359744 0 50 0 0
0.36233258 0.85978764 -0.21908247 1 4075359744 0 50 0 0
0.36760122 0.85754818 -0.21908247 1 4075359744 0 50 0 0
0.37285611 0.85527641 -0.21908247 1 4075359744 0 50 0 0
0.37809652 0.85297287 -0.21908247 1 4075359744 0 50 0 0
0.38332319 0.85063672 -0.21908247 1 4075359744 0 50 0 0
3.7962694 8.2881918 -2.1405923 1 4075359744 0 50 0 0
3.8470535 8.2647419 -2.1405923 1 4075359744 0 50 0 0
3.897692 8.2409821 -2.1405923 1 4075359744 0 50 0 0
3.9481859 8.2169104 -2.1405923 1 4075359744 0 50 0 0
3.9985275 8.1925297 -2.1405923 1 4075359744 0 50 0 0
4.0487208 8.1678419 -2.1405923 1 4075359744 0 50 0 0
4.098762 8.1428452 -2.1405923 1 4075359744 0 50 0 0
4.1486487 8.1175423 -2.1405923 1 4075359744 0 50 0 0
4.1983795 8.0919342 -2.1405923 1 4075359744 0 50 0 0
4.247952 8.0660219 -2.1405923 1 4075359744 0 50 0 0
4.2973647 8.0398045 -2.1405923 1 4075359744 0 50 0 0
4.3466153 8.0132837 -2.1405923 1 4075359744 0 50 0 0
4.3957019 7.9864635 -2.1405923 1 4075359744 0 50 0 0
4.4446249 7.959341 -2.1405923 1 4075359744 0 50 0 0
4.4933767 7.9319201 -2.1405923 1 4075359744 0 50 0 0
4.5419626 7.9042001 -2.1405923 1 4075359744 0 50 0 0
4.5903769 7.8761821 -2.1405923 1 4075359744 0 50 0 0
4.6386175 7.8478675 -2.1405923 1 4075359744 0 50 0 0
4.6866846 7.8192577 -2.1405923 1 4075359744 0 50 0 0
4.7345738 7.7903528 -2.1405923 1 4075359744 0 50 0 0
4.7822847 7.7611556 -2.1405923 1 4075359744 0 50 0 0
4.8298173 7.7316661 -2.1405923 1 4075359744 0 50 0 0
4.8771663 7.7018847 -2.1405923 1 4075359744 0 50 0 0
4.9243326 7.6718149 -2.1405923 1 4075359744 0 50 0 0
4.9713149 7.6414557 -2.1405923 1 4075359744 0 50 0 0
5.0181069 7.6108069 -2.1405923 1 4075359744 0 50 0 0
5.0647092 7.5798759 -2.1405923 1 4075359744 0 50 0 0
5.1111207 7.548656 -2.1405923 1 4075359744 0 50 0 0
5.1573443 7.5171523 -2.1405923 1 4075359744 0 50 0 0
5.2033715 7.4853678 -2.1405923 1 4075359744 0 50 0 0
5.2492032 7.4532981 -2.1405923 1 4075359744 0 50 0 0
5.294838 7.4209499 -2.1405923 1 4075359744 0 50 0 0
5.3402724 7.3883214 -2.1405923 1 4075359744 0 50 0 0
5.3855062 7.3554163 -2.1405923 1 4075359744 0 50 0 0
5.4305353 7.3222308 -2.1405923 1 4075359744 0 50 0 0
5.4720144 7.2843146 -2.1392837 1 4075359744 0 50 0 0
5.4720144 7.1919932 -2.1219912 1 4075359744 0 50 0 0
5.4720144 7.1011472 -2.1050539 1 4075359744 0 50 0 0
5.4720135 7.0117388 -2.0884643 1 4075359744 0 50 0 0
5.4700146 6.921195 -2.071454 1 4075359744 0 50 0 0
5.4700146 6.8345685 -2.0555336 1 4075359744 0 50 0 0
5.4700146 6.7492576 -2.039932 1 4075359744 0 50 0 0
5.4700146 6.6652312 -2.0246418 1 4075359744 0 50 0 0
5.4700146 6.5824518 -2.0096543 1 4075359744 0 50 0 0
5.4700146 6.5008869 -1.9949613 1 4075359744 0 50 0 0
5.4700155 6.4205036 -1.9805565 1 4075359744 0 50 0 0
5.4700155 6.3412652 -1.9664304 1 4075359744 0 50 0 0
5.4700146 6.2631497 -1.9525785 1 4075359744 0 50 0 0
5.4700146 6.1861234 -1.9389927 1 4075359744 0 50 0 0
5.4700146 6.1101599 -1.9256668 1 4075359744 0 50 0 0
5.4700146 6.0352302 -1.9125938 1 4075359744 0 50 0 0
5.4700155 5.961307 -1.8997679 1 4075359744 0 50 0 0
5.4700155 5.8883667 -1.8871839 1 4075359744 0 50 0 0
5.4700146 5.8163891 -1.8748364 1 4075359744 0 50 0 0
5.3007116 5.5675135 -1.8050649 1 4075359744 0 50 0 0
5.3099995 5.5091796 -1.7966831 1 4075359744 0 50 0 0
5.3363862 5.4689965 -1.7942224 1 4075359744 0 50 0 0
5.3851547 5.4516516 -1.7993383 1 4075359744 0 50 0 0
5.4340968 5.4340973 -1.8045163 1 4075359744 0 50 0 0
5.483212 5.4163327 -1.8097558 1 4075359744 0 50 0 0
5.532505 5.3983569 -1.8150578 1 4075359744 0 50 0 0
5.5819764 5.3801651 -1.8204234 1 4075359744 0 50 0 0
6.6024084 6.2860169 -2.1405923 1 4075359744 0 50 0 0
6.6408539 6.2453861 -2.1405923 1 4075359744 0 50 0 0
6.679049 6.2045212 -2.1405923 1 4075359744 0 50 0 0
6.7169943 6.1634216 -2.1405923 1 4075359744 0 50 0 0
6.7546864 6.1220908 -2.1405923 1 4075359744 0 50 0 0
6.7921233 6.0805297 -2.1405923 1 4075359744 0 50 0 0
6.8293056 6.0387387 -2.1405923 1 4075359744 0 50 0 0
6.866231 5.9967227 -2.1405923 1 4075359744 0 50 0 0
6.9028969 5.9544806 -2.1405923 1 4075359744 0 50 0 0
6.9393029 5.9120116 -2.1405923 1 4075359744 0 50 0 0
6.9754467 5.8693199 -2.1405923 1 4075359744 0 50 0 0
7.0113287 5.8264093 -2.1405923 1 4075359744 0 50 0 0
7.0469465 5.7832794 -2.1405923 1 4075359744 0 50 0 0
7.0823007 5.7399302 -2.1405923 1 4075359744 0 50 0 0
7.1173863 5.6963658 -2.1405923 1 4075359744 0 50 0 0
7.1522045 5.6525869 -2.1405923 1 4075359744 0 50 0 0
7.1867547 5.6085958 -2.1405923 1 4075359744 0 50 0 0
7.2210321 5.5643926 -2.1405923 1 4075359744 0 50 0 0
7.2550402 5.5199809 -2.1405923 1 4075359744 0 50 0 0
7.2887702 5.4753642 -2.1405923 1 4075359744 0 50 0 0
7.3222289 5.4305387 -2.1405923 1 4075359744 0 50 0 0
7.3554139 5.3855071 -2.1405923 1 4075359744 0 50 0 0
7.3883185 5.3402743 -2.1405923 1 4075359744 0 50 0 0
7.4209476 5.2948394 -2.1405923 1 4075359744 0 50 0 0
7.4532986 5.2492056 -2.1405923 1 4075359744 0 50 0 0
7.4853659 5.2033744 -2.1405923 1 4075359744 0 50 0 0
7.5171514 5.1573467 -2.1405923 1 4075359744 0 50 0 0
7.5486536 5.111125 -2.1405923 1 4075359744 0 50 0 0
7.5798736 5.0647106 -2.1405923 1 4075359744 0 50 0 0
7.6108074 5.0181055 -2.1405923 1 4087360000 0 50 0 0
7.6414552 4.9713135 -2.1405923 1 4087360000 0 50 0 0
7.6718154 4.9243317 -2.1405923 1 4087360000 0 50 0 0
7.7018871 4.8771653 -2.1405923 1 4087360000 0 50 0 0
7.7316661 4.8298173 -2.1405923 1 4087360000 0 50 0 0
7.7611561 4.7822833 -2.1405923 1 4087360000 0 50 0 0
7.7903547 4.7345724 -2.1405923 1 4087360000 0 50 0 0
7.8192587 4.6866841 -2.1405923 1 4087360000 0 50 0 0
7.847868 4.6386156 -2.1405923 1 4087360000 0 50 0 0
7.8761816 4.5903754 -2.1405923 1 4087360000 0 50 0 0
7.9042006 4.5419602 -2.1405923 1 4087360000 0 50 0 0
7.9319215 4.4933767 -2.1405923 1 4087360000 0 50 0 0
7.9593415 4.444622 -2.1405923 1 4087360000 0 50 0 0
7.9864635 4.3957005 -2.1405923 1 4087360000 0 50 0 0
8.0132866 4.3466144 -2.1405923 1 4087360000 0 50 0 0
8.0398035 4.2973633 -2.1405923 1 4087360000 0 50 0 0
8.0660229 4.2479515 -2.1405923 1 4087360000 0 50 0 0
8.0919323 4.1983824 -2.1405923 1 4087360000 0 50 0 0
8.1175413 4.1486516 -2.1405923 1 4087360000 0 50 0 0
8.1428432 4.0987654 -2.1405923 1 4087360000 0 50 0 0
8.16784 4.0487242 -2.1405923 1 4087360000 0 50 0 0
8.1925297 3.9985309 -2.1405923 1 4087360000 0 50 0 0
8.2169104 3.9481869 -2.1405923 1 4087360000 0 50 0 0
8.2409792 3.8976948 -2.1405923 1 4087360000 0 50 0 0
8.2647409 3.8470557 -2.1405923 1 4087360000 0 50 0 0
8.2881918 3.7962716 -2.1405923 1 4087360000 0 50 0 0
8.3113279 3.7453444 -2.1405923 1 4087360000 0 50 0 0
8.3341532 3.694277 -2.1405923 1 4087360000 0 50 0 0
8.3566647 3.6430697 -2.1405923 1 4087360000 0 50 0 0
8.3788605 3.5917256 -2.1405923 1 4087360000 0 50 0 0
8.4007406 3.540246 -2.1405923 1 4087360000 0 50 0 0
8.4223051 3.4886332 -2.1405923 1 4087360000 0 50 0 0
8.443553 3.4368885 -2.1405923 1 4087360000 0 50 0 0
8.4644823 3.3850157 -2.1405923 1 4087360000 0 50 0 0
8.485095 3.333015 -2.1405923 1 4087360000 0 50 0 0
8.5053835 3.2808881 -2.1405923 1 4087360000 0 50 0 0
8.5253563 3.2286382 -2.1405923 1 4087360000 0 50 0 0
8.5450048 3.1762667 -2.1405923 1 4087360000 0 50 0 0
8.5643339 3.1237752 -2.1405923 1 4087360000 0 50 0 0
8.5833397 3.0711665 -2.1405923 1 4087360000 0 50 0 0
8.6020231 3.0184426 -2.1405923 1 4087360000 0 50 0 0
8.6203823 2.9656041 -2.1405923 1 4087360000 0 50 0 0
8.6384153 2.9126546 -2.1405923 1 4087360000 0 50 0 0
8.656126 2.8595955 -2.1405923 1 4087360000 0 50 0 0
8.6735067 2.806432 -2.1405923 1 4087360000 0 50 0 0
8.6905632 2.7531598 -2.1405923 1 4087360000 0 50 0 0
8.7072954 2.6997838 -2.1405923 1 4087360000 0 50 0 0
8.7236948 2.6463058 -2.1405923 1 4087360000 0 50 0 0
8.739769 2.5927286 -2.1405923 1 4087360000 0 50 0 0
8.7555141 2.5390534 -2.1405923 1 4087360000 0 50 0 0
8.7709246 2.4852822 -2.1405923 1 4087360000 0 50 0 0
8.7860117 2.4314179 -2.1405923 1 4087360000 0 50 0 0
8.800766 2.3774626 -2.1405923 1 4087360000 0 50 0 0
8.8151865 2.3234165 -2.1405923 1 4087360000 0 50 0 0
8.829277 2.269284 -2.1405923 1 4087360000 0 50 0 0
8.8430357 2.2150657 -2.1405923 1 4087360000 0 50 0 0
8.8564596 2.160764 -2.1405923 1 4087360000 0 50 0 0
8.8695517 2.1063807 -2.1405923 1 4087360000 0 50 0 0
8.8823109 2.0519185 -2.1405923 1 4087360000 0 50 0 0
8.8947325 1.9973788 -2.1405923 1 4087360000 0 50 0 0
8.9068203 1.9427639 -2.1405923 1 4087360000 0 50 0 0
8.9185734 1.8880759 -2.1405923 1 4087360000 0 50 0 0
8.9299917 1.833317 -2.1405923 1 4087360000 0 50 0 0
8.9410715 1.7784889 -2.1405923 1 4087360000 0 50 0 0
8.9518156 1.7235937 -2.1405923 1 4087360000 0 50 0 0
8.962224 1.6686342 -2.1405923 1 4087360000 0 50 0 0
8.9722939 1.6136112 -2.1405923 1 4087360000 0 50 0 0
8.9820261 1.5585278 -2.1405923 1 4087360000 0 50 0 0
8.9914207 1.5033858 -2.1405923 1 4087360000 0 50 0 0
9.000474 1.4481868 -2.1405923 1 4087360000 0 50 0 0
9.0091915 1.3929335 -2.1405923 1 4087360000 0 50 0 0
9.0175686 1.3376276 -2.1405923 1 4087360000 0 50 0 0
9.0256042 1.2822762 -2.1405923 1 4087360000 0 50 0 0
9.0333042 1.226872 -2.1405923 1 4087360000 0 50 0 0
9.0406618 1.1714211 -2.1405923 1 4087360000 0 50 0 0
9.0476789 1.1159265 -2.1405923 1 4087360000 0 50 0 0
9.0543556 1.0603896 -2.1405923 1 4087360000 0 50 0 0
9.0606899 1.0048131 -2.1405923 1 4087360000 0 50 0 0
9.0666857 0.9491986 -2.1405923 1 4087360000 0 50 0 0
9.072341 0.89354849 -2.1405923 1 4087360000 0 50 0 0
9.0776529 0.83786488 -2.1405923 1 4087360000 0 50 0 0
9.0826225 0.78214926 -2.1405923 1 4087360000 0 50 0 0
9.0872507 0.72640449 -2.1405923 1 4087360000 0 50 0 0
9.0915375 0.67063236 -2.1405923 1 4087360000 0 50 0 0
3.0645373 0.20715618 -0.72122961 1 4087360000 0 50 0 0
3.0644591 0.18826917 -0.72092539 1 4087360000 0 50 0 0
3.0643888 0.16939773 -0.72065061 1 4087360000 0 50 0 0
3.0643258 0.1505405 -0.72040516 1 4087360000 0 50 0 0
3.06427 0.13169561 -0.72018856 1 4087360000 0 50 0 0
3.0642216 0.1128619 -0.72000104 1 4087360000 0 50 0 0
3.0641809 0.094037227 -0.71984226 1 4087360000 0 50 0 0
3.0641475 0.075220391 -0.7197122 1 4087360000 0 50 0 0
3.0641217 0.056409586 -0.71961159 1 4087360000 0 50 0 0
3.0641031 0.037603643 -0.71953946 1 4087360000 0 50 0 0
3.0640919 0.018800756 -0.71949607 1 4087360000 0 50 0 0
3.0640883 -4.005432e-07 -0.71948177 1 4087360000 0 50 0 0
3.0640919 -0.018801775 -0.71949595 1 4087360000 0 50 0 0
3.0641031 -0.037604712 -0.71953946 1 4087360000 0 50 0 0
3.0641217 -0.05641057 -0.7196117 1 4087360000 0 50 0 0
3.0641475 -0.075219773 -0.7197122 1 4087360000 0 50 0 0
3.0641809 -0.094036721 -0.71984226 1 4087360000 0 50 0 0
3.0642214 -0.11286133 -0.72000068 1 4087360000 0 50 0 0
3.0642695 -0.13169529 -0.72018856 1 4087360000 0 50 0 0
3.0643256 -0.1505402 -0.72040504 1 4087360000 0 50 0 0
3.0643883 -0.16939743 -0.72065061 1 4087360000 0 50 0 0
3.0644588 -0.18826874 -0.72092539 1 4087360000 0 50 0 0
3.064537 -0.2071556 -0.72122937 1 4087360000 0 50 0 0
3.0646224 -0.22605984 -0.72156233 1 4087360000 0 50 0 0
3.0647154 -0.24498269 -0.72192436 1 4087360000 0 50 0 0
3.064816 -0.263926 -0.72231585 1 4087360000 0 50 0 0
3.064924 -0.28289121 -0.72273678 1 4087360000 0 50 0 0
3.0650399 -0.30188009 -0.72318751 1 4087360000 0 50 0 0
3.0651629 -0.32089403 -0.72366732 1 4087360000 0 50 0 0
3.0652938 -0.33993483 -0.7241773 1 4087360000 0 50 0 0
9.0543556 -1.0603883 -2.1405923 1 4087360000 0 50 0 0
9.0476799 -1.1159254 -2.1405923 1 4087360000 0 50 0 0
9.0406618 -1.1714199 -2.1405923 1 4087360000 0 50 0 0
9.0333042 -1.2268705 -2.1405923 1 4087360000 0 50 0 0
9.0256052 -1.2822747 -2.1405923 1 4087360000 0 50 0 0
9.0175657 -1.3376307 -2.1405923 1 4087360000 0 50 0 0
9.0091906 -1.3929365 -2.1405923 1 4087360000 0 50 0 0
9.0004721 -1.44819 -2.1405923 1 4087360000 0 50 0 0
8.9914188 -1.5033888 -2.1405923 1 4087360000 0 50 0 0
8.9820242 -1.558531 -2.1405923 1 4099360256 0 50 0 0
8.9722929 -1.6136143 -2.1405923 1 4099360256 0 50 0 0
8.9622221 -1.668637 -2.1405923 1 4099360256 0 50 0 0
8.9518175 -1.7235972 -2.1405923 1 4099360256 0 50 0 0
8.9410715 -1.7784878 -2.1405923 1 4099360256 0 50 0 0
8.9299908 -1.833316 -2.1405923 1 4099360256 0 50 0 0
8.9185734 -1.8880748 -2.1405923 1 4099360256 0 50 0 0
8.9068203 -1.942763 -2.1405923 1 4099360256 0 50 0 0
8.8947344 -1.9973778 -2.1405923 1 4099360256 0 50 0 0
8.8823118 -2.0519176 -2.1405923 1 4099360256 0 50 0 0
8.8695526 -2.1063797 -2.1405923 1 4099360256 0 50 0 0
8.8564625 -2.1607628 -2.1405923 1 4099360256 0 50 0 0
8.8430357 -2.2150643 -2.1405923 1 4099360256 0 50 0 0
8.829278 -2.2692826 -2.1405923 1 4099360256 0 50 0 0
8.8151875 -2.3234155 -2.1405923 1 4099360256 0 50 0 0
8.800765 -2.3774614 -2.1405923 1 4099360256 0 50 0 0
8.7860117 -2.4314165 -2.1405923 1 4099360256 0 50 0 0
8.7709265 -2.4852812 -2.1405923 1 4099360256 0 50 0 0
8.7555141 -2.539052 -2.1405923 1 4099360256 0 50 0 0
8.7397699 -2.5927277 -2.1405923 1 4099360256 0 50 0 0
8.7236948 -2.6463046 -2.1405923 1 4099360256 0 50 0 0
8.7072954 -2.6997826 -2.1405923 1 4099360256 0 50 0 0
8.6905642 -2.7531588 -2.1405923 1 4099360256 0 50 0 0
8.6735067 -2.8064313 -2.1405923 1 4099360256 0 50 0 0
8.6561241 -2.8595989 -2.1405923 1 4099360256 0 50 0 0
8.6384163 -2.9126582 -2.1405923 1 4099360256 0 50 0 0
8.6203804 -2.9656072 -2.1405923 1 4099360256 0 50 0 0
8.6020231 -3.0184457 -2.1405923 1 4099360256 0 50 0 0
8.5833387 -3.0711696 -2.1405923 1 4099360256 0 50 0 0
8.564332 -3.1237783 -2.1405923 1 4099360256 0 50 0 0
8.5450029 -3.1762695 -2.1405923 1 4099360256 0 50 0 0
8.5253563 -3.228637 -2.1405923 1 4099360256 0 50 0 0
8.5053854 -3.2808874 -2.1405923 1 4099360256 0 50 0 0
8.485095 -3.3330135 -2.1405923 1 4099360256 0 50 0 0
8.4644842 -3.3850148 -2.1405923 1 4099360256 0 50 0 0
8.4435539 -3.4368877 -2.1405923 1 4099360256 0 50 0 0
8.4223051 -3.4886317 -2.1405923 1 4099360256 0 50 0 0
8.4007406 -3.5402441 -2.1405923 1 4099360256 0 50 0 0
8.3788614 -3.5917244 -2.1405923 1 4099360256 0 50 0 0
8.3566647 -3.6430686 -2.1405923 1 4099360256 0 50 0 0
8.3341551 -3.6942763 -2.1405923 1 4099360256 0 50 0 0
8.3113289 -3.7453434 -2.1405923 1 4099360256 0 50 0 0
8.2881927 -3.7962713 -2.1405923 1 4099360256 0 50 0 0
8.2647419 -3.8470542 -2.1405923 1 4099360256 0 50 0 0
8.2409811 -3.8976934 -2.1405923 1 4099360256 0 50 0 0
8.2169104 -3.9481866 -2.1405923 1 4099360256 0 50 0 0
8.1925297 -3.9985304 -2.1405923 1 4099360256 0 50 0 0
8.167841 -4.0487232 -2.1405923 1 4099360256 0 50 0 0
8.1428452 -4.0987644 -2.1405923 1 4099360256 0 50 0 0
8.1175413 -4.1486506 -2.1405923 1 4099360256 0 50 0 0
8.0919342 -4.1983814 -2.1405923 1 4099360256 0 50 0 0
8.06602 -4.2479534 -2.1405923 1 4099360256 0 50 0 0
8.0398026 -4.2973657 -2.1405923 1 4099360256 0 50 0 0
8.0132847 -4.3466158 -2.1405923 1 4099360256 0 50 0 0
7.9864626 -4.3957028 -2.1405923 1 4099360256 0 50 0 0
7.9593401 -4.4446249 -2.1405923 1 4099360256 0 50 0 0
7.9319186 -4.4933791 -2.1405923 1 4099360256 0 50 0 0
7.9041991 -4.5419641 -2.1405923 1 4099360256 0 50 0 0
7.876183 -4.5903745 -2.1405923 1 4099360256 0 50 0 0
7.847868 -4.6386142 -2.1405923 1 4099360256 0 50 0 0
7.8192587 -4.6866822 -2.1405923 1 4099360256 0 50 0 0
7.7903533 -4.7345719 -2.1405923 1 4099360256 0 50 0 0
7.7611575 -4.7822824 -2.1405923 1 4099360256 0 50 0 0
7.731668 -4.8298159 -2.1405923 1 4099360256 0 50 0 0
7.7018867 -4.8771639 -2.1405923 1 4099360256 0 50 0 0
7.6718159 -4.9243307 -2.1405923 1 4099360256 0 50 0 0
7.6414552 -4.9713125 -2.1405923 1 4099360256 0 50 0 0
7.6108074 -5.018105 -2.1405923 1 4099360256 0 50 0 0
7.5798755 -5.0647097 -2.1405923 1 4099360256 0 50 0 0
7.548656 -5.1111245 -2.1405923 1 4099360256 0 50 0 0
7.5171523 -5.1573453 -2.1405923 1 4099360256 0 50 0 0
7.4853649 -5.2033739 -2.1405923 1 4099360256 0 50 0 0
7.453299 -5.2492051 -2.1405923 1 4099360256 0 50 0 0
7.4209485 -5.294838 -2.1405923 1 4099360256 0 50 0 0
7.3883185 -5.3402729 -2.1405923 1 4099360256 0 50 0 0
7.3554134 -5.3855066 -2.1405923 1 4099360256 0 50 0 0
7.3222308 -5.4305382 -2.1405923 1 4099360256 0 50 0 0
7.2887726 -5.4753642 -2.1405923 1 4099360256 0 50 0 0
7.2550373 -5.5199828 -2.1405923 1 4099360256 0 50 0 0
7.2210312 -5.5643954 -2.1405923 1 4099360256 0 50 0 0
7.1867542 -5.6085987 -2.1405923 1 4099360256 0 50 0 0
7.1522036 -5.6525888 -2.1405923 1 4099360256 0 50 0 0
7.117384 -5.6963687 -2.1405923 1 4099360256 0 50 0 0
7.0822983 -5.7399335 -2.1405923 1 4099360256 0 50 0 0
7.0469451 -5.7832813 -2.1405923 1 4099360256 0 50 0 0
7.0113268 -5.8264108 -2.1405923 1 4099360256 0 50 0 0
6.9754481 -5.8693194 -2.1405923 1 4099360256 0 50 0 0
6.9393039 -5.9120111 -2.1405923 1 4099360256 0 50 0 0
6.9028964 -5.9544787 -2.1405923 1 4099360256 0 50 0 0
6.86623 -5.9967203 -2.1405923 1 4099360256 0 50 0 0
6.8293056 -6.0387378 -2.1405923 1 4099360256 0 50 0 0
6.7921257 -6.0805292 -2.1405923 1 4099360256 0 50 0 0
6.7546864 -6.1220903 -2.1405923 1 4099360256 0 50 0 0
6.7169957 -6.1634207 -2.1405923 1 4099360256 0 50 0 0
6.6790509 -6.2045207 -2.1405923 1 4099360256 0 50 0 0
6.6408553 -6.2453856 -2.1405923 1 4099360256 0 50 0 0
6.6024079 -6.286015 -2.1405923 1 4099360256 0 50 0 0
5.590343 -5.3882284 -1.8231521 1 4099360256 0 50 0 0
5.5410242 -5.4066687 -1.8178525 1 4099360256 0 50 0 0
5.491878 -5.4248924 -1.8126154 1 4099360256 0 50 0 0
5.4429016 -5.4429016 -1.80744 1 4099360256 0 50 0 0
5.3940949 -5.4607005 -1.802325 1 4099360256 0 50 0 0
5.3454542 -5.4782887 -1.7972708 1 4099360256 0 50 0 0
5.3099995 -5.5091801 -1.7966824 1 4099360256 0 50 0 0
5.3007126 -5.5675135 -1.8050652 1 4099360256 0 50 0 0
5.470016 -5.8163877 -1.8748369 1 4099360256 0 50 0 0
5.470016 -5.8883715 -1.8871846 1 4099360256 0 50 0 0
5.470016 -5.9613137 -1.8997698 1 4099360256 0 50 0 0
5.470016 -6.0352359 -1.912595 1 4099360256 0 50 0 0
5.470016 -6.1101646 -1.9256668 1 4099360256 0 50 0 0
5.4700165 -6.1861296 -1.9389939 1 4099360256 0 50 0 0
5.470016 -6.2631564 -1.9525797 1 4099360256 0 50 0 0
5.470016 -6.3412704 -1.9664316 1 4099360256 0 50 0 0
5.470016 -6.4205003 -1.9805558 1 4099360256 0 50 0 0
5.470016 -6.5008874 -1.9949622 1 4099360256 0 50 0 0
5.470016 -6.5824523 -2.0096552 1 4099360256 0 50 0 0
5.470016 -6.6652312 -2.0246422 1 4099360256 0 50 0 0
5.470016 -6.7492576 -2.0399327 1 4099360256 0 50 0 0
5.470016 -6.8345661 -2.0555336 1 4099360256 0 50 0 0
5.4700155 -6.9211941 -2.0714529 1 4099360256 0 50 0 0
5.4720144 -7.0117369 -2.0884635 1 4099360256 0 50 0 0
5.4720144 -7.1011481 -2.1050541 1 4099360256 0 50 0 0
5.4720144 -7.1919909 -2.1219907 1 4099360256 0 50 0 0
5.4720144 -7.2843223 -2.1392832 1 4111360512 0 50 0 0
5.4305367 -7.3222308 -2.1405923 1 4111360512 0 50 0 0
5.3855047 -7.3554144 -2.1405923 1 4111360512 0 50 0 0
5.3402734 -7.3883214 -2.1405923 1 4111360512 0 50 0 0
5.2948384 -7.4209495 -2.1405923 1 4111360512 0 50 0 0
5.2492037 -7.4532971 -2.1405923 1 4111360512 0 50 0 0
5.2033715 -7.4853659 -2.1405923 1 4111360512 0 50 0 0
5.1573443 -7.5171518 -2.1405923 1 4111360512 0 50 0 0
5.1111226 -7.548656 -2.1405923 1 4111360512 0 50 0 0
5.0647106 -7.5798759 -2.1405923 1 4111360512 0 50 0 0
5.0181055 -7.6108093 -2.1405923 1 4111360512 0 50 0 0
4.9713111 -7.6414557 -2.1405923 1 4111360512 0 50 0 0
4.9243312 -7.6718173 -2.1405923 1 4111360512 0 50 0 0
4.8771644 -7.7018867 -2.1405923 1 4111360512 0 50 0 0
4.8298135 -7.731668 -2.1405923 1 4111360512 0 50 0 0
4.7822828 -7.7611575 -2.1405923 1 4111360512 0 50 0 0
4.7345715 -7.7903557 -2.1405923 1 4111360512 0 50 0 0
4.6866817 -7.8192596 -2.1405923 1 4111360512 0 50 0 0
4.6386194 -7.8478675 -2.1405923 1 4111360512 0 50 0 0
4.5903778 -7.8761802 -2.1405923 1 4111360512 0 50 0 0
4.5419631 -7.9041991 -2.1405923 1 4111360512 0 50 0 0
4.4933786 -7.9319196 -2.1405923 1 4111360512 0 50 0 0
4.4446239 -7.9593401 -2.1405923 1 4111360512 0 50 0 0
4.3957038 -7.9864635 -2.1405923 1 4111360512 0 50 0 0
4.3466153 -8.0132837 -2.1405923 1 4111360512 0 50 0 0
4.2973661 -8.0398035 -2.1405923 1 4111360512 0 50 0 0
4.2479548 -8.066021 -2.1405923 1 4111360512 0 50 0 0
4.1983795 -8.0919342 -2.1405923 1 4111360512 0 50 0 0
4.1486506 -8.1175432 -2.1405923 1 4111360512 0 50 0 0
4.0987639 -8.1428452 -2.1405923 1 4111360512 0 50 0 0
4.0487232 -8.1678419 -2.1405923 1 4111360512 0 50 0 0
3.9985299 -8.1925316 -2.1405923 1 4111360512 0 50 0 0
3.9481871 -8.2169104 -2.1405923 1 4111360512 0 50 0 0
3.8976932 -8.2409821 -2.1405923 1 4111360512 0 50 0 0
3.8470542 -8.2647419 -2.1405923 1 4111360512 0 50 0 0
3.7962692 -8.2881918 -2.1405923 1 4111360512 0 50 0 0
0.38332334 -0.85063666 -0.21908247 1 4111360512 0 50 0 0
0.37809646 -0.85297269 -0.21908247 1 4111360512 0 50 0 0
0.37285581 -0.85527676 -0.21908247 1 4111360512 0 50 0 0
0.36760101 -0.85754842 -0.21908247 1 4111360512 0 50 0 0
0.36233222 -0.85978788 -0.21908247 1 4111360512 0 50 0 0
0.35704991 -0.86199486 -0.21908247 1 4111360512 0 50 0 0
0.35175383 -0.86416942 -0.21908247 1 4111360512 0 50 0 0
0.34644461 -0.86631149 -0.21908247 1 4111360512 0 50 0 0
0.34112272 -0.86842084 -0.21908247 1 4111360512 0 50 0 0
0.33578825 -0.87049741 -0.21908247 1 4111360512 0 50 0 0
0.33044043 -0.87254149 -0.21908247 1 4111360512 0 50 0 0
0.32508039 -0.87455285 -0.21908247 1 4111360512 0 50 0 0
3.1237786 -8.564333 -2.1405923 1 4111360512 0 50 0 0
3.0711708 -8.5833397 -2.1405923 1 4111360512 0 50 0 0
3.018445 -8.6020231 -2.1405923 1 4111360512 0 50 0 0
2.9656072 -8.6203804 -2.1405923 1 4111360512 0 50 0 0
2.9126565 -8.6384144 -2.1405923 1 4111360512 0 50 0 0
2.8595984 -8.6561251 -2.1405923 1 4111360512 0 50 0 0
2.8064306 -8.6735077 -2.1405923 1 4111360512 0 50 0 0
2.7531595 -8.6905651 -2.1405923 1 4111360512 0 50 0 0
2.6997828 -8.7072954 -2.1405923 1 4111360512 0 50 0 0
2.6463046 -8.7236958 -2.1405923 1 4111360512 0 50 0 0
2.5927272 -8.739769 -2.1405923 1 4111360512 0 50 0 0
2.5390518 -8.7555151 -2.1405923 1 4111360512 0 50 0 0
2.4852812 -8.7709284 -2.1405923 1 4111360512 0 50 0 0
2.4314141 -8.7860117 -2.1405923 1 4111360512 0 50 0 0
2.3774605 -8.800765 -2.1405923 1 4111360512 0 50 0 0
2.3234148 -8.8151875 -2.1405923 1 4111360512 0 50 0 0
2.2692828 -8.8292789 -2.1405923 1 4111360512 0 50 0 0
2.2150636 -8.8430357 -2.1405923 1 4111360512 0 50 0 0
2.1607633 -8.8564596 -2.1405923 1 4111360512 0 50 0 0
2.1063788 -8.8695526 -2.1405923 1 4111360512 0 50 0 0
2.0519176 -8.8823109 -2.1405923 1 4111360512 0 50 0 0
1.9973766 -8.8947353 -2.1405923 1 4111360512 0 50 0 0
1.9427618 -8.9068203 -2.1405923 1 4111360512 0 50 0 0
1.8880737 -8.9185743 -2.1405923 1 4111360512 0 50 0 0
1.8333203 -8.9299917 -2.1405923 1 4111360512 0 50 0 0
1.7784911 -8.9410706 -2.1405923 1 4111360512 0 50 0 0
1.7235959 -8.9518166 -2.1405923 1 4111360512 0 50 0 0
1.6686367 -8.962224 -2.1405923 1 4111360512 0 50 0 0
1.6136144 -8.9722939 -2.1405923 1 4111360512 0 50 0 0
1.5585302 -8.9820271 -2.1405923 1 4111360512 0 50 0 0
1.5033871 -8.9914188 -2.1405923 1 4111360512 0 50 0 0
1.4481884 -9.0004749 -2.1405923 1 4111360512 0 50 0 0
1.3929358 -9.0091915 -2.1405923 1 4111360512 0 50 0 0
1.3376312 -9.0175686 -2.1405923 1 4111360512 0 50 0 0
1.2822748 -9.0256062 -2.1405923 1 4111360512 0 50 0 0
1.2268691 -9.0333061 -2.1405923 1 4111360512 0 50 0 0
1.1714196 -9.0406609 -2.1405923 1 4111360512 0 50 0 0
1.115924 -9.0476789 -2.1405923 1 4111360512 0 50 0 0
1.0603884 -9.0543575 -2.1405923 1 4111360512 0 50 0 0
1.0048101 -9.0606928 -2.1405923 1 4111360512 0 50 0 0
0.94919676 -9.0666866 -2.1405923 1 4111360512 0 50 0 0
0.61458296 -6.2399688 -1.4723029 1 4111360512 0 50 0 0
0.57605225 -6.2411113 -1.4717107 1 4111360512 0 50 0 0
0.53754342 -6.2421794 -1.4711568 1 4111360512 0 50 0 0
0.49905637 -6.2431736 -1.4706419 1 4111360512 0 50 0 0
0.46059039 -6.2440934 -1.470165 1 4111360512 0 50 0 0
0.42214319 -6.2449389 -1.4697268 1 4111360512 0 50 0 0
0.38371146 -6.2457104 -1.4693267 1 4111360512 0 50 0 0
0.34529683 -6.2464085 -1.4689646 1 4111360512 0 50 0 0
0.30689484 -6.2470336 -1.468641 1 4111360512 0 50 0 0
0.26850685 -6.2475839 -1.4683554 1 4111360512 0 50 0 0
0.23012786 -6.2480612 -1.4681084 1 4111360512 0 50 0 0
0.19176215 -6.2484651 -1.4678991 1 4111360512 0 50 0 0
0.15340063 -6.2487965 -1.4677277 1 4111360512 0 50 0 0
0.16780075 -9.1146936 -2.1405923 1 4111360512 0 50 0 0
0.11187202 -9.1155529 -2.1405923 1 4111360512 0 50 0 0
0.055937119 -9.116066 -2.1405923 1 4111360512 0 50 0 0
5.5320561e-07 -9.1162367 -2.1405923 1 4111360512 0 50 0 0
-0.055935442 -9.116066 -2.1405923 1 4111360512 0 50 0 0
-0.11186865 -9.1155519 -2.1405923 1 4111360512 0 50 0 0
-0.16780072 -9.1146936 -2.1405923 1 4111360512 0 50 0 0
-0.22372282 -9.1134939 -2.1405923 1 4111360512 0 50 0 0
-0.27963924 -9.1119471 -2.1405923 1 4111360512 0 50 0 0
-0.33554345 -9.1100607 -2.1405923 1 4111360512 0 50 0 0
-0.39143425 -9.107831 -2.1405923 1 4111360512 0 50 0 0
-0.44731268 -9.105257 -2.1405923 1 4111360512 0 50 0 0
-0.50317335 -9.1023407 -2.1405923 1 4111360512 0 50 0 0
-0.55901515 -9.099082 -2.1405923 1 4111360512 0 50 0 0
-0.61483663 -9.0954809 -2.1405923 1 4111360512 0 50 0 0
-0.67063254 -9.0915375 -2.1405923 1 4111360512 0 50 0 0
-0.72640604 -9.0872498 -2.1405923 1 4111360512 0 50 0 0
-0.78214955 -9.0826225 -2.1405923 1 4111360512 0 50 0 0
-0.83786511 -9.0776529 -2.1405923 1 4111360512 0 50 0 0
-0.89354932 -9.07234 -2.1405923 1 4111360512 0 50 0 0
-0.94920009 -9.0666866 -2.1405923 1 4111360512 0 50 0 0
-1.0048139 -9.0606909 -2.1405923 1 4123360768 0 50 0 0
-1.0603912 -9.0543566 -2.1405923 1 4123360768 0 50 0 0
-1.1159261 -9.0476809 -2.1405923 1 4123360768 0 50 0 0
-1.1714218 -9.0406618 -2.1405923 1 4123360768 0 50 0 0
-1.2268682 -9.0333061 -2.1405923 1 4123360768 0 50 0 0
-1.2822731 -9.0256062 -2.1405923 1 4123360768 0 50 0 0
-1.3376292 -9.0175686 -2.1405923 1 4123360768 0 50 0 0
-1.392935 -9.0091915 -2.1405923 1 4123360768 0 50 0 0
-1.4481887 -9.0004759 -2.1405923 1 4123360768 0 50 0 0
-1.5033853 -8.9914198 -2.1405923 1 4123360768 0 50 0 0
-1.5585289 -8.9820251 -2.1405923 1 4123360768 0 50 0 0
-1.6136129 -8.9722948 -2.1405923 1 4123360768 0 50 0 0
-1.6686349 -8.9622231 -2.1405923 1 4123360768 0 50 0 0
-1.7235959 -8.9518166 -2.1405923 1 4123360768 0 50 0 0
-1.7784897 -8.9410715 -2.1405923 1 4123360768 0 50 0 0
-1.8333179 -8.9299917 -2.1405923 1 4123360768 0 50 0 0
-1.8880768 -8.9185734 -2.1405923 1 4123360768 0 50 0 0
-1.9427658 -8.9068213 -2.1405923 1 4123360768 0 50 0 0
-1.9973791 -8.8947325 -2.1405923 1 4123360768 0 50 0 0
-2.0519192 -8.8823109 -2.1405923 1 4123360768 0 50 0 0
-2.1063809 -8.8695517 -2.1405923 1 4123360768 0 50 0 0
-2.1607649 -8.8564596 -2.1405923 1 4123360768 0 50 0 0
-2.215066 -8.8430357 -2.1405923 1 4123360768 0 50 0 0
-2.2692866 -8.829277 -2.1405923 1 4123360768 0 50 0 0
-2.3234172 -8.8151875 -2.1405923 1 4123360768 0 50 0 0
-2.3774636 -8.800765 -2.1405923 1 4123360768 0 50 0 0
-2.4314184 -8.7860126 -2.1405923 1 4123360768 0 50 0 0
-2.4852829 -8.7709274 -2.1405923 1 4123360768 0 50 0 0
-2.5390527 -8.7555141 -2.1405923 1 4123360768 0 50 0 0
-2.5927286 -8.739769 -2.1405923 1 4123360768 0 50 0 0
-2.646307 -8.7236948 -2.1405923 1 4123360768 0 50 0 0
-2.6997848 -8.7072954 -2.1405923 1 4123360768 0 50 0 0
-2.7531612 -8.6905642 -2.1405923 1 4123360768 0 50 0 0
-2.806433 -8.6735077 -2.1405923 1 4123360768 0 50 0 0
-2.8595996 -8.6561232 -2.1405923 1 4123360768 0 50 0 0
-2.9126587 -8.6384163 -2.1405923 1 4123360768 0 50 0 0
