# .PCD v0.7 - Point Cloud Data file format
VERSION 0.7
FIELDS x y z intensity t reflectivity ring noise range
SIZE 4 4 4 4 4 2 2 2 4
TYPE F F F F U U U U U
COUNT 1 1 1 1 1 1 1 1 1
WIDTH 674
HEIGHT 1
VIEWPOINT 0 0 0 1 0 0 0
POINTS 674
DATA ascii
4.0943003 0.30201393 0.33340544 1 2840064 0 25 0 0
4.0795817 0.27577141 0.33206296 1 2840064 0 25 0 0
4.0649829 0.24973769 0.33074358 1 2840064 0 25 0 0
4.0505023 0.22390993 0.32944745 1 2840064 0 25 0 0
4.0361366 0.19828281 0.32817391 1 2840064 0 25 0 0
4.097188 0.32751548 0.28226849 1 2840064 0 26 0 0
4.082438 0.301139 0.2811197 1 2840064 0 26 0 0
4.0678086 0.27497527 0.27999088 1 2840064 0 26 0 0
4.053299 0.24902005 0.27888176 1 2840064 0 26 0 0
4.0389047 0.22326869 0.27779183 1 2840064 0 26 0 0
4.0246253 0.19771719 0.27672118 1 2840064 0 26 0 0
4.0104566 0.17236072 0.27566895 1 2840064 0 26 0 0
3.9963973 0.14719617 0.27463549 1 2840064 0 26 0 0
3.9824448 0.12221786 0.27361974 1 2840064 0 26 0 0
3.9685969 0.097423196 0.27262229 1 2840064 0 26 0 0
4.1001058 0.35308078 0.23110938 1 2840064 0 27 0 0
4.0853229 0.32656702 0.23015851 1 2840064 0 27 0 0
4.0706635 0.30027044 0.22922474 1 2840064 0 27 0 0
4.0561233 0.27418518 0.22830677 1 2840064 0 27 0 0
4.0417013 0.24830753 0.22740501 1 2840064 0 27 0 0
4.0273938 0.22263248 0.22651881 1 2840064 0 27 0 0
4.0131989 0.19715595 0.22564816 1 2840064 0 27 0 0
3.9991133 0.17187342 0.22479266 1 2840064 0 27 0 0
3.9851363 0.14678144 0.22395229 1 2840064 0 27 0 0
3.9712646 0.12187506 0.22312641 1 2840064 0 27 0 0
3.9574962 0.097150907 0.22231519 1 2840064 0 27 0 0
3.9438286 0.072604828 0.22151816 1 2840064 0 27 0 0
3.9302602 0.048233144 0.22073513 1 2840064 0 27 0 0
3.9167888 0.024032773 0.21996635 1 2840064 0 27 0 0
3.9034126 -4.3869017e-07 0.21921092 1 2840064 0 27 0 0
4.1030488 0.37871039 0.17990452 1 2840064 0 28 0 0
4.0882344 0.35205814 0.1791569 1 2840064 0 28 0 0
4.0735435 0.32562575 0.17842221 1 2840064 0 28 0 0
4.0589733 0.29940838 0.17770034 1 2840064 0 28 0 0
4.0445218 0.27340135 0.17699069 1 2840064 0 28 0 0
4.0301862 0.24760045 0.17629355 1 2840064 0 28 0 0
4.015964 0.22200087 0.17560858 1 2840064 0 28 0 0
4.001853 0.19659877 0.17493558 1 2840064 0 28 0 0
3.9878502 0.17138952 0.17427409 1 2840064 0 28 0 0
3.973954 0.14636888 0.17362416 1 2840064 0 28 0 0
3.9601626 0.12153447 0.17298597 1 2840064 0 28 0 0
3.9464726 0.096880108 0.17235869 1 2840064 0 28 0 0
3.9328825 0.072403297 0.17174244 1 2840064 0 28 0 0
3.9193904 0.048100002 0.17113715 1 2840064 0 28 0 0
3.9059939 0.023966411 0.17054248 1 2840064 0 28 0 0
3.8926911 -4.339218e-07 0.16995865 1 2840064 0 28 0 0
3.8794799 -0.023805069 0.16938508 1 2840064 0 28 0 0
3.8663585 -0.047450457 0.16882163 1 2840064 0 28 0 0
3.8533251 -0.070939817 0.16826838 1 2840064 0 28 0 0
3.8403783 -0.094275028 0.16772503 1 2840064 0 28 0 0
4.1060143 0.40440753 0.12863129 1 2840064 0 29 0 0
4.091167 0.37761346 0.1280911 1 2840064 0 29 0 0
4.0764446 0.35104275 0.1275605 1 2840064 0 29 0 0
4.0618439 0.32469001 0.12703872 1 2840064 0 29 0 0
4.0473623 0.29855126 0.126526 1 2840064 0 29 0 0
4.0329986 0.27262205 0.12602246 1 2840064 0 29 0 0
4.0187488 0.24689727 0.1255275 1 2840064 0 29 0 0
4.004611 0.22137301 0.12504101 1 2840064 0 29 0 0
3.9905827 0.19604467 0.12456322 1 2840064 0 29 0 0
3.9766624 0.17090854 0.12409353 1 2840064 0 29 0 0
3.962847 0.14596027 0.12363225 1 2840064 0 29 0 0
3.9491343 0.12119587 0.1231789 1 2840064 0 29 0 0
3.9355223 0.096611306 0.12273341 1 2840064 0 29 0 0
3.9220085 0.072202876 0.12229574 1 2840064 0 29 0 0
3.9085922 0.047967594 0.12186605 1 2840064 0 29 0 0
3.8952696 0.023900695 0.12144375 1 2840064 0 29 0 0
3.8820398 -7.8439712e-07 0.12102902 1 2840064 0 29 0 0
3.8689003 -0.023740472 0.12062162 1 2840064 0 29 0 0
3.8558502 -0.047321394 0.12022167 1 2840064 0 29 0 0
3.842886 -0.070747763 0.1198287 1 2840064 0 29 0 0
3.8300078 -0.094020538 0.11944282 1 2840064 0 29 0 0
3.8172121 -0.11714648 0.11906403 1 2840064 0 29 0 0
3.8044982 -0.1401269 0.11869216 1 2840064 0 29 0 0
3.7918632 -0.16296539 0.11832684 1 2840064 0 29 0 0
3.7793067 -0.18566473 0.11796826 1 2840064 0 29 0 0
4.1089983 0.43017444 0.07726711 1 2840064 0 30 0 0
4.0941176 0.40323597 0.076939285 1 2840064 0 30 0 0
4.0793629 0.37652409 0.076617181 1 2840064 0 30 0 0
4.0647316 0.35003418 0.076300561 1 2840064 0 30 0 0
4.05022 0.32376125 0.075989425 1 2840064 0 30 0 0
4.0358272 0.29770073 0.075683713 1 2840064 0 30 0 0
4.0215497 0.27184832 0.075383306 1 2840064 0 30 0 0
4.0073853 0.24619944 0.075088024 1 2840064 0 30 0 0
3.9933312 0.22074954 0.074797809 1 2840064 0 30 0 0
3.9793854 0.19549461 0.074512661 1 2840064 0 30 0 0
3.9655459 0.17043081 0.074232697 1 2840064 0 30 0 0
3.9518099 0.14555363 0.073957324 1 2840064 0 30 0 0
3.9381757 0.12085928 0.073686898 1 2840064 0 30 0 0
3.9246407 0.096344031 0.07342124 1 2840064 0 30 0 0
3.9112036 0.072004251 0.073160172 1 2840064 0 30 0 0
3.8978615 0.047835913 0.072903872 1 2840064 0 30 0 0
3.8846126 0.023835354 0.072651863 1 2840064 0 30 0 0
3.8714552 -3.0994414e-07 0.072404623 1 2840064 0 30 0 0
3.8583868 -0.023675919 0.072161317 1 2840064 0 30 0 0
3.8454063 -0.047193393 0.07192266 1 2840064 0 30 0 0
3.8325114 -0.070556819 0.071688235 1 2840064 0 30 0 0
3.8197014 -0.093767516 0.071458042 1 2840064 0 30 0 0
3.806973 -0.1168322 0.071232021 1 2840064 0 30 0 0
3.7943246 -0.13975205 0.071010172 1 2840064 0 30 0 0
3.7817547 -0.16253099 0.070792198 1 2840064 0 30 0 0
3.7692616 -0.18517119 0.070578277 1 2840064 0 30 0 0
3.756844 -0.20767628 0.070368111 1 2840064 0 30 0 0
3.7445006 -0.23004819 0.070162117 1 2840064 0 30 0 0
3.7322292 -0.25229034 0.069959819 1 2840064 0 30 0 0
3.7200284 -0.27440569 0.069761395 1 2840064 0 30 0 0
4.1119962 0.45601252 0.025788844 1 2840064 0 31 0 0
4.0970821 0.42892653 0.025678217 1 2840064 0 31 0 0
4.0822954 0.40207189 0.025569797 1 2840064 0 31 0 0
4.0676322 0.37544167 0.025462985 1 2840064 0 31 0 0
4.053091 0.34903178 0.025358021 1 2840064 0 31 0 0
4.0386686 0.32283798 0.025254965 1 2840064 0 31 0 0
4.0243626 0.29685518 0.025153577 1 2840064 0 31 0 0
4.0101709 0.27107891 0.025053918 1 2840064 0 31 0 0
3.9960907 0.24550529 0.024956107 1 2840064 0 31 0 0
3.9821196 0.22012964 0.024859905 1 2840064 0 31 0 0
3.9682555 0.19494794 0.024765432 1 2840064 0 31 0 0
3.9544964 0.16995594 0.024672687 1 2840064 0 31 0 0
3.9408395 0.1451495 0.024581373 1 2840064 0 31 0 0
3.9272828 0.12052502 0.024491787 1 2840064 0 31 0 0
3.9138246 0.096078791 0.024403751 1 2840064 0 31 0 0
3.9004622 0.071806498 0.024317145 1 2840064 0 31 0 0
3.8871942 0.047704976 0.024232209 1 2840064 0 31 0 0
3.8740184 0.023770502 0.024148703 1 2840064 0 31 0 0
3.8609326 -4.7683716e-07 0.024066687 1 2840064 0 31 0 0
3.8479352 -0.023611676 0.023986042 1 2840064 0 31 0 0
3.8350241 -0.047065839 0.023907006 1 2840064 0 31 0 0
3.8221974 -0.070367083 0.023829162 1 2840064 0 31 0 0
3.8094552 -0.093515985 0.023752868 1 2840064 0 31 0 0
3.7967927 -0.11651989 0.023677945 1 2840064 0 31 0 0
3.7842095 -0.13937984 0.023604393 1 2840064 0 31 0 0
3.7717042 -0.16209905 0.023532152 1 2840064 0 31 0 0
3.7592747 -0.18468088 0.023461103 1 2840064 0 31 0 0
3.7469199 -0.20712745 0.023391545 1 2840064 0 31 0 0
3.7346377 -0.22944236 0.023323178 1 2840064 0 31 0 0
3.7224269 -0.25162765 0.023256183 1 2840064 0 31 0 0
3.7102857 -0.27368689 0.023190379 1 2840064 0 31 0 0
3.6982124 -0.29562235 0.023125827 1 2840064 0 31 0 0
3.6862063 -0.31743696 0.023062468 1 2840064 0 31 0 0
3.6742656 -0.33913326 0.023000419 1 2840064 0 31 0 0
3.6623886 -0.36071381 0.022939444 1 2840064 0 31 0 0
4.115005 0.48192358 -0.025825799 1 2840064 0 32 0 0
4.1000571 0.45468825 -0.02571404 1 2840064 0 32 0 0
4.085237 0.42768645 -0.025604129 1 2840064 0 32 0 0
4.0705423 0.40091372 -0.025496066 1 2840064 0 32 0 0
4.0559707 0.37436503 -0.02538991 1 2840064 0 32 0 0
4.0415182 0.34803486 -0.025285661 1 2840064 0 32 0 0
4.0271845 0.32192004 -0.025182962 1 2840064 0 32 0 0
4.0129652 0.29601452 -0.02508235 1 2840064 0 32 0 0
3.998858 0.27031419 -0.024983406 1 2840064 0 32 0 0
3.9848614 0.24481528 -0.024886191 1 2840064 0 32 0 0
3.9709728 0.21951343 -0.024790525 1 2840064 0 32 0 0
3.9571896 0.1944041 -0.024696529 1 2840064 0 32 0 0
3.9435098 0.16948335 -0.024604261 1 2840064 0 32 0 0
3.9299316 0.14474775 -0.024513423 1 2840064 0 32 0 0
3.9164519 0.12019254 -0.024424374 1 2840064 0 32 0 0
3.903069 0.095814385 -0.024336815 1 2840064 0 32 0 0
3.8897815 0.071609698 -0.024250746 1 2840064 0 32 0 0
3.8765869 0.047574453 -0.024166286 1 2840064 0 32 0 0
3.8634834 0.023705672 -0.024083138 1 2840064 0 32 0 0
3.8504689 -5.2690507e-07 -0.024001479 1 2840064 0 32 0 0
3.8375413 -0.023548057 -0.023921549 1 2840064 0 32 0 0
3.8246994 -0.046939451 -0.023842812 1 2840064 0 32 0 0
3.8119409 -0.070178039 -0.023765326 1 2840064 0 32 0 0
3.7992651 -0.093265891 -0.023689568 1 2840064 0 32 0 0
3.7866685 -0.11620917 -0.023615062 1 2840064 0 32 0 0
3.7741504 -0.13900933 -0.023541749 1 2840064 0 32 0 0
3.7617085 -0.16166961 -0.023469925 1 2840064 0 32 0 0
3.749342 -0.184193 -0.023399472 1 2840064 0 32 0 0
3.7370489 -0.20658177 -0.023330152 1 2840064 0 32 0 0
3.7248278 -0.22883953 -0.023262203 1 2840064 0 32 0 0
3.7126772 -0.25096837 -0.023195446 1 2840064 0 32 0 0
3.7005954 -0.27297181 -0.02313 1 2840064 0 32 0 0
3.6885805 -0.29485241 -0.023065805 1 2840064 0 32 0 0
3.6766319 -0.31661242 -0.023002803 1 2840064 0 32 0 0
3.6647477 -0.33825463 -0.022940934 1 2840064 0 32 0 0
3.6529269 -0.35978195 -0.022880435 1 2840064 0 32 0 0
3.6411674 -0.38119614 -0.02282089 1 2840064 0 32 0 0
3.6294682 -0.40250048 -0.022762597 1 2840064 0 32 0 0
3.6178279 -0.42369705 -0.022705495 1 2840064 0 32 0 0
3.606246 -0.44478792 -0.022649467 1 2840064 0 32 0 0
4.1180201 0.50791001 -0.077599347 1 2840064 0 33 0 0
4.1030383 0.48052257 -0.077260017 1 2840064 0 33 0 0
4.0881848 0.45337179 -0.076926529 1 2840064 0 33 0 0
4.0734582 0.42645335 -0.076598763 1 2840064 0 33 0 0
4.0588555 0.39976275 -0.076276481 1 2840064 0 33 0 0
4.0443735 0.3732942 -0.075959921 1 2840064 0 33 0 0
4.0300107 0.34704438 -0.075648606 1 2840064 0 33 0 0
4.0157633 0.32100672 -0.075342894 1 2840064 0 33 0 0
4.0016298 0.29517791 -0.075042427 1 2840064 0 33 0 0
3.9876072 0.26955402 -0.074746847 1 2840064 0 33 0 0
3.9736934 0.24412929 -0.074456751 1 2840064 0 33 0 0
3.9598863 0.21890026 -0.074171543 1 2840064 0 33 0 0
3.9461834 0.19386326 -0.073891103 1 2840064 0 33 0 0
3.9325826 0.16901371 -0.07361567 1 2840064 0 33 0 0
3.9190819 0.14434801 -0.073344886 1 2840064 0 33 0 0
3.9056785 0.11986192 -0.07307893 1 2840064 0 33 0 0
3.8923712 0.095551714 -0.072817564 1 2840064 0 33 0 0
3.879158 0.071414344 -0.072560728 1 2840064 0 33 0 0
3.8660359 0.047445085 -0.0723086 1 2840064 0 33 0 0
3.853004 0.023641288 -0.072060764 1 2840064 0 33 0 0
3.84006 -6.7949293e-07 -0.071817279 1 2840064 0 33 0 0
3.8272021 -0.023484498 -0.071578145 1 2840064 0 33 0 0
3.8144286 -0.046813026 -0.071343243 1 2840064 0 33 0 0
3.8017375 -0.069990024 -0.071112514 1 2840064 0 33 0 0
3.7891283 -0.093016677 -0.070886016 1 2840064 0 33 0 0
3.7765968 -0.11589995 -0.070663631 1 2840064 0 33 0 0
3.7641428 -0.13864075 -0.07044518 1 2840064 0 33 0 0
3.7517641 -0.16124246 -0.070230782 1 2840064 0 33 0 0
3.73946 -0.18370751 -0.070020318 1 2840064 0 33 0 0
3.7272286 -0.20603904 -0.069813609 1 2840064 0 33 0 0
3.7150683 -0.22823964 -0.069610596 1 2840064 0 33 0 0
3.7029769 -0.25031278 -0.069411635 1 2840064 0 33 0 0
3.690954 -0.27226093 -0.069216311 1 2840064 0 33 0 0
3.6789975 -0.29408625 -0.069024503 1 2840064 0 33 0 0
3.6671057 -0.31579196 -0.06883651 1 2840064 0 33 0 0
3.655278 -0.33738047 -0.068651974 1 2840064 0 33 0 0
3.6435122 -0.35885468 -0.068471134 1 2840064 0 33 0 0
3.6318071 -0.38021639 -0.06829375 1 2840064 0 33 0 0
3.620162 -0.40146855 -0.068119824 1 2840064 0 33 0 0
3.6085751 -0.42261326 -0.067949295 1 2840064 0 33 0 0
3.5970449 -0.44365346 -0.067782164 1 2840064 0 33 0 0
3.5855706 -0.46459082 -0.06761837 1 2840064 0 33 0 0
3.5741503 -0.48542801 -0.067457914 1 2840064 0 33 0 0
3.562783 -0.50616729 -0.067300677 1 2840064 0 33 0 0
3.5514679 -0.52681094 -0.067146778 1 2840064 0 33 0 0
4.1210384 0.53397363 -0.12955445 1 2840064 0 34 0 0
4.1060214 0.50643033 -0.12898219 1 2840064 0 34 0 0
4.091135 0.47912833 -0.12841964 1 2840064 0 34 0 0
4.076376 0.4520624 -0.12786704 1 2840064 0 34 0 0
4.0617423 0.42522702 -0.12732369 1 2840064 0 34 0 0
4.0472302 0.39861807 -0.12678975 1 2840064 0 34 0 0
4.0328379 0.37222984 -0.12626505 1 2840064 0 34 0 0
4.0185623 0.34605807 -0.12574923 1 2840064 0 34 0 0
4.0044017 0.32009834 -0.12524235 1 2840064 0 34 0 0
3.9903531 0.29434633 -0.12474406 1 2840064 0 34 0 0
3.9764142 0.26879722 -0.12425441 1 2840064 0 34 0 0
3.9625833 0.24344711 -0.12377316 1 2840064 0 34 0 0
3.9488571 0.21829124 -0.12330025 1 2840064 0 34 0 0
3.9352334 0.19332562 -0.12283558 1 2840064 0 34 0 0
3.921711 0.16854702 -0.12237877 1 2840064 0 34 0 0
3.908287 0.14395064 -0.12193012 1 2840064 0 34 0 0
3.8949597 0.11953317 -0.12148923 1 2840064 0 34 0 0
3.881727 0.095290758 -0.1210559 1 2840064 0 34 0 0
3.8685873 0.071220033 -0.12063015 1 2840064 0 34 0 0
3.8555377 0.047316916 -0.1202119 1 2840064 0 34 0 0
3.8425767 0.023577666 -0.1198011 1 2840064 0 34 0 0
3.8297026 -3.7908552e-07 -0.11939746 1 2840064 0 34 0 0
3.8169141 -0.023421058 -0.11900097 1 2840064 0 34 0 0
3.8042083 -0.046687271 -0.11861145 1 2840064 0 34 0 0
3.7915838 -0.069803134 -0.11822909 1 2840064 0 34 0 0
3.7790403 -0.092768952 -0.1178534 1 2840064 0 34 0 0
3.7665734 -0.11559246 -0.11748463 1 2840064 0 34 0 0
3.7541833 -0.13827415 -0.11712241 1 2840064 0 34 0 0
3.7418678 -0.16081686 -0.11676675 1 2840064 0 34 0 0
3.7296257 -0.18322423 -0.11641765 1 2840064 0 34 0 0
3.7174554 -0.20549838 -0.11607486 1 2840064 0 34 0 0
3.7053549 -0.22764282 -0.11573857 1 2840064 0 34 0 0
3.6933229 -0.24965999 -0.11540842 1 2840064 0 34 0 0
3.6813583 -0.27155277 -0.11508441 1 2840064 0 34 0 0
3.6694591 -0.29332379 -0.11476654 1 2840064 0 34 0 0
3.6576245 -0.31497547 -0.11445469 1 2840064 0 34 0 0
3.6458523 -0.33651054 -0.1141488 1 2840064 0 34 0 0
3.6341417 -0.35793152 -0.11384875 1 2840064 0 34 0 0
3.6224911 -0.37924102 -0.11355454 1 2840064 0 34 0 0
3.6108997 -0.40044093 -0.11326599 1 2840064 0 34 0 0
3.5993648 -0.42153454 -0.11298329 1 2840064 0 34 0 0
3.5878866 -0.44252375 -0.11270607 1 2840064 0 34 0 0
3.5764635 -0.46341079 -0.11243439 1 2840064 0 34 0 0
3.5650935 -0.48419771 -0.11216819 1 2840064 0 34 0 0
3.5537763 -0.5048877 -0.1119076 1 2840064 0 34 0 0
3.5425103 -0.52548206 -0.11165214 1 2840064 0 34 0 0
3.5312946 -0.54598331 -0.11140221 1 2840064 0 34 0 0
3.5201271 -0.56639367 -0.11115748 1 2840064 0 34 0 0
4.1240554 0.56011474 -0.1817134 1 2840064 0 35 0 0
4.1090035 0.53241414 -0.18090266 1 2840064 0 35 0 0
4.0940833 0.50495774 -0.18010622 1 2840064 0 35 0 0
4.0792918 0.47774142 -0.17932296 1 2840064 0 35 0 0
4.0646262 0.4507592 -0.17855334 1 2840064 0 35 0 0
4.0500836 0.4240064 -0.1777969 1 2840064 0 35 0 0
4.0356622 0.39747837 -0.17705333 1 2840064 0 35 0 0
4.0213585 0.37117019 -0.17632258 1 2840064 0 35 0 0
4.0071702 0.34507704 -0.1756044 1 2840064 0 35 0 0
3.9930954 0.31919453 -0.17489839 1 2840064 0 35 0 0
3.979131 0.29351825 -0.17420483 1 2840064 0 35 0 0
3.9652755 0.26804429 -0.17352271 1 2840064 0 35 0 0
3.9515257 0.24276769 -0.17285258 1 2840064 0 35 0 0
3.9378798 0.21768411 -0.17219406 1 2840064 0 35 0 0
3.924335 0.19278996 -0.17154694 1 2840064 0 35 0 0
3.9108903 0.16808155 -0.17091089 1 2840064 0 35 0 0
3.897543 0.14355484 -0.17028588 1 2840064 0 35 0 0
3.8842909 0.11920565 -0.16967171 1 2840064 0 35 0 0
3.8711326 0.095030904 -0.16906816 1 2840064 0 35 0 0
3.8580654 0.07102599 -0.16847533 1 2840064 0 35 0 0
3.8450878 0.047188472 -0.16789275 1 2840064 0 35 0 0
3.8321974 0.023513947 -0.16732049 1 2840064 0 35 0 0
3.8193932 -2.9563904e-07 -0.16675818 1 2840064 0 35 0 0
3.8066726 -0.02335822 -0.166206 1 2840064 0 35 0 0
3.7940342 -0.046562623 -0.16566354 1 2840064 0 35 0 0
3.7814763 -0.069616981 -0.16513079 1 2840064 0 35 0 0
3.7689977 -0.09252274 -0.16460764 1 2840064 0 35 0 0
3.7565956 -0.11528616 -0.16409379 1 2840064 0 35 0 0
3.7442689 -0.13790902 -0.16358918 1 2840064 0 35 0 0
3.7320158 -0.16039364 -0.16309375 1 2840064 0 35 0 0
3.7198358 -0.18274303 -0.16260737 1 2840064 0 35 0 0
3.7077258 -0.20496072 -0.16212994 1 2840064 0 35 0 0
3.6956849 -0.22704875 -0.16166127 1 2840064 0 35 0 0
3.6837118 -0.2490104 -0.16120124 1 2840064 0 35 0 0
3.6718049 -0.27084818 -0.16074997 1 2840064 0 35 0 0
3.6599629 -0.29256475 -0.16030717 1 2840064 0 35 0 0
3.6481843 -0.31416261 -0.15987265 1 2840064 0 35 0 0
3.6364677 -0.3356443 -0.15944642 1 2840064 0 35 0 0
3.6248116 -0.35701281 -0.15902859 1 2840064 0 35 0 0
3.6132152 -0.37826967 -0.15861857 1 2840064 0 35 0 0
3.6016765 -0.39941829 -0.15821666 1 2840064 0 35 0 0
3.5901947 -0.42046043 -0.15782249 1 2840064 0 35 0 0
3.578768 -0.44139904 -0.15743637 1 2840064 0 35 0 0
3.5673954 -0.46223563 -0.15705788 1 2840064 0 35 0 0
3.556076 -0.48297313 -0.15668702 1 2840064 0 35 0 0
3.5448079 -0.50361347 -0.15632373 1 2840064 0 35 0 0
3.533591 -0.52415913 -0.15596801 1 2840064 0 35 0 0
3.522423 -0.54461175 -0.15561962 1 2840064 0 35 0 0
4.1270666 0.58633596 -0.23409867 1 2840064 0 36 0 0
4.11198 0.55847454 -0.23304415 1 2840064 0 36 0 0
4.0970254 0.53086179 -0.23200756 1 2840064 0 36 0 0
4.082201 0.50349224 -0.23098886 1 2840064 0 36 0 0
4.0675039 0.47636095 -0.22998732 1 2840064 0 36 0 0
4.0529308 0.44946223 -0.22900313 1 2840064 0 36 0 0
4.0384798 0.42279181 -0.22803569 1 2840064 0 36 0 0
4.024148 0.3963446 -0.22708482 1 2840064 0 36 0 0
4.009932 0.37011573 -0.22615021 1 2840064 0 36 0 0
3.9958303 0.34410045 -0.22523171 1 2840064 0 36 0 0
3.9818404 0.31829491 -0.22432876 1 2840064 0 36 0 0
3.9679601 0.29269433 -0.22344142 1 2840064 0 36 0 0
3.9541862 0.26729411 -0.22256929 1 2840064 0 36 0 0
3.9405179 0.24209091 -0.22171223 1 2840064 0 36 0 0
3.9269514 0.21707977 -0.22086966 1 2840064 0 36 0 0
3.9134855 0.19225724 -0.22004175 1 2840064 0 36 0 0
3.9001176 0.16761842 -0.21922833 1 2840064 0 36 0 0
3.8868465 0.14316081 -0.21842879 1 2840064 0 36 0 0
3.8736694 0.11887977 -0.21764296 1 2840064 0 36 0 0
3.8605843 0.094771653 -0.2168712 1 2840064 0 36 0 0
3.8475893 0.07083308 -0.21611267 1 2840064 0 36 0 0
3.8346829 0.047060303 -0.2153675 1 2840064 0 36 0 0
3.8218629 0.023450371 -0.21463531 1 2840064 0 36 0 0
3.8091278 -4.4882296e-07 -0.213916 1 2840064 0 36 0 0
3.7964752 -0.023295525 -0.21320945 1 2840064 0 36 0 0
3.7839036 -0.046438407 -0.21251547 1 2840064 0 36 0 0
3.7714117 -0.069431625 -0.21183383 1 2840064 0 36 0 0
3.7589979 -0.092277259 -0.21116459 1 2840064 0 36 0 0
3.7466598 -0.11498135 -0.21050704 1 2840064 0 36 0 0
3.7343962 -0.13754517 -0.20986146 1 2840064 0 36 0 0
3.7222054 -0.15997194 -0.20922762 1 2840064 0 36 0 0
3.7100859 -0.18226416 -0.20860535 1 2840064 0 36 0 0
3.6980362 -0.20442516 -0.20799434 1 2840064 0 36 0 0
3.6860549 -0.22645696 -0.20739466 1 2840064 0 36 0 0
3.67414 -0.2483636 -0.20680618 1 2840064 0 36 0 0
3.6622908 -0.27014643 -0.20622879 1 2840064 0 36 0 0
3.6505055 -0.29180861 -0.20566201 1 2840064 0 36 0 0
3.638783 -0.313353 -0.20510608 1 2840064 0 36 0 0
3.6271214 -0.33478171 -0.20456064 1 2840064 0 36 0 0
3.6155193 -0.35609728 -0.20402569 1 2840064 0 36 0 0
3.603976 -0.37730256 -0.20350105 1 2840064 0 36 0 0
3.5924907 -0.39839956 -0.20298684 1 2840064 0 36 0 0
3.5810606 -0.41939095 -0.20248264 1 2840064 0 36 0 0
3.5696852 -0.44027892 -0.2019884 1 2840064 0 36 0 0
3.5583637 -0.4610655 -0.20150399 1 2840064 0 36 0 0
3.5470936 -0.4817535 -0.20102942 1 2840064 0 36 0 0
3.5358751 -0.50234449 -0.2005645 1 2840064 0 36 0 0
3.5247064 -0.52284133 -0.20010924 1 2840064 0 36 0 0
4.1300678 0.61263698 -0.28673238 1 2840064 0 37 0 0
4.1149459 0.5846138 -0.28542835 1 2840064 0 37 0 0
4.0999584 0.55684221 -0.28414625 1 2840064 0 37 0 0
4.0851007 0.52931672 -0.28288609 1 2840064 0 37 0 0
4.0703716 0.50203347 -0.28164738 1 2840064 0 37 0 0
4.055768 0.4749864 -0.28043002 1 2840064 0 37 0 0
4.0412869 0.4481712 -0.27923328 1 2840064 0 37 0 0
4.026926 0.42158237 -0.27805704 1 2840064 0 37 0 0
4.0126829 0.39521536 -0.27690095 1 2840064 0 37 0 0
3.9985547 0.36906585 -0.27576452 1 2840064 0 37 0 0
3.9845388 0.34312835 -0.27464753 1 2840064 0 37 0 0
3.970633 0.31739914 -0.27354985 1 2840064 0 37 0 0
3.9568362 0.2918742 -0.27247077 1 2840064 0 37 0 0
3.9431443 0.26654819 -0.27141017 1 2840064 0 37 0 0
3.9295559 0.24141778 -0.2703678 1 2840064 0 37 0 0
3.9160686 0.21647817 -0.26934344 1 2840064 0 37 0 0
3.9026806 0.19172627 -0.26833659 1 2840064 0 37 0 0
3.8893895 0.16715746 -0.26734728 1 2840064 0 37 0 0
3.876194 0.14276876 -0.26637477 1 2840064 0 37 0 0
3.8630908 0.11855505 -0.26541942 1 2840064 0 37 0 0
3.8500786 0.094513707 -0.26448065 1 2840064 0 37 0 0
3.8371553 0.07064078 -0.26355821 1 2840064 0 37 0 0
3.8243203 0.046933684 -0.26265174 1 2840064 0 37 0 0
3.8115697 0.023387462 -0.26176125 1 2840064 0 37 0 0
3.7989028 -3.4272671e-07 -0.26088649 1 2840064 0 37 0 0
3.7863181 -0.023233457 -0.26002711 1 2840064 0 37 0 0
3.7738128 -0.046314582 -0.25918299 1 2840064 0 37 0 0
3.7613864 -0.06924732 -0.25835377 1 2840064 0 37 0 0
3.7490373 -0.092032917 -0.25753969 1 2840064 0 37 0 0
3.7367625 -0.11467768 -0.25673991 1 2840064 0 37 0 0
3.7245617 -0.13718298 -0.25595468 1 2840064 0 37 0 0
3.7124321 -0.15955192 -0.25518364 1 2840064 0 37 0 0
3.7003734 -0.18178707 -0.25442654 1 2840064 0 37 0 0
3.6883836 -0.20389144 -0.25368339 1 2840064 0 37 0 0
3.6764615 -0.22586758 -0.25295383 1 2840064 0 37 0 0
3.6646047 -0.24771886 -0.25223798 1 2840064 0 37 0 0
3.6528127 -0.26944706 -0.25153536 1 2840064 0 37 0 0
3.641084 -0.29105553 -0.25084603 1 2840064 0 37 0 0
3.6294167 -0.31254652 -0.25016969 1 2840064 0 37 0 0
3.6178093 -0.33392239 -0.24950618 1 2840064 0 37 0 0
3.6062617 -0.35518557 -0.24885535 1 2840064 0 37 0 0
3.5947719 -0.37633908 -0.24821711 1 2840064 0 37 0 0
3.5833385 -0.39738479 -0.24759132 1 2840064 0 37 0 0
3.5719604 -0.41832533 -0.24697793 1 2840064 0 37 0 0
3.5606363 -0.43916279 -0.24637663 1 2840064 0 37 0 0
3.5493646 -0.45989975 -0.24578738 1 2840064 0 37 0 0
3.5381448 -0.48053783 -0.24520987 1 2840064 0 37 0 0
3.5269749 -0.50107998 -0.24464434 1 2840064 0 37 0 0
4.073225 0.52777821 -0.33355588 1 2840064 0 38 0 0
4.0585904 0.50058043 -0.33209962 1 2840064 0 38 0 0
4.0440793 0.47361732 -0.33066839 1 2840064 0 38 0 0
4.0296893 0.4468846 -0.32926136 1 2840064 0 38 0 0
4.0154185 0.42037749 -0.3278783 1 2840064 0 38 0 0
4.0012636 0.39409083 -0.32651895 1 2840064 0 38 0 0
3.987222 0.36801964 -0.32518262 1 2840064 0 38 0 0
3.9732912 0.34215966 -0.32386929 1 2840064 0 38 0 0
3.9594698 0.3165068 -0.32257825 1 2840064 0 38 0 0
3.9457552 0.29105651 -0.32130939 1 2840064 0 38 0 0
3.9321446 0.26580477 -0.32006234 1 2840064 0 38 0 0
3.9186361 0.24074677 -0.31883663 1 2840064 0 38 0 0
3.9052277 0.21587899 -0.31763178 1 2840064 0 38 0 0
3.891917 0.19119753 -0.31644756 1 2840064 0 38 0 0
3.8787024 0.16669835 -0.31528407 1 2840064 0 38 0 0
3.865581 0.14237761 -0.31414062 1 2840064 0 38 0 0
3.8525517 0.11823159 -0.31301695 1 2840064 0 38 0 0
3.839612 0.094256781 -0.31191272 1 2840064 0 38 0 0
3.8267608 0.070449702 -0.31082779 1 2840064 0 38 0 0
3.8139954 0.046806682 -0.3097617 1 2840064 0 38 0 0
3.8013139 0.02332438 -0.30871433 1 2840064 0 38 0 0
3.7887158 -2.0980835e-07 -0.30768532 1 2840064 0 38 0 0
3.7761974 -0.023171138 -0.30667454 1 2840064 0 38 0 0
3.7637584 -0.046191391 -0.30568165 1 2840064 0 38 0 0
3.7513969 -0.069063425 -0.30470639 1 2840064 0 38 0 0
3.7391124 -0.091788948 -0.30374855 1 2840064 0 38 0 0
3.7269008 -0.11437509 -0.30280799 1 2840064 0 38 0 0
3.714762 -0.13682206 -0.30188411 1 2840064 0 38 0 0
3.7026939 -0.15913333 -0.30097717 1 2840064 0 38 0 0
3.6906953 -0.18131161 -0.30008656 1 2840064 0 38 0 0
3.6787651 -0.20335987 -0.2992124 1 2840064 0 38 0 0
3.6669011 -0.22528043 -0.29835421 1 2840064 0 38 0 0
3.6551025 -0.24707635 -0.29751199 1 2840064 0 38 0 0
3.6433675 -0.26875037 -0.2966854 1 2840064 0 38 0 0
3.6316946 -0.29030484 -0.2958743 1 2840064 0 38 0 0
3.6200824 -0.31174251 -0.29507869 1 2840064 0 38 0 0
3.6085303 -0.33306563 -0.29429799 1 2840064 0 38 0 0
3.5970361 -0.35427684 -0.29353231 1 2840064 0 38 0 0
3.5855989 -0.37537846 -0.29278141 1 2840064 0 38 0 0
3.574218 -0.39637324 -0.2920453 1 2840064 0 38 0 0
3.5628912 -0.41726309 -0.2913236 1 2840064 0 38 0 0
3.5516174 -0.43805039 -0.29061598 1 2840064 0 38 0 0
3.5403957 -0.45873755 -0.28992277 1 2840064 0 38 0 0
3.5292251 -0.47932661 -0.28924328 1 2840064 0 38 0 0
4.0181351 0.44560328 -0.37910336 1 2840064 0 39 0 0
4.0039535 0.41917697 -0.37751538 1 2840064 0 39 0 0
3.9898858 0.39297014 -0.37595481 1 2840064 0 39 0 0
3.9759305 0.3669773 -0.37442058 1 2840064 0 39 0 0
3.9620848 0.34119463 -0.37291259 1 2840064 0 39 0 0
3.9483469 0.31561768 -0.37143022 1 2840064 0 39 0 0
3.9347143 0.29024228 -0.36997324 1 2840064 0 39 0 0
3.9211843 0.2650637 -0.3685413 1 2840064 0 39 0 0
3.9077551 0.24007832 -0.36713368 1 2840064 0 39 0 0
3.8944249 0.21528199 -0.36575025 1 2840064 0 39 0 0
3.881191 0.19067071 -0.36439067 1 2840064 0 39 0 0
3.8680518 0.16624044 -0.36305457 1 2840064 0 39 0 0
3.855005 0.14198796 -0.36174136 1 2840064 0 39 0 0
3.8420486 0.11790902 -0.36045092 1 2840064 0 39 0 0
3.8291817 0.094000928 -0.35918278 1 2840064 0 39 0 0
3.816401 0.070259131 -0.35793668 1 2840064 0 39 0 0
3.8037055 0.046680544 -0.3567124 1 2840064 0 39 0 0
3.7910931 0.023261633 -0.3555097 1 2840064 0 39 0 0
3.7785618 -6.2465665e-07 -0.35432798 1 2840064 0 39 0 0
3.7661107 -0.023109583 -0.35316688 1 2840064 0 39 0 0
3.7537377 -0.046068173 -0.3520264 1 2840064 0 39 0 0
3.7414405 -0.068880156 -0.35090643 1 2840064 0 39 0 0
3.7292197 -0.09154655 -0.34980637 1 2840064 0 39 0 0
3.7170708 -0.11407343 -0.34872586 1 2840064 0 39 0 0
3.7049937 -0.13646221 -0.34766477 1 2840064 0 39 0 0
3.6929867 -0.15871629 -0.34662288 1 2840064 0 39 0 0
3.6810484 -0.18083771 -0.34560007 1 2840064 0 39 0 0
3.6691771 -0.20282973 -0.34459585 1 2840064 0 39 0 0
3.6573718 -0.22469473 -0.34360999 1 2840064 0 39 0 0
3.6456301 -0.24643627 -0.34264261 1 2840064 0 39 0 0
3.6339517 -0.26805598 -0.3416931 1 2840064 0 39 0 0
3.6223342 -0.28955698 -0.34076148 1 2840064 0 39 0 0
3.6107776 -0.31094125 -0.33984739 1 2840064 0 39 0 0
3.5992794 -0.33221206 -0.33895069 1 2840064 0 39 0 0
3.5878386 -0.35337123 -0.33807105 1 2840064 0 39 0 0
3.5764544 -0.3744213 -0.33720845 1 2840064 0 39 0 0
3.565125 -0.39536488 -0.33636266 1 2840064 0 39 0 0
3.5538495 -0.41620418 -0.33553356 1 2840064 0 39 0 0
3.5426261 -0.43694144 -0.33472079 1 2840064 0 39 0 0
3.5314543 -0.45757887 -0.33392423 1 2840064 0 39 0 0
3.9646766 0.3659386 -0.42349476 1 2840064 0 40 0 0
3.9509153 0.34023297 -0.42179388 1 2840064 0 40 0 0
3.9372604 0.31473136 -0.42012221 1 2840064 0 40 0 0
3.9237089 0.28943059 -0.41847867 1 2840064 0 40 0 0
3.9102592 0.26432508 -0.41686362 1 2840064 0 40 0 0
3.896909 0.23941192 -0.41527575 1 2840064 0 40 0 0
3.8836563 0.21468666 -0.41371542 1 2840064 0 40 0 0
3.8704989 0.19014551 -0.41218168 1 2840064 0 40 0 0
3.857435 0.16578428 -0.41067427 1 2840064 0 40 0 0
3.8444622 0.14159995 -0.40919298 1 2840064 0 40 0 0
3.8315785 0.11758792 -0.40773731 1 2840064 0 40 0 0
3.8187828 0.093745552 -0.4063068 1 2840064 0 40 0 0
3.8060727 0.070068732 -0.40490133 1 2840064 0 40 0 0
3.7934465 0.046554465 -0.40351993 1 2840064 0 40 0 0
3.7809026 0.023199167 -0.40216285 1 2840064 0 40 0 0
3.7684388 -7.0810319e-07 -0.40082949 1 2840064 0 40 0 0
3.7560544 -0.023047885 -0.39951962 1 2840064 0 40 0 0
3.7437465 -0.045945771 -0.398233 1 2840064 0 40 0 0
3.7315142 -0.068697378 -0.39696926 1 2840064 0 40 0 0
3.7193565 -0.091304109 -0.39572817 1 2840064 0 40 0 0
3.7072701 -0.11377258 -0.39450902 1 2840064 0 40 0 0
3.6952548 -0.13610318 -0.3933118 1 2840064 0 40 0 0
3.6833084 -0.15830006 -0.39213628 1 2840064 0 40 0 0
3.6714294 -0.18036501 -0.39098209 1 2840064 0 40 0 0
3.6596169 -0.20230119 -0.38984901 1 2840064 0 40 0 0
3.6478691 -0.22411118 -0.38873678 1 2840064 0 40 0 0
3.6361849 -0.24579772 -0.38764495 1 2840064 0 40 0 0
3.6245623 -0.26736349 -0.38657361 1 2840064 0 40 0 0
3.6130006 -0.28881091 -0.38552231 1 2840064 0 40 0 0
3.6014984 -0.31014258 -0.38449079 1 2840064 0 40 0 0
3.5900543 -0.33136061 -0.38347882 1 2840064 0 40 0 0
3.5786669 -0.3524676 -0.38248628 1 2840064 0 40 0 0
3.5673351 -0.37346643 -0.38151282 1 2840064 0 40 0 0
3.5560575 -0.39435902 -0.38055819 1 2840064 0 40 0 0
3.5448325 -0.41514805 -0.37962252 1 2840064 0 40 0 0
3.5336597 -0.4358353 -0.37870532 1 2840064 0 40 0 0
3.9127364 0.28862095 -0.46684128 1 2840064 0 41 0 0
3.8993664 0.26358896 -0.46504444 1 2840064 0 41 0 0
3.8860946 0.2387477 -0.46327788 1 2840064 0 41 0 0
3.8729188 0.21409316 -0.46154195 1 2840064 0 41 0 0
3.8598375 0.18962169 -0.45983571 1 2840064 0 41 0 0
3.846848 0.16532911 -0.45815855 1 2840064 0 41 0 0
3.8339486 0.14121255 -0.4565106 1 2840064 0 41 0 0
3.8211379 0.11726765 -0.45489103 1 2840064 0 41 0 0
3.808413 0.093490802 -0.45329958 1 2840064 0 41 0 0
3.7957735 0.069879256 -0.45173544 1 2840064 0 41 0 0
3.7832165 0.046429012 -0.45019871 1 2840064 0 41 0 0
3.7707405 0.023136925 -0.44868869 1 2840064 0 41 0 0
3.7583439 -5.9604645e-07 -0.44720525 1 2840064 0 41 0 0
3.7460251 -0.022986317 -0.44574767 1 2840064 0 41 0 0
3.7337823 -0.045823481 -0.44431597 1 2840064 0 41 0 0
3.7216136 -0.068515144 -0.44290966 1 2840064 0 41 0 0
3.7095191 -0.091062561 -0.4415285 1 2840064 0 41 0 0
3.697495 -0.1134724 -0.44017178 1 2840064 0 41 0 0
3.6855404 -0.13574575 -0.43883973 1 2840064 0 41 0 0
3.6736543 -0.15788524 -0.43753141 1 2840064 0 41 0 0
3.661835 -0.17989369 -0.43624693 1 2840064 0 41 0 0
3.6500812 -0.20177412 -0.43498617 1 2840064 0 41 0 0
3.638391 -0.2235288 -0.43374819 1 2840064 0 41 0 0
3.6267631 -0.24516109 -0.43253332 1 2840064 0 41 0 0
3.6151967 -0.26667285 -0.43134099 1 2840064 0 41 0 0
3.6036906 -0.28806645 -0.43017071 1 2840064 0 41 0 0
3.5922427 -0.30934528 -0.42902273 1 2840064 0 41 0 0
3.5808523 -0.33051112 -0.42789656 1 2840064 0 41 0 0
3.5695179 -0.35156637 -0.42679185 1 2840064 0 41 0 0
3.558238 -0.37251395 -0.42570835 1 2840064 0 41 0 0
3.5470114 -0.39335611 -0.42464596 1 2840064 0 41 0 0
3.5366962 -0.41419518 -0.42370731 1 2840064 0 41 0 0
3.8622091 0.21350126 -0.50924593 1 2840064 0 42 0 0
3.8492033 0.1890994 -0.50736827 1 2840064 0 42 0 0
3.8362877 0.16487546 -0.50552303 1 2840064 0 42 0 0
3.8234618 0.14082639 -0.50370973 1 2840064 0 42 0 0
3.8107228 0.11694779 -0.50192755 1 2840064 0 42 0 0
3.7980697 0.093237296 -0.50017589 1 2840064 0 42 0 0
3.7854996 0.069690056 -0.49845487 1 2840064 0 42 0 0
3.773011 0.046303678 -0.49676389 1 2840064 0 42 0 0
3.760603 0.023074498 -0.49510211 1 2840064 0 42 0 0
3.7482729 -4.5537948e-07 -0.49346954 1 2840064 0 42 0 0
3.7360196 -0.022925282 -0.49186569 1 2840064 0 42 0 0
3.7238414 -0.045701675 -0.49029011 1 2840064 0 42 0 0
3.7117367 -0.068333469 -0.48874217 1 2840064 0 42 0 0
3.6997049 -0.090822048 -0.48722225 1 2840064 0 42 0 0
3.6877425 -0.11317322 -0.48572904 1 2840064 0 42 0 0
3.675849 -0.13538875 -0.484263 1 2840064 0 42 0 0
3.6640227 -0.15747118 -0.48282307 1 2840064 0 42 0 0
3.6522624 -0.1794235 -0.48140949 1 2840064 0 42 0 0
3.6405661 -0.2012483 -0.48002154 1 2840064 0 42 0 0
3.6289334 -0.22294822 -0.47865909 1 2840064 0 42 0 0
3.6173623 -0.24452575 -0.47732192 1 2840064 0 42 0 0
3.6058519 -0.26598349 -0.47600943 1 2840064 0 42 0 0
3.5944009 -0.28732398 -0.47472137 1 2840064 0 42 0 0
3.5830073 -0.30854967 -0.47345775 1 2840064 0 42 0 0
3.5716701 -0.3296636 -0.47221798 1 2840064 0 42 0 0
3.5603881 -0.35066739 -0.47100204 1 2840064 0 42 0 0
3.5491605 -0.37156358 -0.46980959 1 2840064 0 42 0 0
3.8129983 0.14044107 -0.55080527 1 2840064 0 43 0 0
3.8003306 0.11662894 -0.5488618 1 2840064 0 43 0 0
3.7877476 0.092983581 -0.54695183 1 2840064 0 43 0 0
3.7752471 0.069501363 -0.54507488 1 2840064 0 43 0 0
3.7628274 0.046178855 -0.54323047 1 2840064 0 43 0 0
3.7504864 0.023012476 -0.54141825 1 2840064 0 43 0 0
3.7382228 -3.6239624e-07 -0.53963786 1 2840064 0 43 0 0
3.7260346 -0.02286404 -0.53788859 1 2840064 0 43 0 0
3.7139211 -0.045579795 -0.53616995 1 2840064 0 43 0 0
3.7018795 -0.068151996 -0.53448194 1 2840064 0 43 0 0
3.6899102 -0.090581283 -0.53282398 1 2840064 0 43 0 0
3.6780093 -0.11287447 -0.53119546 1 2840064 0 43 0 0
3.6661761 -0.13503265 -0.52959615 1 2840064 0 43 0 0
3.6544096 -0.15705794 -0.52802557 1 2840064 0 43 0 0
3.6427081 -0.17895396 -0.5264836 1 2840064 0 43 0 0
3.6310701 -0.20072339 -0.52496976 1 2840064 0 43 0 0
3.6194944 -0.22236833 -0.52348357 1 2840064 0 43 0 0
3.60798 -0.24389133 -0.52202505 1 2840064 0 43 0 0
3.596525 -0.26529548 -0.52059346 1 2840064 0 43 0 0
3.5851288 -0.28658277 -0.51918823 1 2840064 0 43 0 0
3.5737889 -0.30775613 -0.51780993 1 2840064 0 43 0 0
3.5625048 -0.32881781 -0.5164575 1 2840064 0 43 0 0
3.5512753 -0.34977004 -0.51513106 1 2840064 0 43 0 0
3.7650137 0.069312885 -0.59160942 1 2840064 0 44 0 0
3.7526619 0.046053723 -0.58961302 1 2840064 0 44 0 0
3.7403884 0.022950727 -0.58765143 1 2840064 0 44 0 0
3.7281909 -3.2782555e-07 -0.58572406 1 2840064 0 44 0 0
3.7160678 -0.022802228 -0.58383054 1 2840064 0 44 0 0
3.7040179 -0.045458131 -0.58197016 1 2840064 0 44 0 0
3.6920397 -0.067970395 -0.5801428 1 2840064 0 44 0 0
3.6801322 -0.090341277 -0.57834786 1 2840064 0 44 0 0
3.6682925 -0.11257633 -0.57658488 1 2840064 0 44 0 0
3.6565197 -0.13467692 -0.5748536 1 2840064 0 44 0 0
3.6448128 -0.15664537 -0.57315344 1 2840064 0 44 0 0
3.6331699 -0.1784855 -0.57148403 1 2840064 0 44 0 0
3.6215899 -0.20019899 -0.56984502 1 2840064 0 44 0 0
3.6100714 -0.2217889 -0.56823605 1 2840064 0 44 0 0
3.5986125 -0.24325795 -0.56665677 1 2840064 0 44 0 0
3.587213 -0.2646085 -0.56510657 1 2840064 0 44 0 0
3.575871 -0.28584254 -0.56358558 1 2840064 0 44 0 0
3.564585 -0.3069635 -0.56209296 1 2840064 0 44 0 0
3.5533538 -0.32797331 -0.56062895 1 2840064 0 44 0 0
3.718173 -5.2392483e-07 -0.63174313 1 2840064 0 45 0 0
3.706115 -0.022741312 -0.6297062 1 2840064 0 45 0 0
3.694129 -0.045336578 -0.62770504 1 2840064 0 45 0 0
3.6822133 -0.067789555 -0.62573928 1 2840064 0 45 0 0
3.670368 -0.090101294 -0.62380832 1 2840064 0 45 0 0
3.6585894 -0.1122783 -0.62191182 1 2840064 0 45 0 0
3.6468768 -0.13432176 -0.62004966 1 2840064 0 45 0 0
3.6352289 -0.15623359 -0.61822027 1 2840064 0 45 0 0
3.6236444 -0.17801741 -0.6164245 1 2840064 0 45 0 0
3.6121218 -0.19967559 -0.61466116 1 2840064 0 45 0 0
3.6006596 -0.22121078 -0.61293024 1 2840064 0 45 0 0
3.5892575 -0.2426254 -0.61123115 1 2840064 0 45 0 0
3.5779128 -0.26392242 -0.60956365 1 2840064 0 45 0 0
3.5666249 -0.2851035 -0.60792714 1 2840064 0 45 0 0
3.5553923 -0.30617175 -0.60632139 1 2840064 0 45 0 0
3.6723981 -0.067608982 -0.67128593 1 2840064 0 46 0 0
3.6606143 -0.089862093 -0.66922015 1 2840064 0 46 0 0
3.6488965 -0.11198106 -0.66719097 1 2840064 0 46 0 0
3.6372435 -0.13396676 -0.66519815 1 2840064 0 46 0 0
3.6256549 -0.15582228 -0.66324109 1 2840064 0 46 0 0
3.6141284 -0.1775502 -0.66131932 1 2840064 0 46 0 0
3.6026633 -0.19915296 -0.65943259 1 2840064 0 46 0 0
3.5912578 -0.22063366 -0.65758044 1 2840064 0 46 0 0
3.5799108 -0.24199404 -0.65576226 1 2840064 0 46 0 0
3.5686212 -0.26323691 -0.65397793 1 2840064 0 46 0 0
3.5573874 -0.28436518 -0.65222675 1 2840064 0 46 0 0
3.6276176 -0.13361239 -0.71031338 1 2840064 0 47 0 0
3.6160877 -0.1554113 -0.70822912 1 2840064 0 47 0 0
3.6046193 -0.17708288 -0.70618254 1 2840064 0 47 0 0
3.5932112 -0.19863068 -0.70417303 1 2840064 0 47 0 0
3.5818622 -0.22005615 -0.70220035 1 2840064 0 47 0 0
3.5705709 -0.2413625 -0.70026392 1 2840064 0 47 0 0
3.5593359 -0.26255214 -0.69836336 1 2840064 0 47 0 0
3.5837631 -0.19810814 -0.74889642 1 2840064 0 48 0 0
3.5724699 -0.21947911 -0.74680382 1 2840064 0 48 0 0
3.5612338 -0.24073155 -0.74474972 1 2840064 0 48 0 0
