# .PCD v0.7 - Point Cloud Data file format
VERSION 0.7
FIELDS x y z intensity t reflectivity ring noise range
SIZE 4 4 4 4 4 2 2 2 4
TYPE F F F F U U U U U
COUNT 1 1 1 1 1 1 1 1 1
WIDTH 643
HEIGHT 1
VIEWPOINT 0 0 0 1 0 0 0
POINTS 643
DATA ascii
4.0944767 0.15080826 0.64370614 1 2784068096 0 19 0 0
4.0944848 0.12565623 0.643574 1 2784068096 0 19 0 0
4.094492 0.1005137 0.64346611 1 2784068096 0 19 0 0
4.0944972 0.075378582 0.64338213 1 2784068096 0 19 0 0
4.0976586 0.30226165 0.59313166 1 2784068096 0 20 0 0
4.0976748 0.27699408 0.59287685 1 2784068096 0 20 0 0
4.0976892 0.2517471 0.59264421 1 2784068096 0 20 0 0
4.097703 0.22651899 0.59243405 1 2784068096 0 20 0 0
4.0977144 0.2013077 0.59224606 1 2784068096 0 20 0 0
4.0977249 0.17611143 0.59208012 1 2784068096 0 20 0 0
4.097734 0.15092817 0.59193647 1 2784068096 0 20 0 0
4.0977416 0.12575622 0.59181499 1 2784068096 0 20 0 0
4.0977478 0.10059363 0.59171569 1 2784068096 0 20 0 0
4.0977526 0.075438514 0.59163833 1 2784068096 0 20 0 0
4.1008234 0.42931855 0.54283428 1 2784068096 0 21 0 0
4.1008444 0.40389827 0.54249865 1 2784068096 0 21 0 0
4.1008639 0.3785086 0.54218388 1 2784068096 0 21 0 0
4.1008825 0.35314727 0.54188961 1 2784068096 0 21 0 0
4.1009002 0.32781222 0.54161584 1 2784068096 0 21 0 0
4.1009159 0.30250189 0.54136264 1 2784068096 0 21 0 0
4.1009307 0.27721417 0.54112995 1 2784068096 0 21 0 0
4.100944 0.25194702 0.54091752 1 2784068096 0 21 0 0
4.100956 0.22669882 0.54072547 1 2784068096 0 21 0 0
4.1009665 0.20146745 0.54055375 1 2784068096 0 21 0 0
4.1009765 0.17625107 0.54040205 1 2784068096 0 21 0 0
4.1009846 0.1510479 0.54027098 1 2784068096 0 21 0 0
4.1009912 0.12585594 0.54015988 1 2784068096 0 21 0 0
4.100997 0.10067338 0.54006916 1 2784068096 0 21 0 0
4.1010017 0.075498305 0.53999847 1 2784068096 0 21 0 0
4.1010046 0.050328836 0.53994817 1 2784068096 0 21 0 0
4.1039705 0.55738693 0.49281427 1 2784068096 0 22 0 0
4.1039953 0.53176498 0.4924162 1 2784068096 0 22 0 0
4.1040192 0.50618321 0.49203718 1 2784068096 0 22 0 0
4.1040421 0.48063982 0.49167702 1 2784068096 0 22 0 0
4.104063 0.45513266 0.49133581 1 2784068096 0 22 0 0
4.1040835 0.42965972 0.49101332 1 2784068096 0 22 0 0
4.1041026 0.40421921 0.49070957 1 2784068096 0 22 0 0
4.1041203 0.37880915 0.49042466 1 2784068096 0 22 0 0
4.1041369 0.35342747 0.49015823 1 2784068096 0 22 0 0
4.1041527 0.32807219 0.48991039 1 2784068096 0 22 0 0
4.1041675 0.30274171 0.48968124 1 2784068096 0 22 0 0
4.1041803 0.27743378 0.48947048 1 2784068096 0 22 0 0
4.1041927 0.2521466 0.4892782 1 2784068096 0 22 0 0
4.1042037 0.22687827 0.48910439 1 2784068096 0 22 0 0
4.1042132 0.20162688 0.48894882 1 2784068096 0 22 0 0
4.1042223 0.17639057 0.48881161 1 2784068096 0 22 0 0
4.1042295 0.15116741 0.48869294 1 2784068096 0 22 0 0
4.1042361 0.12595554 0.48859251 1 2784068096 0 22 0 0
4.1042409 0.10075298 0.48851028 1 2784068096 0 22 0 0
4.1042452 0.075557992 0.48844638 1 2784068096 0 22 0 0
4.104248 0.050368637 0.48840073 1 2784068096 0 22 0 0
4.1042495 0.025183024 0.48837343 1 2784068096 0 22 0 0
4.1071372 0.66084325 0.44247377 1 2784068096 0 23 0 0
4.1071639 0.63501906 0.44204855 1 2784068096 0 23 0 0
4.1071897 0.60924309 0.44164068 1 2784068096 0 23 0 0
4.1072145 0.5835157 0.44125 1 2784068096 0 23 0 0
4.1072378 0.55783063 0.44087648 1 2784068096 0 23 0 0
4.1072602 0.53218788 0.44052002 1 2784068096 0 23 0 0
4.1072817 0.50658566 0.44018072 1 2784068096 0 23 0 0
4.1073017 0.48102173 0.43985832 1 2784068096 0 23 0 0
4.1073208 0.45549399 0.43955278 1 2784068096 0 23 0 0
4.1073394 0.43000066 0.439264 1 2784068096 0 23 0 0
4.1073565 0.40453973 0.43899214 1 2784068096 0 23 0 0
4.1073728 0.37910923 0.43873698 1 2784068096 0 23 0 0
4.1073875 0.35370734 0.43849856 1 2784068096 0 23 0 0
4.1074014 0.32833195 0.43827656 1 2784068096 0 23 0 0
4.1074142 0.3029812 0.43807134 1 2784068096 0 23 0 0
4.1074262 0.27765322 0.43788278 1 2784068096 0 23 0 0
4.1074371 0.25234592 0.43771055 1 2784068096 0 23 0 0
4.1074467 0.22705762 0.4375549 1 2784068096 0 23 0 0
4.1074557 0.20178618 0.43741566 1 2784068096 0 23 0 0
4.1074634 0.17652988 0.43729287 1 2784068096 0 23 0 0
4.10747 0.15128681 0.43718663 1 2784068096 0 23 0 0
4.1074758 0.12605499 0.43709669 1 2784068096 0 23 0 0
4.1074805 0.10083255 0.43702313 1 2784068096 0 23 0 0
4.1074839 0.075617649 0.43696588 1 2784068096 0 23 0 0
4.1074862 0.050408397 0.4369249 1 2784068096 0 23 0 0
4.1074882 0.025202898 0.43690047 1 2784068096 0 23 0 0
4.1074886 -7.1525574e-07 0.43689224 1 2784068096 0 23 0 0
4.1102805 0.7913987 0.39251354 1 2784068096 0 24 0 0
4.1103091 0.76527882 0.39206043 1 2784068096 0 24 0 0
4.1103368 0.73921859 0.39162317 1 2784068096 0 24 0 0
4.1103635 0.71321493 0.39120129 1 2784068096 0 24 0 0
4.1103888 0.68726647 0.39079499 1 2784068096 0 24 0 0
4.1104136 0.66137028 0.39040413 1 2784068096 0 24 0 0
4.1104369 0.63552499 0.39002863 1 2784068096 0 24 0 0
4.1104593 0.60972822 0.38966852 1 2784068096 0 24 0 0
4.1104813 0.58397979 0.38932356 1 2784068096 0 24 0 0
4.1105018 0.55827385 0.38899377 1 2784068096 0 24 0 0
4.1105218 0.53261048 0.38867897 1 2784068096 0 24 0 0
4.1105404 0.50698745 0.38837934 1 2784068096 0 24 0 0
4.1105585 0.48140302 0.3880946 1 2784068096 0 24 0 0
4.1105757 0.45585486 0.38782474 1 2784068096 0 24 0 0
4.1105914 0.43034112 0.38756993 1 2784068096 0 24 0 0
4.1106067 0.40485996 0.38732985 1 2784068096 0 24 0 0
4.110621 0.37940902 0.38710442 1 2784068096 0 24 0 0
4.1106339 0.35398695 0.3868939 1 2784068096 0 24 0 0
4.1106467 0.32859129 0.38669798 1 2784068096 0 24 0 0
4.1106577 0.30322054 0.3865169 1 2784068096 0 24 0 0
4.1106687 0.27787229 0.38635021 1 2784068096 0 24 0 0
4.1106777 0.25254506 0.38619816 1 2784068096 0 24 0 0
4.1106863 0.22723664 0.38606066 1 2784068096 0 24 0 0
4.1106939 0.2019453 0.38593778 1 2784068096 0 24 0 0
4.1107011 0.17666902 0.38582936 1 2784068096 0 24 0 0
4.1107073 0.15140601 0.38573551 1 2784068096 0 24 0 0
4.1107121 0.12615427 0.38565606 1 2784068096 0 24 0 0
4.1107163 0.10091196 0.38559115 1 2784068096 0 24 0 0
4.1107192 0.075677201 0.3855406 1 2784068096 0 24 0 0
4.1107216 0.050448079 0.38550442 1 2784068096 0 24 0 0
4.110723 0.025222745 0.38548279 1 2784068096 0 24 0 0
4.1107235 -7.2181223e-07 0.38547564 1 2784068096 0 24 0 0
4.110723 -0.025224177 0.38548285 1 2784068096 0 24 0 0
4.1134348 0.92370254 0.34237501 1 2784068096 0 25 0 0
4.1134644 0.89723271 0.34191281 1 2784068096 0 25 0 0
4.1134925 0.87083268 0.34146455 1 2784068096 0 25 0 0
4.1135197 0.84450078 0.34103024 1 2784068096 0 25 0 0
4.1135464 0.81823486 0.34060976 1 2784068096 0 25 0 0
4.1135721 0.79203206 0.34020302 1 2784068096 0 25 0 0
4.1135964 0.76589096 0.33981007 1 2784068096 0 25 0 0
4.1136203 0.73980916 0.33943075 1 2784068096 0 25 0 0
4.1136432 0.71378404 0.33906478 1 2784068096 0 25 0 0
4.1136656 0.68781418 0.33871228 1 2784068096 0 25 0 0
4.1136866 0.66189694 0.33837336 1 2784068096 0 25 0 0
4.1137075 0.63603044 0.33804756 1 2784068096 0 25 0 0
4.1137271 0.61021256 0.33773515 1 2784068096 0 25 0 0
4.1137457 0.58444351 0.33743596 1 2784068096 0 25 0 0
4.1137633 0.55871707 0.33714986 1 2784068096 0 25 0 0
4.113781 0.53303266 0.33687684 1 2784068096 0 25 0 0
4.1137972 0.50738919 0.33661693 1 2784068096 0 25 0 0
4.1138129 0.48178396 0.33636999 1 2784068096 0 25 0 0
4.1138277 0.45621559 0.33613598 1 2784068096 0 25 0 0
4.1138415 0.43068129 0.33591479 1 2784068096 0 25 0 0
4.1138544 0.40517971 0.33570653 1 2784068096 0 25 0 0
4.1138668 0.37970871 0.33551115 1 2784068096 0 25 0 0
4.1138783 0.35426635 0.33532852 1 2784068096 0 25 0 0
4.1138892 0.3288506 0.33515862 1 2784068096 0 25 0 0
4.1138992 0.30345958 0.33500147 1 2784068096 0 25 0 0
4.1139083 0.27809143 0.33485696 1 2784068096 0 25 0 0
4.1139159 0.25274402 0.33472496 1 2784068096 0 25 0 0
4.1139235 0.22741564 0.33460575 1 2784068096 0 25 0 0
4.1139307 0.20210433 0.33449909 1 2784068096 0 25 0 0
4.1139364 0.17680804 0.33440506 1 2784068096 0 25 0 0
4.1139417 0.15152515 0.33432367 1 2784068096 0 25 0 0
4.113946 0.12625352 0.33425474 1 2784068096 0 25 0 0
4.1139493 0.10099135 0.33419839 1 2784068096 0 25 0 0
4.1139522 0.075736746 0.33415461 1 2784068096 0 25 0 0
4.1139541 0.050487783 0.33412331 1 2784068096 0 25 0 0
4.1139555 0.025242586 0.33410454 1 2784068096 0 25 0 0
4.113956 -7.0869919e-07 0.33409828 1 2784068096 0 25 0 0
4.1139555 -0.025244001 0.33410454 1 2784068096 0 25 0 0
4.116611 1.0580437 0.29189298 1 2784068096 0 26 0 0
4.1166396 1.0311646 0.29144081 1 2784068096 0 26 0 0
4.1166673 1.0043681 0.29100102 1 2784068096 0 26 0 0
4.116694 0.97765088 0.29057336 1 2784068096 0 26 0 0
4.1167202 0.9510107 0.290158 1 2784068096 0 26 0 0
4.1167455 0.92444611 0.28975457 1 2784068096 0 26 0 0
4.1167703 0.89795345 0.28936288 1 2784068096 0 26 0 0
4.1167941 0.87153167 0.28898343 1 2784068096 0 26 0 0
4.1168175 0.84517789 0.28861549 1 2784068096 0 26 0 0
4.1168399 0.81888992 0.28825924 1 2784068096 0 26 0 0
4.1168613 0.7926653 0.28791487 1 2784068096 0 26 0 0
4.1168823 0.76650268 0.28758207 1 2784068096 0 26 0 0
4.1169028 0.74039936 0.28726056 1 2784068096 0 26 0 0
4.1169219 0.71435308 0.28695074 1 2784068096 0 26 0 0
4.116941 0.68836182 0.28665224 1 2784068096 0 26 0 0
4.1169591 0.66242349 0.28636509 1 2784068096 0 26 0 0
4.1169763 0.63653588 0.28608918 1 2784068096 0 26 0 0
4.116993 0.61069703 0.2858246 1 2784068096 0 26 0 0
4.1170087 0.584907 0.28557122 1 2784068096 0 26 0 0
4.1170239 0.55915976 0.28532887 1 2784068096 0 26 0 0
4.1170387 0.5334549 0.28509772 1 2784068096 0 26 0 0
4.1170526 0.50779068 0.28487751 1 2784068096 0 26 0 0
4.1170654 0.48216501 0.28466833 1 2784068096 0 26 0 0
4.1170783 0.45657599 0.28447014 1 2784068096 0 26 0 0
4.1170897 0.43102142 0.28428289 1 2784068096 0 26 0 0
4.1171012 0.40549937 0.28410643 1 2784068096 0 26 0 0
4.1171112 0.38000819 0.28394097 1 2784068096 0 26 0 0
4.1171212 0.3545455 0.28378627 1 2784068096 0 26 0 0
4.1171303 0.32910961 0.28364241 1 2784068096 0 26 0 0
4.1171389 0.30369854 0.28350922 1 2784068096 0 26 0 0
4.1171465 0.27831024 0.28338686 1 2784068096 0 26 0 0
4.1171536 0.2529428 0.28327513 1 2784068096 0 26 0 0
4.1171594 0.22759448 0.2831741 1 2784068096 0 26 0 0
4.1171656 0.20226325 0.28308386 1 2784068096 0 26 0 0
4.1171703 0.17694707 0.28300419 1 2784068096 0 26 0 0
4.1171746 0.15164423 0.28293523 1 2784068096 0 26 0 0
4.117178 0.12635271 0.28287688 1 2784068096 0 26 0 0
4.1171813 0.10107069 0.2828292 1 2784068096 0 26 0 0
4.1171837 0.075796224 0.28279203 1 2784068096 0 26 0 0
4.1171851 0.050527427 0.28276551 1 2784068096 0 26 0 0
4.1171861 0.025262378 0.28274962 1 2784068096 0 26 0 0
4.1171865 -7.1763992e-07 0.28274435 1 2784068096 0 26 0 0
4.1171861 -0.025263874 0.28274962 1 2784068096 0 26 0 0
4.1171851 -0.050528858 0.28276551 1 2784068096 0 26 0 0
4.1198974 1.1129602 0.23966199 1 2784068096 0 27 0 0
4.1199222 1.0858868 0.23927134 1 2784068096 0 27 0 0
4.119946 1.0589007 0.23889095 1 2784068096 0 27 0 0
4.1199689 1.0319986 0.23852056 1 2784068096 0 27 0 0
4.1199918 1.0051792 0.23816031 1 2784068096 0 27 0 0
4.1200137 0.97843921 0.23781013 1 2784068096 0 27 0 0
4.1200352 0.95177668 0.23746967 1 2784068096 0 27 0 0
4.1200562 0.92518932 0.23713934 1 2784068096 0 27 0 0
4.1200762 0.89867467 0.23681861 1 2784068096 0 27 0 0
4.1200957 0.87223077 0.23650759 1 2784068096 0 27 0 0
4.1201148 0.84585476 0.23620635 1 2784068096 0 27 0 0
4.1201329 0.81954497 0.23591465 1 2784068096 0 27 0 0
4.1201506 0.79329872 0.23563254 1 2784068096 0 27 0 0
4.1201677 0.76711446 0.23535985 1 2784068096 0 27 0 0
4.1201839 0.74098927 0.23509663 1 2784068096 0 27 0 0
4.1202002 0.71492183 0.2348429 1 2784068096 0 27 0 0
4.1202154 0.68890941 0.23459828 1 2784068096 0 27 0 0
4.1202307 0.6629498 0.23436314 1 2784068096 0 27 0 0
4.1202445 0.63704133 0.23413724 1 2784068096 0 27 0 0
4.1202583 0.6111815 0.23392051 1 2784068096 0 27 0 0
4.1202712 0.5853706 0.23371291 1 2784068096 0 27 0 0
4.1202841 0.55960244 0.23351443 1 2784068096 0 27 0 0
4.120296 0.53387696 0.23332512 1 2784068096 0 27 0 0
4.120307 0.50819212 0.23314482 1 2784068096 0 27 0 0
4.1203179 0.48254594 0.23297346 1 2784068096 0 27 0 0
4.1203284 0.45693633 0.23281109 1 2784068096 0 27 0 0
4.120338 0.43136156 0.23265773 1 2784068096 0 27 0 0
4.120347 0.40581921 0.23251331 1 2784068096 0 27 0 0
4.1203551 0.38030764 0.23237765 1 2784068096 0 27 0 0
4.1203632 0.3548249 0.23225093 1 2784068096 0 27 0 0
4.1203709 0.32936874 0.23213309 1 2784068096 0 27 0 0
4.120378 0.30393744 0.23202407 1 2784068096 0 27 0 0
4.1203842 0.27852914 0.23192382 1 2784068096 0 27 0 0
4.1203899 0.25314167 0.23183233 1 2784068096 0 27 0 0
4.1203952 0.22777335 0.23174965 1 2784068096 0 27 0 0
4.1203995 0.20242214 0.23167568 1 2784068096 0 27 0 0
4.1204038 0.17708603 0.23161048 1 2784068096 0 27 0 0
4.1204071 0.15176332 0.23155391 1 2784068096 0 27 0 0
4.1204104 0.12645189 0.23150617 1 2784068096 0 27 0 0
4.1204128 0.10115004 0.23146713 1 2784068096 0 27 0 0
4.1204147 0.075855702 0.23143667 1 2784068096 0 27 0 0
4.1204162 0.050567076 0.23141497 1 2784068096 0 27 0 0
4.1204166 0.025282234 0.23140198 1 2784068096 0 27 0 0
4.1204171 -7.3432921e-07 0.23139751 1 2784068096 0 27 0 0
4.1204166 -0.025283678 0.23140198 1 2784068096 0 27 0 0
4.1204157 -0.050568517 0.23141491 1 2784068096 0 27 0 0
4.1204147 -0.075857148 0.23143667 1 2784068096 0 27 0 0
4.1232433 1.1138643 0.18647784 1 2784068096 0 28 0 0
4.1232624 1.0867672 0.18617362 1 2784068096 0 28 0 0
4.123281 1.0597575 0.18587738 1 2784068096 0 28 0 0
4.1232991 1.0328325 0.18558896 1 2784068096 0 28 0 0
4.1233168 1.0059906 0.18530846 1 2784068096 0 28 0 0
4.1233344 0.97922772 0.18503571 1 2784068096 0 28 0 0
4.1233506 0.95254272 0.18477064 1 2784068096 0 28 0 0
4.1233668 0.92593312 0.18451327 1 2784068096 0 28 0 0
4.1233826 0.89939582 0.18426365 1 2784068096 0 28 0 0
4.1233978 0.87292981 0.18402153 1 2784068096 0 28 0 0
4.1234126 0.84653187 0.18378693 1 2784068096 0 28 0 0
4.1234269 0.82020026 0.18355978 1 2784068096 0 28 0 0
4.1234407 0.79393256 0.18333995 1 2784068096 0 28 0 0
4.1234541 0.76772666 0.1831277 1 2784068096 0 28 0 0
4.123467 0.74158013 0.18292272 1 2784068096 0 28 0 0
4.1234794 0.71549094 0.18272513 1 2784068096 0 28 0 0
4.1234908 0.68945682 0.18253469 1 2784068096 0 28 0 0
4.1235027 0.66347623 0.18235153 1 2784068096 0 28 0 0
4.1235137 0.63754678 0.18217564 1 2784068096 0 28 0 0
4.1235242 0.61166608 0.1820069 1 2784068096 0 28 0 0
4.1235347 0.58583426 0.18184531 1 2784068096 0 28 0 0
4.1235442 0.56004524 0.18169075 1 2784068096 0 28 0 0
4.1235538 0.53429902 0.18154323 1 2784068096 0 28 0 0
4.1235623 0.50859356 0.18140286 1 2784068096 0 28 0 0
4.1235709 0.48292696 0.18126935 1 2784068096 0 28 0 0
4.123579 0.45729697 0.18114311 1 2784068096 0 28 0 0
4.1235867 0.43170154 0.1810236 1 2784068096 0 28 0 0
4.1235938 0.40613899 0.18091106 1 2784068096 0 28 0 0
4.1236 0.38060713 0.18080556 1 2784068096 0 28 0 0
4.1236062 0.35510406 0.18070692 1 2784068096 0 28 0 0
4.1236119 0.32962787 0.18061507 1 2784068096 0 28 0 0
4.1236172 0.30417648 0.18053019 1 2784068096 0 28 0 0
4.1236224 0.27874801 0.18045211 1 2784068096 0 28 0 0
4.1236267 0.25334063 0.18038094 1 2784068096 0 28 0 0
4.123631 0.22795223 0.18031651 1 2784068096 0 28 0 0
4.1236343 0.20258106 0.18025893 1 2784068096 0 28 0 0
4.1236377 0.17722504 0.18020809 1 2784068096 0 28 0 0
4.1236405 0.15188235 0.1801641 1 2784068096 0 28 0 0
4.1236429 0.12655111 0.18012691 1 2784068096 0 28 0 0
4.1236448 0.10122934 0.18009651 1 2784068096 0 28 0 0
4.1236463 0.075915217 0.18007278 1 2784068096 0 28 0 0
4.1236472 0.050606728 0.18005592 1 2784068096 0 28 0 0
4.1236477 0.025302054 0.18004572 1 2784068096 0 28 0 0
4.1236482 -7.3194502e-07 0.18004233 1 2784068096 0 28 0 0
4.1236477 -0.025303503 0.18004572 1 2784068096 0 28 0 0
4.1236472 -0.050608177 0.18005592 1 2784068096 0 28 0 0
4.1236463 -0.075916648 0.18007278 1 2784068096 0 28 0 0
4.1236444 -0.10122883 0.18009639 1 2784068096 0 28 0 0
4.1266046 1.0876479 0.13304752 1 2784068096 0 29 0 0
4.1266179 1.0606153 0.13283557 1 2784068096 0 29 0 0
4.1266308 1.0336673 0.13262939 1 2784068096 0 29 0 0
4.1266437 1.0068018 0.13242871 1 2784068096 0 29 0 0
4.1266561 0.98001677 0.13223356 1 2784068096 0 29 0 0
4.126668 0.95330894 0.13204414 1 2784068096 0 29 0 0
4.1266794 0.92667687 0.13186002 1 2784068096 0 29 0 0
4.1266904 0.90011758 0.13168144 1 2784068096 0 29 0 0
4.1267018 0.87362903 0.13150823 1 2784068096 0 29 0 0
4.1267123 0.84720916 0.13134044 1 2784068096 0 29 0 0
4.1267223 0.8208558 0.13117802 1 2784068096 0 29 0 0
4.1267323 0.79456604 0.13102084 1 2784068096 0 29 0 0
4.1267419 0.76833862 0.13086897 1 2784068096 0 29 0 0
4.1267509 0.74217069 0.1307224 1 2784068096 0 29 0 0
4.12676 0.71606034 0.13058102 1 2784068096 0 29 0 0
4.1267686 0.690005 0.13044494 1 2784068096 0 29 0 0
4.1267767 0.66400313 0.13031387 1 2784068096 0 29 0 0
4.1267843 0.63805246 0.13018811 1 2784068096 0 29 0 0
4.126792 0.61215085 0.13006735 1 2784068096 0 29 0 0
4.1267996 0.58629823 0.12995183 1 2784068096 0 29 0 0
4.1268063 0.56048828 0.12984127 1 2784068096 0 29 0 0
4.1268129 0.53472143 0.12973583 1 2784068096 0 29 0 0
4.1268191 0.50899529 0.12963539 1 2784068096 0 29 0 0
4.1268253 0.48330793 0.12954003 1 2784068096 0 29 0 0
4.1268311 0.45765767 0.12944961 1 2784068096 0 29 0 0
4.1268368 0.43204176 0.12936413 1 2784068096 0 29 0 0
4.1268415 0.40645885 0.12928367 1 2784068096 0 29 0 0
4.1268463 0.3809067 0.12920821 1 2784068096 0 29 0 0
4.1268506 0.3553834 0.12913764 1 2784068096 0 29 0 0
4.1268549 0.32988697 0.12907195 1 2784068096 0 29 0 0
4.1268587 0.30441552 0.12901121 1 2784068096 0 29 0 0
4.1268625 0.27896708 0.12895542 1 2784068096 0 29 0 0
4.1268654 0.25353953 0.12890446 1 2784068096 0 29 0 0
4.1268682 0.22813125 0.12885839 1 2784068096 0 29 0 0
4.1268706 0.20274003 0.1288172 1 2784068096 0 29 0 0
4.1268735 0.17736408 0.1287809 1 2784068096 0 29 0 0
4.1268749 0.15200154 0.12874943 1 2784068096 0 29 0 0
4.1268768 0.12665035 0.12872285 1 2784068096 0 29 0 0
4.1268783 0.10130873 0.12870097 1 2784068096 0 29 0 0
4.1268792 0.075974718 0.12868416 1 2784068096 0 29 0 0
4.1268802 0.050646409 0.128672 1 2784068096 0 29 0 0
4.1268806 0.025321886 0.12866473 1 2784068096 0 29 0 0
4.1268806 -7.2240829e-07 0.12866241 1 2784068096 0 29 0 0
4.1268806 -0.025323343 0.12866473 1 2784068096 0 29 0 0
4.1268802 -0.05064784 0.128672 1 2784068096 0 29 0 0
4.1268792 -0.075976163 0.12868416 1 2784068096 0 29 0 0
4.1268783 -0.10130822 0.12870109 1 2784068096 0 29 0 0
4.1268768 -0.12664984 0.12872285 1 2784068096 0 29 0 0
4.1299582 1.0614737 0.079749286 1 2784068096 0 30 0 0
4.1299658 1.0345029 0.079625428 1 2784068096 0 30 0 0
4.1299734 1.0076144 0.079504907 1 2784068096 0 30 0 0
4.1299806 0.98080623 0.079387665 1 2784068096 0 30 0 0
4.1299877 0.95407605 0.07927376 1 2784068096 0 30 0 0
4.1299949 0.92742145 0.079163134 1 2784068096 0 30 0 0
4.1300015 0.9008401 0.079055846 1 2784068096 0 30 0 0
4.1300082 0.87432921 0.078951776 1 2784068096 0 30 0 0
4.1300144 0.84788734 0.078851044 1 2784068096 0 30 0 0
4.1300206 0.82151169 0.078753471 1 2784068096 0 30 0 0
4.1300263 0.79520059 0.078658938 1 2784068096 0 30 0 0
4.1300321 0.76895118 0.078567803 1 2784068096 0 30 0 0
4.1300378 0.74276185 0.078479648 1 2784068096 0 30 0 0
4.130043 0.71662986 0.078394771 1 2784068096 0 30 0 0
4.1300483 0.69055343 0.078312993 1 2784068096 0 30 0 0
4.130053 0.66453046 0.078234255 1 2784068096 0 30 0 0
4.1300583 0.63855886 0.078158617 1 2784068096 0 30 0 0
4.1300626 0.61263603 0.078086078 1 2784068096 0 30 0 0
4.1300669 0.58676255 0.078016639 1 2784068096 0 30 0 0
4.1300712 0.56093186 0.077950239 1 2784068096 0 30 0 0
4.130075 0.53514409 0.077886879 1 2784068096 0 30 0 0
4.1300788 0.50939751 0.0778265 1 2784068096 0 30 0 0
4.1300826 0.48368958 0.07776922 1 2784068096 0 30 0 0
4.1300864 0.45801857 0.07771492 1 2784068096 0 30 0 0
4.1300893 0.43238232 0.0776636 1 2784068096 0 30 0 0
4.1300921 0.40677905 0.077615201 1 2784068096 0 30 0 0
4.1300955 0.38120657 0.077569842 1 2784068096 0 30 0 0
4.1300979 0.35566306 0.077527523 1 2784068096 0 30 0 0
4.1301003 0.33014649 0.077488065 1 2784068096 0 30 0 0
4.1301026 0.30465487 0.077451527 1 2784068096 0 30 0 0
4.130105 0.27918634 0.077418029 1 2784068096 0 30 0 0
4.1301064 0.2537387 0.077387452 1 2784068096 0 30 0 0
4.1301084 0.22831035 0.077359676 1 2784068096 0 30 0 0
4.1301098 0.20289916 0.07733494 1 2784068096 0 30 0 0
4.1301112 0.17750326 0.077313125 1 2784068096 0 30 0 0
4.1301126 0.15212075 0.07729429 1 2784068096 0 30 0 0
4.1301131 0.12674968 0.077278256 1 2784068096 0 30 0 0
4.1301141 0.10138819 0.077265203 1 2784068096 0 30 0 0
4.130115 0.076034285 0.077255011 1 2784068096 0 30 0 0
4.130115 0.050686114 0.077247739 1 2784068096 0 30 0 0
4.1301155 0.025341744 0.077243388 1 2784068096 0 30 0 0
4.1301155 -7.2777271e-07 0.077241957 1 2784068096 0 30 0 0
4.1301155 -0.025343183 0.077243388 1 2784068096 0 30 0 0
4.1301155 -0.050687555 0.077247739 1 2784068096 0 30 0 0
4.130115 -0.076035723 0.077255011 1 2784068096 0 30 0 0
4.1301141 -0.10138765 0.077265203 1 2784068096 0 30 0 0
4.1301136 -0.12674919 0.077278256 1 2784068096 0 30 0 0
4.1333041 1.0353392 0.026560426 1 2784068096 0 31 0 0
4.133307 1.0084275 0.026520133 1 2784068096 0 31 0 0
4.1333094 0.98159641 0.026480973 1 2784068096 0 31 0 0
4.1333117 0.95484364 0.026443005 1 2784068096 0 31 0 0
4.1333141 0.92816693 0.02640605 1 2784068096 0 31 0 0
4.133316 0.90156281 0.026370287 1 2784068096 0 31 0 0
4.1333184 0.87502998 0.026335597 1 2784068096 0 31 0 0
4.1333203 0.84856629 0.026301861 1 2784068096 0 31 0 0
4.1333227 0.82216859 0.026269376 1 2784068096 0 31 0 0
4.1333246 0.79583549 0.026237786 1 2784068096 0 31 0 0
4.1333265 0.76956451 0.026207328 1 2784068096 0 31 0 0
4.1333284 0.74335349 0.026177883 1 2784068096 0 31 0 0
4.1333303 0.7172001 0.026149571 1 2784068096 0 31 0 0
4.1333318 0.69110215 0.026122272 1 2784068096 0 31 0 0
4.1333332 0.6650579 0.026096046 1 2784068096 0 31 0 0
4.1333351 0.63906509 0.026070833 1 2784068096 0 31 0 0
4.1333365 0.61312145 0.026046574 1 2784068096 0 31 0 0
4.133338 0.58722699 0.026023388 1 2784068096 0 31 0 0
4.1333399 0.56137562 0.026001215 1 2784068096 0 31 0 0
4.1333408 0.53556728 0.025979996 1 2784068096 0 31 0 0
4.1333423 0.5097999 0.025959909 1 2784068096 0 31 0 0
4.1333432 0.48407137 0.025940776 1 2784068096 0 31 0 0
4.1333442 0.45837983 0.025922596 1 2784068096 0 31 0 0
4.1333456 0.43272316 0.02590549 1 2784068096 0 31 0 0
4.1333466 0.40709946 0.025889397 1 2784068096 0 31 0 0
4.1333475 0.3815068 0.025874257 1 2784068096 0 31 0 0
4.133348 0.3559429 0.025860071 1 2784068096 0 31 0 0
4.1333494 0.3304061 0.025846899 1 2784068096 0 31 0 0
4.1333499 0.30489433 0.025834739 1 2784068096 0 31 0 0
4.1333508 0.27940565 0.025823474 1 2784068096 0 31 0 0
4.1333518 0.25393805 0.025813282 1 2784068096 0 31 0 0
4.1333518 0.22848962 0.025804043 1 2784068096 0 31 0 0
4.1333523 0.20305841 0.025795817 1 2784068096 0 31 0 0
4.1333532 0.17764254 0.025788546 1 2784068096 0 31 0 0
4.1333532 0.15224008 0.025782228 1 2784068096 0 31 0 0
4.1333537 0.12684911 0.025776863 1 2784068096 0 31 0 0
4.1333542 0.10146765 0.025772512 1 2784068096 0 31 0 0
4.1333542 0.076093897 0.025769114 1 2784068096 0 31 0 0
4.1333542 0.050725833 0.02576673 1 2784068096 0 31 0 0
4.1333542 0.025361611 0.025765181 1 2784068096 0 31 0 0
4.1333542 -7.2479247e-07 0.025764763 1 2784068096 0 31 0 0
4.1333542 -0.025363063 0.025765181 1 2784068096 0 31 0 0
4.1333542 -0.050727289 0.025766671 1 2784068096 0 31 0 0
4.1333542 -0.076095328 0.025769174 1 2784068096 0 31 0 0
4.1333537 -0.10146716 0.025772512 1 2784068096 0 31 0 0
4.1333532 -0.12684856 0.025776863 1 2784068096 0 31 0 0
4.1333532 -0.15223953 0.025782228 1 2784068096 0 31 0 0
4.1366453 1.0092422 -0.02654177 1 2784068096 0 32 0 0
4.1366429 0.98238826 -0.026502609 1 2784068096 0 32 0 0
4.1366405 0.95561278 -0.026464462 1 2784068096 0 32 0 0
4.1366382 0.9289133 -0.026427507 1 2784068096 0 32 0 0
4.1366358 0.90228689 -0.026391625 1 2784068096 0 32 0 0
4.1366334 0.87573195 -0.026356816 1 2784068096 0 32 0 0
4.1366315 0.84924614 -0.026323199 1 2784068096 0 32 0 0
4.1366296 0.82282662 -0.026290536 1 2784068096 0 32 0 0
4.1366272 0.79647142 -0.026258886 1 2784068096 0 32 0 0
4.1366253 0.77017874 -0.026228428 1 2784068096 0 32 0 0
4.1366239 0.74394619 -0.026198983 1 2784068096 0 32 0 0
4.136622 0.71777123 -0.026170492 1 2784068096 0 32 0 0
4.13662 0.69165206 -0.026143193 1 2784068096 0 32 0 0
4.1366186 0.66558647 -0.026116908 1 2784068096 0 32 0 0
4.1366167 0.63957262 -0.026091576 1 2784068096 0 32 0 0
4.1366153 0.61360788 -0.026067317 1 2784068096 0 32 0 0
4.1366138 0.58769238 -0.02604419 1 2784068096 0 32 0 0
4.1366129 0.56182033 -0.026021957 1 2784068096 0 32 0 0
4.1366115 0.53599101 -0.026000738 1 2784068096 0 32 0 0
4.13661 0.51020288 -0.025980651 1 2784068096 0 32 0 0
4.1366086 0.48445377 -0.025961399 1 2784068096 0 32 0 0
4.1366076 0.45874175 -0.02594322 1 2784068096 0 32 0 0
4.1366067 0.43306461 -0.025926054 1 2784068096 0 32 0 0
4.1366053 0.40742052 -0.02590996 1 2784068096 0 32 0 0
4.1366043 0.38180748 -0.025894821 1 2784068096 0 32 0 0
4.1366034 0.35622326 -0.025880575 1 2784068096 0 32 0 0
4.1366024 0.33066618 -0.025867403 1 2784068096 0 32 0 0
4.1366019 0.30513421 -0.025855303 1 2784068096 0 32 0 0
4.136601 0.27962536 -0.025844038 1 2784068096 0 32 0 0
4.1366005 0.25413764 -0.025833786 1 2784068096 0 32 0 0
4.1366 0.22866917 -0.025824547 1 2784068096 0 32 0 0
4.1365995 0.20321794 -0.025816202 1 2784068096 0 32 0 0
4.1365991 0.17778212 -0.02580899 1 2784068096 0 32 0 0
4.1365991 0.15235968 -0.025802612 1 2784068096 0 32 0 0
4.1365981 0.1269487 -0.025797307 1 2784068096 0 32 0 0
4.1365981 0.10154735 -0.025792837 1 2784068096 0 32 0 0
4.1365976 0.076153621 -0.025789499 1 2784068096 0 32 0 0
4.1365976 0.050765667 -0.025787055 1 2784068096 0 32 0 0
4.1365976 0.025381517 -0.025785685 1 2784068096 0 32 0 0
4.1365976 -7.2956084e-07 -0.025785148 1 2784068096 0 32 0 0
4.1365976 -0.025382962 -0.025785625 1 2784068096 0 32 0 0
4.1365976 -0.050767105 -0.025787055 1 2784068096 0 32 0 0
4.1365976 -0.076155074 -0.025789499 1 2784068096 0 32 0 0
4.1365981 -0.10154678 -0.025792837 1 2784068096 0 32 0 0
4.1365981 -0.12694815 -0.025797188 1 2784068096 0 32 0 0
4.1365986 -0.15235907 -0.025802553 1 2784068096 0 32 0 0
4.1365991 -0.17778154 -0.025808871 1 2784068096 0 32 0 0
4.1399894 1.0100582 -0.079697728 1 2784068096 0 33 0 0
4.1399822 0.9831813 -0.079579949 1 2784068096 0 33 0 0
4.1399746 0.95638287 -0.079465508 1 2784068096 0 33 0 0
4.1399679 0.92966062 -0.079354405 1 2784068096 0 33 0 0
4.1399612 0.90301239 -0.07924664 1 2784068096 0 33 0 0
4.1399546 0.87643474 -0.079142034 1 2784068096 0 33 0 0
4.1399484 0.84992671 -0.079040706 1 2784068096 0 33 0 0
4.1399422 0.82348531 -0.078942657 1 2784068096 0 33 0 0
4.139936 0.79710847 -0.078847766 1 2784068096 0 33 0 0
4.1399302 0.77079415 -0.078756094 1 2784068096 0 33 0 0
4.1399245 0.74453992 -0.078667641 1 2784068096 0 33 0 0
4.1399193 0.71834344 -0.078582227 1 2784068096 0 33 0 0
4.139914 0.69220281 -0.078499913 1 2784068096 0 33 0 0
4.1399093 0.666116 -0.078420937 1 2784068096 0 33 0 0
4.1399045 0.64008099 -0.078345001 1 2784068096 0 33 0 0
4.1398997 0.61409497 -0.078272104 1 2784068096 0 33 0 0
4.1398954 0.58815873 -0.078202307 1 2784068096 0 33 0 0
4.1398916 0.56226563 -0.07813561 1 2784068096 0 33 0 0
4.1398873 0.53641558 -0.078072011 1 2784068096 0 33 0 0
4.1398835 0.51060665 -0.078011334 1 2784068096 0 33 0 0
4.1398797 0.48483679 -0.077953637 1 2784068096 0 33 0 0
4.1398764 0.45910421 -0.077899098 1 2784068096 0 33 0 0
4.139873 0.43340659 -0.0778476 1 2784068096 0 33 0 0
4.1398702 0.40774208 -0.077799022 1 2784068096 0 33 0 0
4.1398673 0.38210857 -0.077753484 1 2784068096 0 33 0 0
4.1398644 0.35650411 -0.077710867 1 2784068096 0 33 0 0
4.1398621 0.33092678 -0.07767123 1 2784068096 0 33 0 0
4.1398597 0.30537459 -0.077634573 1 2784068096 0 33 0 0
4.1398578 0.27984554 -0.077600896 1 2784068096 0 33 0 0
4.1398554 0.25433758 -0.077570081 1 2784068096 0 33 0 0
4.1398535 0.22884904 -0.077542365 1 2784068096 0 33 0 0
4.139852 0.20337778 -0.077517509 1 2784068096 0 33 0 0
4.1398511 0.17792183 -0.077495515 1 2784068096 0 33 0 0
4.1398497 0.15247941 -0.077476501 1 2784068096 0 33 0 0
4.1398487 0.12704848 -0.077460468 1 2784068096 0 33 0 0
4.1398478 0.10162714 -0.077447355 1 2784068096 0 33 0 0
4.1398473 0.076213442 -0.077437103 1 2784068096 0 33 0 0
4.1398468 0.050805543 -0.077429831 1 2784068096 0 33 0 0
4.1398468 0.025401453 -0.07742548 1 2784068096 0 33 0 0
4.1398468 -7.2956084e-07 -0.077424049 1 2784068096 0 33 0 0
4.1398468 -0.025402898 -0.07742542 1 2784068096 0 33 0 0
4.1398468 -0.050806973 -0.077429831 1 2784068096 0 33 0 0
4.1433282 0.98397595 -0.13276803 1 2784068096 0 34 0 0
4.1433163 0.95715493 -0.13257694 1 2784068096 0 34 0 0
4.1433043 0.93041021 -0.13239145 1 2784068096 0 34 0 0
4.1432934 0.90373892 -0.13221139 1 2784068096 0 34 0 0
4.1432824 0.87713927 -0.13203675 1 2784068096 0 34 0 0
4.1432719 0.85060889 -0.13186759 1 2784068096 0 34 0 0
4.1432614 0.82414562 -0.13170391 1 2784068096 0 34 0 0
4.1432514 0.79774672 -0.13154542 1 2784068096 0 34 0 0
4.1432419 0.77141052 -0.13139248 1 2784068096 0 34 0 0
4.1432323 0.74513471 -0.13124466 1 2784068096 0 34 0 0
4.1432238 0.71891701 -0.13110232 1 2784068096 0 34 0 0
4.1432147 0.69275498 -0.13096499 1 2784068096 0 34 0 0
4.1432066 0.66664666 -0.13083291 1 2784068096 0 34 0 0
4.1431985 0.64059013 -0.13070601 1 2784068096 0 34 0 0
4.1431909 0.61458331 -0.13058442 1 2784068096 0 34 0 0
4.1431837 0.58862585 -0.13046783 1 2784068096 0 34 0 0
4.1431766 0.56271183 -0.13035655 1 2784068096 0 34 0 0
4.1431699 0.53684092 -0.13025016 1 2784068096 0 34 0 0
4.1431637 0.51101124 -0.13014901 1 2784068096 0 34 0 0
4.1431575 0.4852207 -0.1300528 1 2784068096 0 34 0 0
4.1431518 0.45946756 -0.12996173 1 2784068096 0 34 0 0
4.1431465 0.43374935 -0.1298756 1 2784068096 0 34 0 0
4.1431413 0.40806431 -0.12979448 1 2784068096 0 34 0 0
4.1431365 0.38241026 -0.12971842 1 2784068096 0 34 0 0
4.1431322 0.35678551 -0.12964731 1 2784068096 0 34 0 0
4.1431279 0.33118784 -0.12958109 1 2784068096 0 34 0 0
4.1431241 0.30561543 -0.12952 1 2784068096 0 34 0 0
4.1431208 0.28006613 -0.12946367 1 2784068096 0 34 0 0
4.1431174 0.254538 -0.12941235 1 2784068096 0 34 0 0
4.1431146 0.22902933 -0.12936592 1 2784068096 0 34 0 0
4.1431117 0.20353797 -0.12932444 1 2784068096 0 34 0 0
4.1431093 0.17806196 -0.12928784 1 2784068096 0 34 0 0
4.1431074 0.15259944 -0.12925607 1 2784068096 0 34 0 0
4.1431055 0.12714843 -0.12922931 1 2784068096 0 34 0 0
4.1431046 0.10170709 -0.12920725 1 2784068096 0 34 0 0
4.1431031 0.076273419 -0.12919021 1 2784068096 0 34 0 0
4.1466656 0.95792884 -0.18581551 1 2784068096 0 35 0 0
4.1466494 0.93116134 -0.18555528 1 2784068096 0 35 0 0
4.1466336 0.90446752 -0.18530273 1 2784068096 0 35 0 0
4.1466184 0.87784559 -0.18505782 1 2784068096 0 35 0 0
4.1466036 0.85129309 -0.18482059 1 2784068096 0 35 0 0
4.1465888 0.82480758 -0.18459088 1 2784068096 0 35 0 0
4.146575 0.79838681 -0.18436867 1 2784068096 0 35 0 0
4.1465616 0.77202892 -0.18415409 1 2784068096 0 35 0 0
4.1465483 0.74573112 -0.18394679 1 2784068096 0 35 0 0
4.1465359 0.71949154 -0.18374693 1 2784068096 0 35 0 0
4.1465235 0.69330817 -0.18355447 1 2784068096 0 35 0 0
4.146512 0.66717881 -0.18336922 1 2784068096 0 35 0 0
4.1465006 0.64110088 -0.1831913 1 2784068096 0 35 0 0
4.1464901 0.61507291 -0.18302071 1 2784068096 0 35 0 0
4.1464796 0.5890944 -0.18285728 1 2784068096 0 35 0 0
4.1464701 0.56315911 -0.18270099 1 2784068096 0 35 0 0
4.1464605 0.53726727 -0.1825518 1 2784068096 0 35 0 0
4.1464515 0.51141679 -0.18240988 1 2784068096 0 35 0 0
4.1464429 0.4856056 -0.182275 1 2784068096 0 35 0 0
4.1464353 0.4598316 -0.18214715 1 2784068096 0 35 0 0
4.1464276 0.4340927 -0.18202633 1 2784068096 0 35 0 0
4.14642 0.40838718 -0.1819126 1 2784068096 0 35 0 0
4.1464133 0.38271275 -0.18180579 1 2784068096 0 35 0 0
4.1464071 0.35706758 -0.18170619 1 2784068096 0 35 0 0
4.1464014 0.33144963 -0.18161333 1 2784068096 0 35 0 0
4.1463962 0.30585682 -0.18152755 1 2784068096 0 35 0 0
4.1463909 0.28028724 -0.18144858 1 2784068096 0 35 0 0
4.1463866 0.25473893 -0.18137652 1 2784068096 0 35 0 0
4.1463828 0.22921 -0.18131143 1 2784068096 0 35 0 0
4.146379 0.20369843 -0.18125319 1 2784068096 0 35 0 0
4.150003 0.93191427 -0.23886311 1 2784068096 0 36 0 0
4.1499829 0.90519786 -0.23853767 1 2784068096 0 36 0 0
4.1499629 0.87855363 -0.2382223 1 2784068096 0 36 0 0
4.1499438 0.85197872 -0.23791665 1 2784068096 0 36 0 0
4.1499252 0.82547134 -0.23762077 1 2784068096 0 36 0 0
4.1499071 0.79902852 -0.23733461 1 2784068096 0 36 0 0
4.1498895 0.77264869 -0.23705804 1 2784068096 0 36 0 0
4.1498728 0.74632895 -0.23679096 1 2784068096 0 36 0 0
4.149857 0.72006786 -0.23653346 1 2784068096 0 36 0 0
4.1498413 0.69386297 -0.23628551 1 2784068096 0 36 0 0
4.149826 0.66771185 -0.23604685 1 2784068096 0 36 0 0
4.1498117 0.64161289 -0.23581773 1 2784068096 0 36 0 0
4.1497979 0.61556339 -0.23559779 1 2784068096 0 36 0 0
4.1497846 0.58956373 -0.23538721 1 2784068096 0 36 0 0
4.1497722 0.56360763 -0.23518592 1 2784068096 0 36 0 0
4.1497598 0.53769475 -0.23499376 1 2784068096 0 36 0 0
4.1497483 0.51182348 -0.23481095 1 2784068096 0 36 0 0
4.1497374 0.48599151 -0.23463714 1 2784068096 0 36 0 0
4.1497269 0.46019667 -0.23447245 1 2784068096 0 36 0 0
4.1497173 0.43443716 -0.23431671 1 2784068096 0 36 0 0
4.1497083 0.40871084 -0.23417026 1 2784068096 0 36 0 0
4.1496992 0.38301593 -0.23403269 1 2784068096 0 36 0 0
4.1496911 0.35735038 -0.2339043 1 2784068096 0 36 0 0
4.1533422 0.9059307 -0.29193348 1 2784068096 0 37 0 0
4.1533179 0.87926388 -0.29154712 1 2784068096 0 37 0 0
4.1532946 0.85266668 -0.2911728 1 2784068096 0 37 0 0
4.1532717 0.82613659 -0.29081029 1 2784068096 0 37 0 0
4.1532493 0.79967183 -0.29045981 1 2784068096 0 37 0 0
4.1532278 0.77327007 -0.29012114 1 2784068096 0 37 0 0
4.1532073 0.74692887 -0.28979403 1 2784068096 0 37 0 0
4.1531878 0.72064573 -0.2894786 1 2784068096 0 37 0 0
4.1531687 0.69441909 -0.28917474 1 2784068096 0 37 0 0
4.1531501 0.66824669 -0.28888267 1 2784068096 0 37 0 0
4.1531324 0.64212614 -0.28860182 1 2784068096 0 37 0 0
4.1531157 0.61605543 -0.28833252 1 2784068096 0 37 0 0
4.1530995 0.59003466 -0.28807479 1 2784068096 0 37 0 0
4.1530838 0.56405747 -0.28782815 1 2784068096 0 37 0 0
4.1530695 0.53812355 -0.28759283 1 2784068096 0 37 0 0
4.1530547 0.51223135 -0.28736883 1 2784068096 0 37 0 0
4.1530414 0.48637834 -0.28715593 1 2784068096 0 37 0 0
4.1566839 0.87997633 -0.34505004 1 2784068096 0 38 0 0
4.1566563 0.85335702 -0.34460682 1 2784068096 0 38 0 0
4.1566291 0.826805 -0.34417754 1 2784068096 0 38 0 0
4.1566029 0.80031747 -0.3437621 1 2784068096 0 38 0 0
4.1565781 0.77389365 -0.34336096 1 2784068096 0 38 0 0
4.1565533 0.74753058 -0.34297353 1 2784068096 0 38 0 0
4.1565299 0.72122562 -0.34259993 1 2784068096 0 38 0 0
4.156507 0.69497722 -0.34224004 1 2784068096 0 38 0 0
4.1564856 0.66878331 -0.34189397 1 2784068096 0 38 0 0
4.1564646 0.64264131 -0.3415615 1 2784068096 0 38 0 0
4.1564441 0.61654919 -0.34124237 1 2784068096 0 38 0 0
4.1600623 0.88069195 -0.39874846 1 2784068096 0 39 0 0
4.1600304 0.8540498 -0.39823562 1 2784068096 0 39 0 0
4.1599989 0.82747519 -0.39773899 1 2784068096 0 39 0 0
4.1599689 0.80096614 -0.39725894 1 2784068096 0 39 0 0
4.1599393 0.7745195 -0.39679462 1 2784068096 0 39 0 0
4.1599112 0.74813443 -0.39634675 1 2784068096 0 39 0 0
