# .PCD v0.7 - Point Cloud Data file format
VERSION 0.7
FIELDS x y z intensity t reflectivity ring noise range
SIZE 4 4 4 4 4 2 2 2 4
TYPE F F F F U U U U U
COUNT 1 1 1 1 1 1 1 1 1
WIDTH 893
HEIGHT 1
VIEWPOINT 0 0 0 1 0 0 0
POINTS 893
DATA ascii
4.6986017 10.961 0.45342901 1 2339997184 0 14 0 0
4.8586745 10.961 0.45586097 1 2339997184 0 14 0 0
5.020505 10.961 0.45838919 1 2339997184 0 14 0 0
5.1841664 10.961 0.46101508 1 2339997184 0 14 0 0
5.3497381 10.961 0.46374151 1 2339997184 0 14 0 0
5.4720135 10.871025 0.46274269 1 2339997184 0 14 0 0
5.4720135 10.546728 0.45175987 1 2339997184 0 14 0 0
5.4720135 10.237417 0.44135582 1 2339997184 0 14 0 0
5.4720144 9.9419947 0.43148232 1 2339997184 0 14 0 0
5.4720135 9.6594563 0.42210183 1 2351997440 0 14 0 0
5.4720144 9.3888998 0.41318321 1 2351997440 0 14 0 0
5.4720144 9.1295004 0.40469244 1 2351997440 0 14 0 0
5.4720144 8.8805122 0.39660284 1 2351997440 0 14 0 0
5.3298054 8.4166803 0.3787809 1 2351997440 0 14 0 0
5.4773684 8.4193182 0.38189751 1 2351997440 0 14 0 0
5.6274319 8.4220533 0.38512748 1 2351997440 0 14 0 0
7.5200877 10.961 0.50540608 1 2351997440 0 14 0 0
7.719604 10.961 0.50973642 1 2351997440 0 14 0 0
7.9226007 10.961 0.5142194 1 2351997440 0 14 0 0
8.1292305 10.961 0.5188604 1 2351997440 0 14 0 0
8.339654 10.961 0.52366602 1 2351997440 0 14 0 0
8.5540495 10.961002 0.52864158 1 2351997440 0 14 0 0
8.7725201 10.961002 0.5337472 1 2351997440 0 14 0 0
8.9954395 10.961002 0.53910816 1 2351997440 0 14 0 0
9.2228689 10.961002 0.54465538 1 2351997440 0 14 0 0
9.4550266 10.961002 0.55037999 1 2351997440 0 14 0 0
9.6921501 10.961 0.55631095 1 2351997440 0 14 0 0
9.9344749 10.961002 0.56245691 1 2351997440 0 14 0 0
10.182253 10.961002 0.56882679 1 2351997440 0 14 0 0
10.435739 10.961002 0.57542866 1 2351997440 0 14 0 0
10.554013 10.816286 0.57458901 1 2351997440 0 14 0 0
10.554016 10.554017 0.56749535 1 2351997440 0 14 0 0
10.554015 10.298108 0.56065571 1 2351997440 0 14 0 0
10.554015 10.048262 0.5540632 1 2351997440 0 14 0 0
10.554015 9.8041792 0.5477044 1 2351997440 0 14 0 0
10.554015 9.5656023 0.54157203 1 2351997440 0 14 0 0
10.554015 9.3322735 0.53565466 1 2351997440 0 14 0 0
10.554015 9.1039572 0.52994376 1 2351997440 0 14 0 0
10.554015 8.8804188 0.52443182 1 2351997440 0 14 0 0
10.429231 8.5590534 0.51298344 1 2351997440 0 14 0 0
10.702664 8.5658264 0.52121359 1 2351997440 0 14 0 0
13.182767 10.28793 0.63565862 1 2351997440 0 14 0 0
14.406301 10.961002 0.68826652 1 2351997440 0 14 0 0
14.779191 10.961002 0.6996001 1 2351997440 0 14 0 0
14.779201 10.682405 0.69334358 1 2351997440 0 14 0 0
14.779201 10.408693 0.68729866 1 2351997440 0 14 0 0
14.779201 10.139679 0.68145847 1 2351997440 0 14 0 0
14.779201 9.8751507 0.67582309 1 2351997440 0 14 0 0
14.779201 9.6149311 0.67037451 1 2351997440 0 14 0 0
14.779201 9.3588266 0.66511649 1 2351997440 0 14 0 0
14.779201 9.1066799 0.66003376 1 2351997440 0 14 0 0
14.779201 8.8583136 0.65512973 1 2351997440 0 14 0 0
14.779202 8.6135769 0.65039724 1 2351997440 0 14 0 0
14.779201 8.3723154 0.64582586 1 2351997440 0 14 0 0
14.779201 8.1343822 0.6414156 1 2351997440 0 14 0 0
14.779201 7.8996453 0.63716102 1 2351997440 0 14 0 0
14.779202 7.6679773 0.63305581 1 2351997440 0 14 0 0
14.779201 7.4392338 0.6290943 1 2351997440 0 14 0 0
14.779201 7.213294 0.62528187 1 2351997440 0 14 0 0
14.779202 6.9900455 0.62160575 1 2351997440 0 14 0 0
14.779201 6.7693787 0.61806327 1 2351997440 0 14 0 0
14.779201 6.5511756 0.614654 1 2351997440 0 14 0 0
14.779201 6.3353295 0.611377 1 2351997440 0 14 0 0
14.779201 6.1217508 0.60821998 1 2351997440 0 14 0 0
14.779201 5.9103312 0.60518909 1 2351997440 0 14 0 0
14.779201 5.7009697 0.60228199 1 2351997440 0 14 0 0
14.779201 5.4935803 0.59949225 1 2351997440 0 14 0 0
14.779202 5.288084 0.59681159 1 2351997440 0 14 0 0
14.779201 5.0843782 0.59424824 1 2351997440 0 14 0 0
14.779201 4.8823905 0.59179157 1 2351997440 0 14 0 0
14.779202 4.682035 0.58945042 1 2363997696 0 14 0 0
14.779202 4.4832273 0.58721012 1 2363997696 0 14 0 0
14.779202 4.2858963 0.58507407 1 2363997696 0 14 0 0
14.779201 4.0899591 0.58304584 1 2363997696 0 14 0 0
14.779201 3.8953545 0.58111429 1 2363997696 0 14 0 0
14.779199 3.7019994 0.57928628 1 2363997696 0 14 0 0
14.779201 3.509831 0.5775553 1 2363997696 0 14 0 0
14.779201 3.3187823 0.57591957 1 2363997696 0 14 0 0
14.779201 3.128783 0.57438058 1 2363997696 0 14 0 0
14.779202 2.939765 0.57293403 1 2363997696 0 14 0 0
14.779201 2.7516692 0.57158178 1 2363997696 0 14 0 0
14.779201 2.5644317 0.57032263 1 2363997696 0 14 0 0
14.779202 2.3779912 0.56915289 1 2363997696 0 14 0 0
14.779201 2.1922846 0.56807381 1 2363997696 0 14 0 0
14.779201 2.0072589 0.56708473 1 2363997696 0 14 0 0
14.779201 1.8228406 0.56618416 1 2363997696 0 14 0 0
14.779202 1.6389855 0.56536996 1 2363997696 0 14 0 0
14.779202 1.4556286 0.56464422 1 2363997696 0 14 0 0
14.779202 1.27271 0.56400609 1 2363997696 0 14 0 0
14.779201 1.0901806 0.56345224 1 2363997696 0 14 0 0
14.779202 0.90797848 0.5629853 1 2363997696 0 14 0 0
14.779202 0.72605771 0.56260383 1 2363997696 0 14 0 0
14.779199 0.54434812 0.56230658 1 2363997696 0 14 0 0
14.779201 0.36280638 0.5620957 1 2363997696 0 14 0 0
14.779202 0.18137206 0.56196845 1 2363997696 0 14 0 0
14.779202 -2.4414062e-06 0.56192511 1 2363997696 0 14 0 0
14.779202 -0.18138184 0.56196845 1 2363997696 0 14 0 0
14.779201 -0.36280608 0.5620957 1 2363997696 0 14 0 0
14.779202 -0.54434842 0.56230658 1 2363997696 0 14 0 0
14.779202 -0.72605377 0.56260413 1 2363997696 0 14 0 0
14.779202 -0.90798062 0.5629856 1 2363997696 0 14 0 0
14.779202 -1.0901767 0.56345254 1 2363997696 0 14 0 0
14.779202 -1.2727075 0.56400579 1 2363997696 0 14 0 0
14.779202 -1.4556237 0.56464422 1 2363997696 0 14 0 0
14.779202 -1.6389813 0.56537026 1 2363997696 0 14 0 0
14.779201 -1.8228439 0.56618416 1 2363997696 0 14 0 0
14.779201 -2.0072591 0.56708503 1 2363997696 0 14 0 0
3.2890315 -0.48788208 0.12642181 1 2363997696 0 14 0 0
3.2813964 -0.5279817 0.12636787 1 2363997696 0 14 0 0
3.2737615 -0.56805229 0.12633294 1 2363997696 0 14 0 0
3.2661254 -0.60810548 0.12631691 1 2363997696 0 14 0 0
3.2584853 -0.64815229 0.12631953 1 2363997696 0 14 0 0
3.2508388 -0.68820739 0.12634093 1 2363997696 0 14 0 0
3.2431839 -0.72828084 0.12638116 1 2363997696 0 14 0 0
3.2355185 -0.76838481 0.12644035 1 2363997696 0 14 0 0
3.2278395 -0.80853146 0.12651849 1 2363997696 0 14 0 0
3.2201455 -0.84873265 0.1266157 1 2363997696 0 14 0 0
3.2124336 -0.88900024 0.12673181 1 2363997696 0 14 0 0
3.2047014 -0.92934668 0.12686729 1 2363997696 0 14 0 0
3.1969473 -0.96978354 0.12702203 1 2363997696 0 14 0 0
3.1891682 -1.0103242 0.12719595 1 2363997696 0 14 0 0
3.1813622 -1.0509808 0.12738943 1 2363997696 0 14 0 0
3.1735265 -1.0917653 0.1276027 1 2363997696 0 14 0 0
3.1656585 -1.1326915 0.12783575 1 2363997696 0 14 0 0
3.1577559 -1.1737715 0.12808871 1 2363997696 0 14 0 0
14.779202 -5.7009645 0.60228336 1 2363997696 0 14 0 0
14.779202 -5.9103241 0.60519326 1 2363997696 0 14 0 0
14.779201 -6.1217432 0.60822517 1 2363997696 0 14 0 0
14.779201 -6.3353271 0.6113776 1 2363997696 0 14 0 0
14.779201 -6.551167 0.61465734 1 2363997696 0 14 0 0
14.779202 -6.7693748 0.61806583 1 2363997696 0 14 0 0
14.779201 -6.9900432 0.62160772 1 2375997952 0 14 0 0
14.779201 -7.2132897 0.62528354 1 2375997952 0 14 0 0
14.779202 -7.4392223 0.62909853 1 2375997952 0 14 0 0
14.779201 -7.6679735 0.6330564 1 2375997952 0 14 0 0
14.779202 -7.899652 0.63716102 1 2375997952 0 14 0 0
14.779202 -8.1343851 0.64141697 1 2375997952 0 14 0 0
14.779201 -8.3723192 0.64582705 1 2375997952 0 14 0 0
14.779202 -8.6135702 0.65039802 1 2375997952 0 14 0 0
14.779201 -8.858305 0.65513313 1 2375997952 0 14 0 0
14.779199 -9.1066732 0.66003758 1 2375997952 0 14 0 0
14.779199 -9.35882 0.66511661 1 2375997952 0 14 0 0
14.779201 -9.6149216 0.67037666 1 2375997952 0 14 0 0
14.779201 -9.875144 0.67582345 1 2375997952 0 14 0 0
14.779202 -10.13967 0.68146122 1 2375997952 0 14 0 0
14.779202 -10.408687 0.68730044 1 2375997952 0 14 0 0
14.779202 -10.682394 0.69334477 1 2375997952 0 14 0 0
14.779189 -10.960999 0.69960243 1 2375997952 0 14 0 0
14.406286 -10.960999 0.68826574 1 2375997952 0 14 0 0
14.045219 -10.960999 0.67739129 1 2375997952 0 14 0 0
10.702651 -8.5658226 0.52121252 1 2375997952 0 14 0 0
10.429216 -8.559042 0.51297343 1 2375997952 0 14 0 0
10.554016 -8.8804188 0.52443242 1 2375997952 0 14 0 0
10.554016 -9.1039534 0.52994394 1 2375997952 0 14 0 0
10.554016 -9.3322706 0.53565466 1 2375997952 0 14 0 0
10.554016 -9.5656023 0.54157263 1 2375997952 0 14 0 0
10.554016 -9.8041773 0.54770517 1 2375997952 0 14 0 0
10.554016 -10.048258 0.55406284 1 2375997952 0 14 0 0
10.554016 -10.298105 0.56065619 1 2375997952 0 14 0 0
10.554016 -10.554016 0.56749183 1 2375997952 0 14 0 0
10.554016 -10.816281 0.57458669 1 2375997952 0 14 0 0
10.435736 -10.960999 0.57542914 1 2375997952 0 14 0 0
10.182245 -10.960999 0.56882638 1 2375997952 0 14 0 0
9.9344664 -10.960999 0.56245703 1 2375997952 0 14 0 0
9.6921377 -10.960999 0.55631047 1 2375997952 0 14 0 0
9.4550161 -10.960999 0.55037999 1 2375997952 0 14 0 0
9.2228708 -10.960999 0.54465568 1 2375997952 0 14 0 0
8.9954634 -10.960999 0.53912956 1 2375997952 0 14 0 0
8.7725916 -10.960999 0.53379524 1 2375997952 0 14 0 0
8.5540504 -10.960999 0.52864158 1 2375997952 0 14 0 0
8.3396568 -10.960999 0.52366602 1 2375997952 0 14 0 0
8.1292324 -10.960999 0.51886052 1 2375997952 0 14 0 0
7.9226036 -10.960999 0.51421911 1 2375997952 0 14 0 0
7.7196069 -10.960999 0.50973624 1 2375997952 0 14 0 0
7.5200906 -10.960999 0.50540638 1 2375997952 0 14 0 0
5.6274319 -8.4220467 0.38512304 1 2375997952 0 14 0 0
5.4773622 -8.4193153 0.38189536 1 2375997952 0 14 0 0
5.3298011 -8.4166784 0.37878042 1 2375997952 0 14 0 0
5.4720154 -8.8805237 0.39660347 1 2375997952 0 14 0 0
5.4720149 -9.1295099 0.40469277 1 2375997952 0 14 0 0
5.4720149 -9.3888979 0.41318366 1 2375997952 0 14 0 0
5.4720149 -9.6594563 0.42210335 1 2375997952 0 14 0 0
5.4720149 -9.9419937 0.43148202 1 2375997952 0 14 0 0
5.4720149 -10.237417 0.44135582 1 2375997952 0 14 0 0
5.4720149 -10.546724 0.45176154 1 2375997952 0 14 0 0
5.4720149 -10.871028 0.46274191 1 2375997952 0 14 0 0
5.3497362 -10.961 0.46374151 1 2375997952 0 14 0 0
5.1841674 -10.960999 0.46101493 1 2375997952 0 14 0 0
5.0205069 -10.960999 0.45838904 1 2375997952 0 14 0 0
4.858674 -10.961 0.45586112 1 2375997952 0 14 0 0
4.698595 -10.960999 0.45342886 1 2375997952 0 14 0 0
4.5401912 -10.961 0.45108971 1 2375997952 0 14 0 0
4.3833909 -10.960999 0.44884223 1 2387998208 0 14 0 0
4.2281265 -10.960999 0.44668373 1 2387998208 0 14 0 0
4.0743203 -10.960999 0.44461235 1 2387998208 0 14 0 0
3.9219115 -10.961 0.44262686 1 2387998208 0 14 0 0
3.7708318 -10.961 0.44072485 1 2387998208 0 14 0 0
3.6210253 -10.961 0.43890479 1 2387998208 0 14 0 0
3.472429 -10.961 0.43716574 1 2387998208 0 14 0 0
3.3249812 -10.960999 0.4355053 1 2387998208 0 14 0 0
3.1786287 -10.961 0.43392265 1 2387998208 0 14 0 0
3.0333142 -10.961 0.43241644 1 2387998208 0 14 0 0
2.8889859 -10.960999 0.43098533 1 2387998208 0 14 0 0
2.7455852 -10.961 0.42962837 1 2387998208 0 14 0 0
2.6030638 -10.960999 0.42834371 1 2387998208 0 14 0 0
2.4613719 -10.961 0.42713097 1 2387998208 0 14 0 0
2.320457 -10.961 0.4259893 1 2387998208 0 14 0 0
2.1802802 -10.961 0.42491722 1 2387998208 0 14 0 0
2.040781 -10.961 0.4239147 1 2387998208 0 14 0 0
1.9019146 -10.961 0.4229801 1 2387998208 0 14 0 0
1.7636397 -10.961 0.42211294 1 2387998208 0 14 0 0
1.6259121 -10.961 0.42131293 1 2387998208 0 14 0 0
1.4886812 -10.961 0.42057899 1 2387998208 0 14 0 0
1.3519088 -10.961 0.41991064 1 2387998208 0 14 0 0
1.215549 -10.961 0.41930747 1 2387998208 0 14 0 0
1.0795611 -10.960999 0.418769 1 2387998208 0 14 0 0
0.94390225 -10.961 0.4182952 1 2387998208 0 14 0 0
0.61935222 -8.3963795 0.32010964 1 2387998208 0 14 0 0
0.51582623 -8.3961525 0.31983557 1 2387998208 0 14 0 0
0.41246665 -8.3959675 0.31961158 1 2387998208 0 14 0 0
0.30923402 -8.3958235 0.31943762 1 2387998208 0 14 0 0
0.20610525 -8.3957214 0.31931344 1 2387998208 0 14 0 0
0.1345221 -10.960999 0.41678399 1 2387998208 0 14 0 0
1.3737008e-06 -10.961 0.4167527 1 2387998208 0 14 0 0
-0.13451613 -10.961 0.41678414 1 2387998208 0 14 0 0
-0.26907548 -10.961 0.41687813 1 2387998208 0 14 0 0
-0.40371904 -10.961 0.41703528 1 2387998208 0 14 0 0
-0.53847837 -10.961 0.41725546 1 2387998208 0 14 0 0
-0.67340577 -10.961 0.41753852 1 2387998208 0 14 0 0
-0.80853486 -10.961 0.41788504 1 2387998208 0 14 0 0
-0.94390744 -10.961 0.4182952 1 2387998208 0 14 0 0
-1.0795687 -10.961 0.41876915 1 2387998208 0 14 0 0
-1.2155554 -10.961 0.41930747 1 2387998208 0 14 0 0
-1.3519151 -10.961 0.41991064 1 2387998208 0 14 0 0
-1.4886804 -10.961 0.42057899 1 2387998208 0 14 0 0
-1.6259069 -10.961 0.42131278 1 2387998208 0 14 0 0
-1.7636372 -10.961 0.42211294 1 2387998208 0 14 0 0
-1.9019122 -10.961 0.4229801 1 2387998208 0 14 0 0
-2.0407763 -10.961 0.42391455 1 2387998208 0 14 0 0
-2.1802797 -10.961 0.42491722 1 2387998208 0 14 0 0
-2.3204606 -10.961 0.42598915 1 2387998208 0 14 0 0
-2.4613767 -10.961 0.42713097 1 2387998208 0 14 0 0
-2.60307 -10.961 0.42834371 1 2387998208 0 14 0 0
-2.7455893 -10.961 0.42962822 1 2387998208 0 14 0 0
-2.8889925 -10.961 0.43098533 1 2387998208 0 14 0 0
-3.0333209 -10.961002 0.43241662 1 2387998208 0 14 0 0
-3.1786346 -10.961 0.4339228 1 2387998208 0 14 0 0
-3.3249872 -10.961 0.43550545 1 2387998208 0 14 0 0
-3.4724309 -10.961 0.43716592 1 2387998208 0 14 0 0
-3.6210284 -10.961 0.43890494 1 2387998208 0 14 0 0
-3.7708347 -10.961 0.44072503 1 2387998208 0 14 0 0
-3.9219141 -10.961 0.44262686 1 2387998208 0 14 0 0
-4.0743227 -10.961 0.44461265 1 2387998208 0 14 0 0
-4.2281303 -10.961002 0.44668403 1 2399998464 0 14 0 0
-4.3834014 -10.961 0.44884223 1 2399998464 0 14 0 0
-4.5401888 -10.961 0.45109001 1 2399998464 0 14 0 0
-4.6699824 -10.894258 0.45067146 1 2399998464 0 14 0 0
-4.5318551 -10.22371 0.42519766 1 2399998464 0 14 0 0
-4.6699829 -10.19573 0.42638648 1 2399998464 0 14 0 0
-4.6699834 -9.8738575 0.41529 1 2399998464 0 14 0 0
-4.4687333 -9.1559296 0.3873722 1 2399998464 0 14 0 0
-4.6097202 -9.1579475 0.38982216 1 2399998464 0 14 0 0
-4.6699834 -9.0009022 0.38554695 1 2399998464 0 14 0 0
-4.5071511 -8.4322901 0.36353308 1 2399998464 0 14 0 0
-4.6422257 -8.4343719 0.36605141 1 2399998464 0 14 0 0
-4.7792354 -8.436532 0.36866295 1 2399998464 0 14 0 0
-4.9182615 -8.4387703 0.37137061 1 2399998464 0 14 0 0
-6.5697718 -10.961002 0.48587957 1 2399998464 0 14 0 0
-6.753973 -10.961 0.48951712 1 2399998464 0 14 0 0
-6.9409776 -10.961 0.49328423 1 2399998464 0 14 0 0
-7.1309152 -10.961002 0.49718541 1 2399998464 0 14 0 0
-7.3239107 -10.961 0.50122428 1 2399998464 0 14 0 0
-7.5200934 -10.961002 0.50540656 1 2399998464 0 14 0 0
-7.7196121 -10.961002 0.50973672 1 2399998464 0 14 0 0
-7.9224544 -10.961 0.51411092 1 2399998464 0 14 0 0
-8.0425787 -10.844157 0.51333016 1 2399998464 0 14 0 0
-8.0425797 -10.570539 0.50501168 1 2399998464 0 14 0 0
-8.0425797 -10.305608 0.49703252 1 2399998464 0 14 0 0
-8.0425806 -10.048881 0.48937446 1 2399998464 0 14 0 0
-8.0425797 -9.7999048 0.4820191 1 2399998464 0 14 0 0
-8.0425806 -9.5582638 0.47495338 1 2399998464 0 14 0 0
-8.0425806 -9.3235769 0.46816078 1 2399998464 0 14 0 0
-8.0425806 -9.0954895 0.46162909 1 2399998464 0 14 0 0
-8.0425797 -8.8736238 0.45534399 1 2399998464 0 14 0 0
-8.0425797 -8.6576986 0.44929573 1 2399998464 0 14 0 0
-8.0425806 -8.4473963 0.44347054 1 2399998464 0 14 0 0
-8.0425806 -8.242444 0.43785927 1 2399998464 0 14 0 0
-8.0425806 -8.0425863 0.43245336 1 2399998464 0 14 0 0
-8.0425806 -7.8475738 0.42724282 1 2399998464 0 14 0 0
-8.0425797 -7.6571817 0.42221931 1 2399998464 0 14 0 0
-8.0425806 -7.4711766 0.41737342 1 2399998464 0 14 0 0
-8.0425806 -7.2893734 0.41270056 1 2399998464 0 14 0 0
-8.0425806 -7.111568 0.40819037 1 2399998464 0 14 0 0
-8.0425806 -6.9375806 0.40383917 1 2399998464 0 14 0 0
-8.0425806 -6.7672381 0.39963874 1 2399998464 0 14 0 0
-8.0425806 -6.600378 0.39558417 1 2399998464 0 14 0 0
-8.0425806 -6.4368443 0.39166969 1 2399998464 0 14 0 0
-8.0425806 -6.2764912 0.38788855 1 2399998464 0 14 0 0
-8.0425806 -6.1191831 0.38423744 1 2399998464 0 14 0 0
-8.0425806 -5.9647846 0.38071173 1 2399998464 0 14 0 0
-8.0425806 -5.81317 0.37730628 1 2399998464 0 14 0 0
-8.0425806 -5.6642237 0.37401649 1 2399998464 0 14 0 0
-8.0425806 -5.5178285 0.37083992 1 2399998464 0 14 0 0
-8.0425806 -5.373878 0.36777169 1 2399998464 0 14 0 0
-8.0425806 -5.2322693 0.36480719 1 2399998464 0 14 0 0
-8.0425806 -5.0929041 0.36194557 1 2399998464 0 14 0 0
-8.0425806 -4.9556885 0.35918066 1 2399998464 0 14 0 0
-8.0425806 -4.8205333 0.35651252 1 2399998464 0 14 0 0
-8.0425806 -4.6873517 0.353935 1 2399998464 0 14 0 0
-8.0425806 -4.5560608 0.35144782 1 2399998464 0 14 0 0
-8.0425816 -4.4265938 0.34904823 1 2399998464 0 14 0 0
-8.0425806 -4.2988539 0.34673226 1 2399998464 0 14 0 0
-8.0425806 -4.1727805 0.34449929 1 2399998464 0 14 0 0
-8.0425806 -4.0482984 0.34234473 1 2399998464 0 14 0 0
-8.0425806 -3.9253478 0.34026831 1 2411998720 0 14 0 0
-8.0425806 -3.8038597 0.33826759 1 2411998720 0 14 0 0
-8.0425806 -3.6837757 0.33634102 1 2411998720 0 14 0 0
-8.0425806 -3.5650332 0.33448553 1 2411998720 0 14 0 0
-8.0425806 -3.4475758 0.33270088 1 2411998720 0 14 0 0
-8.0425806 -3.3313463 0.33098426 1 2411998720 0 14 0 0
-8.0425806 -3.2162926 0.32933509 1 2411998720 0 14 0 0
-8.0425806 -3.1023657 0.32775122 1 2411998720 0 14 0 0
-8.0425816 -2.9895108 0.32623175 1 2411998720 0 14 0 0
-8.0425806 -2.8776789 0.32477453 1 2411998720 0 14 0 0
-8.0425806 -2.7668273 0.32337898 1 2411998720 0 14 0 0
-8.0425806 -2.6569088 0.32204443 1 2411998720 0 14 0 0
-8.0425806 -2.5478771 0.32076788 1 2411998720 0 14 0 0
-8.0425816 -2.4396887 0.31954995 1 2411998720 0 14 0 0
-8.0425806 -2.3323028 0.31838873 1 2411998720 0 14 0 0
-8.0425806 -2.2256784 0.31728309 1 2411998720 0 14 0 0
-8.0425816 -2.1197786 0.31623361 1 2411998720 0 14 0 0
-8.0425806 -2.0145593 0.31523779 1 2411998720 0 14 0 0
-8.0425806 -1.9099857 0.31429541 1 2411998720 0 14 0 0
-8.0425806 -1.8060201 0.31340584 1 2411998720 0 14 0 0
-8.0425816 -1.7026244 0.3125675 1 2411998720 0 14 0 0
-8.0425816 -1.5997643 0.31178078 1 2411998720 0 14 0 0
-8.0425806 -1.4974078 0.31104529 1 2411998720 0 14 0 0
-8.0425806 -1.3955252 0.31036019 1 2411998720 0 14 0 0
-8.0425816 -1.2940658 0.30972359 1 2411998720 0 14 0 0
-8.0425806 -1.1930087 0.30913612 1 2411998720 0 14 0 0
-8.0425816 -1.0923159 0.30859748 1 2411998720 0 14 0 0
-8.0425806 -0.99195981 0.30810708 1 2411998720 0 14 0 0
-8.0425816 -0.89190733 0.30766487 1 2411998720 0 14 0 0
-8.0425816 -0.79212737 0.30726996 1 2411998720 0 14 0 0
-8.0425816 -0.69258851 0.30692208 1 2411998720 0 14 0 0
-8.0425816 -0.59325713 0.30662116 1 2411998720 0 14 0 0
-8.0425816 -0.49410826 0.30636695 1 2411998720 0 14 0 0
-8.0425816 -0.39510742 0.30615881 1 2411998720 0 14 0 0
-8.0425816 -0.29622588 0.30599737 1 2411998720 0 14 0 0
-8.0425816 -0.1974356 0.30588293 1 2411998720 0 14 0 0
-8.0425816 -0.098701783 0.30581367 1 2411998720 0 14 0 0
-8.0425816 9.1552732e-07 0.10188639 1 2315996672 0 15 0 0
-8.0425816 0.098700866 0.10189462 1 2315996672 0 15 0 0
-8.0425816 0.19743438 0.10191655 1 2315996672 0 15 0 0
-8.0425816 0.29622528 0.10195535 1 2315996672 0 15 0 0
-8.0425816 0.3951062 0.10200906 1 2315996672 0 15 0 0
-8.0425816 0.49410704 0.10207832 1 2315996672 0 15 0 0
-8.0425816 0.59325683 0.10216284 1 2315996672 0 15 0 0
-8.0425816 0.69258636 0.10226357 1 2315996672 0 15 0 0
-8.0425806 0.79212368 0.1023792 1 2315996672 0 15 0 0
-8.0425816 0.89190549 0.10251045 1 2315996672 0 15 0 0
-8.0425816 0.99195832 0.10265815 1 2315996672 0 15 0 0
-8.0425816 1.0923138 0.10282207 1 2315996672 0 15 0 0
-8.0425816 1.1930047 0.10300148 1 2315996672 0 15 0 0
-8.0425816 1.2940625 0.1031968 1 2315996672 0 15 0 0
-8.0425816 1.3955218 0.10340828 1 2315996672 0 15 0 0
-8.0425806 1.4974093 0.10363775 1 2315996672 0 15 0 0
-8.0425816 1.5997698 0.10388219 1 2315996672 0 15 0 0
-8.0425816 1.7026278 0.10414404 1 2315996672 0 15 0 0
-8.0425816 1.8060235 0.10442269 1 2315996672 0 15 0 0
-8.0425816 1.9099884 0.10471964 1 2315996672 0 15 0 0
-8.0425806 2.0145614 0.10503423 1 2315996672 0 15 0 0
-8.0425816 2.1197815 0.10536629 1 2315996672 0 15 0 0
-8.0425816 2.2256801 0.10571635 1 2315996672 0 15 0 0
-8.0425816 2.332305 0.10608435 1 2315996672 0 15 0 0
-8.0425816 2.4396889 0.10647166 1 2315996672 0 15 0 0
-8.0425816 2.5478761 0.10687721 1 2315996672 0 15 0 0
-8.0425816 2.6569114 0.10730231 1 2315996672 0 15 0 0
-8.0425816 2.7668314 0.10774785 1 2315996672 0 15 0 0
-8.0425816 2.8776829 0.10821265 1 2315996672 0 15 0 0
-8.0425816 2.9895101 0.10869819 1 2315996672 0 15 0 0
-8.0425816 3.1023648 0.10920447 1 2315996672 0 15 0 0
-8.0425816 3.2162929 0.10973215 1 2315996672 0 15 0 0
-8.0425816 3.331347 0.11028147 1 2315996672 0 15 0 0
-8.0425816 3.4475751 0.11085272 1 2315996672 0 15 0 0
-8.0425825 3.5650325 0.11144781 1 2315996672 0 15 0 0
-8.0425816 3.6837752 0.1120649 1 2315996672 0 15 0 0
-8.0425816 3.8038554 0.11270761 1 2315996672 0 15 0 0
-8.0425816 3.9253438 0.11337411 1 2315996672 0 15 0 0
-8.0425816 4.048296 0.11406595 1 2315996672 0 15 0 0
-8.0425816 4.1727748 0.114784 1 2315996672 0 15 0 0
-8.0425816 4.2988505 0.11552775 1 2315996672 0 15 0 0
-8.0425816 4.4265895 0.11629969 1 2315996672 0 15 0 0
-8.0425816 4.556067 0.11709923 1 2315996672 0 15 0 0
-8.0425825 4.6873565 0.11792749 1 2315996672 0 15 0 0
-8.0425816 4.8205371 0.11878687 1 2315996672 0 15 0 0
-8.0425816 4.9556928 0.11967582 1 2315996672 0 15 0 0
-8.0425816 5.0929093 0.120597 1 2315996672 0 15 0 0
-8.0425816 5.2322741 0.12155068 1 2315996672 0 15 0 0
-8.0425825 5.3738818 0.12253821 1 2327996928 0 15 0 0
-8.0425816 5.5178285 0.12356085 1 2327996928 0 15 0 0
-8.0425816 5.6642222 0.12461925 1 2327996928 0 15 0 0
-8.0425816 5.8131719 0.12571508 1 2327996928 0 15 0 0
-8.0425816 5.9647856 0.12684977 1 2327996928 0 15 0 0
-8.0425825 6.1191845 0.12802404 1 2327996928 0 15 0 0
-8.0425825 6.2764945 0.12924093 1 2327996928 0 15 0 0
-8.0425825 6.4368443 0.13050133 1 2327996928 0 15 0 0
-8.0425816 6.6003747 0.13180536 1 2327996928 0 15 0 0
-8.0425825 6.7672358 0.13315588 1 2327996928 0 15 0 0
-8.0425816 6.9375782 0.13455558 1 2327996928 0 15 0 0
-8.0425816 7.1115661 0.13600624 1 2327996928 0 15 0 0
-8.0425825 7.289371 0.13750803 1 2327996928 0 15 0 0
-8.0425825 7.471179 0.13906455 1 2327996928 0 15 0 0
-8.0425825 7.6571755 0.14067972 1 2327996928 0 15 0 0
-8.0425825 7.847569 0.142353 1 2327996928 0 15 0 0
-8.0425816 8.0425797 0.14408898 1 2327996928 0 15 0 0
-8.0425825 8.2424383 0.14589089 1 2327996928 0 15 0 0
-8.0425835 8.4473886 0.14775991 1 2327996928 0 15 0 0
-8.0425825 8.6576929 0.1497013 1 2327996928 0 15 0 0
-8.0425835 8.8736248 0.15171641 1 2327996928 0 15 0 0
-8.0425825 9.0954828 0.15381098 1 2327996928 0 15 0 0
-8.0425825 9.3235846 0.15598702 1 2327996928 0 15 0 0
-8.0425835 9.5582762 0.15824962 1 2327996928 0 15 0 0
-8.0425835 9.7999125 0.16060495 1 2327996928 0 15 0 0
-8.0425825 10.04889 0.16305578 1 2327996928 0 15 0 0
-8.0425825 10.305617 0.16560644 1 2327996928 0 15 0 0
-8.0425835 10.570549 0.16826487 1 2327996928 0 15 0 0
-8.0425835 10.844168 0.17103678 1 2327996928 0 15 0 0
-7.922473 10.960999 0.17120504 1 2327996928 0 15 0 0
-7.719604 10.960999 0.16983956 1 2327996928 0 15 0 0
-7.5200863 10.960999 0.16839653 1 2327996928 0 15 0 0
-7.3239121 10.960999 0.16700339 1 2327996928 0 15 0 0
-7.1309166 10.960999 0.16565728 1 2327996928 0 15 0 0
-6.9409781 10.960999 0.16435766 1 2327996928 0 15 0 0
-6.7539735 10.960999 0.16310233 1 2327996928 0 15 0 0
-6.5697718 10.960999 0.16189051 1 2327996928 0 15 0 0
-4.7974458 8.231473 0.12069756 1 2327996928 0 15 0 0
-4.6626701 8.2307634 0.11983895 1 2327996928 0 15 0 0
-4.5297861 8.2300777 0.11901069 1 2327996928 0 15 0 0
-4.6699839 8.736927 0.12550211 1 2327996928 0 15 0 0
-4.6393642 8.941884 0.12761861 1 2327996928 0 15 0 0
-4.5006294 8.9412117 0.12680322 1 2327996928 0 15 0 0
-4.6699843 9.568264 0.13488078 1 2327996928 0 15 0 0
-4.6699843 9.8738565 0.13837087 1 2327996928 0 15 0 0
-4.5748458 9.9880171 0.13917333 1 2327996928 0 15 0 0
-4.4271026 9.9873838 0.13840401 1 2327996928 0 15 0 0
-4.6699843 10.89424 0.15015906 1 2327996928 0 15 0 0
-4.5401959 10.960999 0.15029883 1 2327996928 0 15 0 0
-4.3833957 10.960999 0.14954996 1 2327996928 0 15 0 0
-4.2281241 10.960999 0.14883095 1 2327996928 0 15 0 0
-4.0743165 10.960999 0.14814079 1 2327996928 0 15 0 0
-3.9219072 10.960999 0.147479 1 2327996928 0 15 0 0
-3.7708325 10.960999 0.14684534 1 2327996928 0 15 0 0
-3.6210234 10.960999 0.1462391 1 2327996928 0 15 0 0
-3.4724276 10.961 0.14565939 1 2327996928 0 15 0 0
-3.3249817 10.960999 0.14510643 1 2327996928 0 15 0 0
-3.1786306 10.960999 0.14457911 1 2327996928 0 15 0 0
-3.0333142 10.960999 0.14407694 1 2327996928 0 15 0 0
-2.8889849 10.960999 0.14360023 1 2327996928 0 15 0 0
-2.74559 10.960999 0.14314783 1 2327996928 0 15 0 0
-2.6030707 10.960999 0.1427204 1 2339997184 0 15 0 0
-2.4613793 10.960999 0.14231622 1 2339997184 0 15 0 0
-2.3204632 10.960999 0.14193565 1 2339997184 0 15 0 0
-2.1802793 10.961 0.14157844 1 2339997184 0 15 0 0
-2.0407779 10.960999 0.14124429 1 2339997184 0 15 0 0
-1.9019133 10.960999 0.14093268 1 2339997184 0 15 0 0
-1.7636402 10.960999 0.14064413 1 2339997184 0 15 0 0
-1.6259096 10.961 0.1403774 1 2339997184 0 15 0 0
-1.4886818 10.960999 0.14013296 1 2339997184 0 15 0 0
-1.3519081 10.961 0.13991022 1 2339997184 0 15 0 0
-1.2155495 10.960999 0.13970923 1 2339997184 0 15 0 0
-1.079561 10.960999 0.13952982 1 2339997184 0 15 0 0
-0.94390988 10.961 0.13937217 1 2339997184 0 15 0 0
-0.80853379 10.961 0.13923544 1 2339997184 0 15 0 0
-0.67340529 10.961 0.1391201 1 2339997184 0 15 0 0
-0.538481 10.961 0.13902563 1 2339997184 0 15 0 0
-0.40371734 10.961 0.13895226 1 2339997184 0 15 0 0
-0.2690776 10.961 0.13889992 1 2339997184 0 15 0 0
-0.1345201 10.960999 0.13886851 1 2339997184 0 15 0 0
-6.1001629e-07 10.961 0.13885808 1 2339997184 0 15 0 0
0.13451797 10.961 0.13886863 1 2339997184 0 15 0 0
0.20173499 8.2177792 0.10413718 1 2339997184 0 15 0 0
0.30268082 8.2178116 0.10417688 1 2339997184 0 15 0 0
0.40371847 8.2178574 0.10423255 1 2339997184 0 15 0 0
0.50488049 8.2179174 0.10430384 1 2339997184 0 15 0 0
0.60619652 8.217989 0.10439157 1 2339997184 0 15 0 0
0.94390208 10.961 0.13937205 1 2339997184 0 15 0 0
1.0795627 10.961 0.13952994 1 2339997184 0 15 0 0
1.2155503 10.960999 0.13970923 1 2339997184 0 15 0 0
1.3519108 10.961 0.13991022 1 2339997184 0 15 0 0
1.4886794 10.961 0.14013296 1 2339997184 0 15 0 0
1.6259115 10.961 0.1403774 1 2339997184 0 15 0 0
1.7636389 10.961 0.14064401 1 2339997184 0 15 0 0
1.9019146 10.961 0.14093316 1 2339997184 0 15 0 0
2.0407784 10.961 0.14124429 1 2339997184 0 15 0 0
2.1802802 10.961 0.14157844 1 2339997184 0 15 0 0
2.3204618 10.961 0.14193565 1 2339997184 0 15 0 0
2.4613755 10.961 0.14231622 1 2339997184 0 15 0 0
2.6030705 10.961 0.1427201 1 2339997184 0 15 0 0
2.745589 10.961 0.14314812 1 2339997184 0 15 0 0
2.8889842 10.961 0.14360011 1 2339997184 0 15 0 0
3.0333154 10.961 0.14407694 1 2339997184 0 15 0 0
3.1786296 10.961 0.14457911 1 2339997184 0 15 0 0
3.3249841 10.961 0.14510643 1 2339997184 0 15 0 0
3.4724262 10.961 0.14565957 1 2339997184 0 15 0 0
3.6210241 10.961 0.1462391 1 2339997184 0 15 0 0
3.7708321 10.961 0.14684534 1 2339997184 0 15 0 0
3.9219084 10.961 0.14747888 1 2339997184 0 15 0 0
4.0743208 10.961 0.14814067 1 2339997184 0 15 0 0
4.228126 10.961 0.14883077 1 2339997184 0 15 0 0
4.3833952 10.961 0.14954966 1 2339997184 0 15 0 0
4.5401964 10.961 0.15029883 1 2339997184 0 15 0 0
4.6986032 10.961 0.1510781 1 2339997184 0 15 0 0
4.8586755 10.961 0.15188849 1 2339997184 0 15 0 0
5.0205035 10.961 0.15273076 1 2339997184 0 15 0 0
5.1841617 10.961 0.15360588 1 2339997184 0 15 0 0
5.3497362 10.961 0.15451396 1 2339997184 0 15 0 0
5.4720135 10.871025 0.154181 1 2339997184 0 15 0 0
5.4720135 10.546728 0.15051794 1 2339997184 0 15 0 0
5.4720135 10.237422 0.14705545 1 2339997184 0 15 0 0
5.4720135 9.9419928 0.14376581 1 2339997184 0 15 0 0
5.4720144 9.6594563 0.14064062 1 2351997440 0 15 0 0
5.4720135 9.3888988 0.13766807 1 2351997440 0 15 0 0
5.4720144 9.1295004 0.13484049 1 2351997440 0 15 0 0
5.4720144 8.8805122 0.1321438 1 2351997440 0 15 0 0
5.4720144 8.6412506 0.12957269 1 2351997440 0 15 0 0
5.3353052 8.2009497 0.12394404 1 2351997440 0 15 0 0
5.4802723 8.2018166 0.12496847 1 2351997440 0 15 0 0
5.627687 8.2027102 0.12602305 1 2351997440 0 15 0 0
7.7196035 10.961 0.16983896 1 2351997440 0 15 0 0
7.9225993 10.961 0.17133278 1 2351997440 0 15 0 0
8.1292305 10.961 0.1728791 1 2351997440 0 15 0 0
8.3396549 10.961002 0.17447972 1 2351997440 0 15 0 0
8.5540371 10.961 0.17612666 1 2351997440 0 15 0 0
8.7725849 10.961 0.17785424 1 2351997440 0 15 0 0
8.9954605 10.961 0.17963237 1 2351997440 0 15 0 0
9.2228689 10.961 0.18147391 1 2351997440 0 15 0 0
9.4550257 10.961002 0.18338078 1 2351997440 0 15 0 0
9.6921501 10.961002 0.18535727 1 2351997440 0 15 0 0
9.9344788 10.961002 0.18740529 1 2351997440 0 15 0 0
10.182251 10.961002 0.18952721 1 2351997440 0 15 0 0
10.435735 10.961002 0.19172734 1 2351997440 0 15 0 0
10.554015 10.816289 0.19144768 1 2351997440 0 15 0 0
10.554015 10.55402 0.18908304 1 2351997440 0 15 0 0
10.554015 10.298111 0.18680537 1 2351997440 0 15 0 0
10.554015 10.048261 0.1846084 1 2351997440 0 15 0 0
10.554013 9.8041782 0.18249017 1 2351997440 0 15 0 0
10.554015 9.5656013 0.18044627 1 2351997440 0 15 0 0
10.554013 9.3322716 0.17847478 1 2351997440 0 15 0 0
10.554015 9.1039572 0.17657232 1 2351997440 0 15 0 0
10.554013 8.8804226 0.17473567 1 2351997440 0 15 0 0
10.554015 8.6614552 0.17296273 1 2351997440 0 15 0 0
10.339252 8.274971 0.16776651 1 2351997440 0 15 0 0
10.606214 8.2771692 0.1704365 1 2351997440 0 15 0 0
14.4063 10.961002 0.22932321 1 2351997440 0 15 0 0
14.779194 10.961002 0.23310328 1 2351997440 0 15 0 0
14.779201 10.6824 0.23101813 1 2351997440 0 15 0 0
14.779201 10.408689 0.22900152 1 2351997440 0 15 0 0
14.779202 10.13967 0.22705817 1 2351997440 0 15 0 0
14.779202 9.8751459 0.22517949 1 2351997440 0 15 0 0
14.779202 9.6149244 0.22336435 1 2351997440 0 15 0 0
14.779201 9.3588247 0.22161371 1 2351997440 0 15 0 0
14.779201 9.1066732 0.2199198 1 2351997440 0 15 0 0
14.779202 8.8583107 0.21828544 1 2351997440 0 15 0 0
14.779202 8.6135759 0.21670586 1 2351997440 0 15 0 0
14.779202 8.3723097 0.21518534 1 2351997440 0 15 0 0
14.779202 8.1343813 0.21371377 1 2351997440 0 15 0 0
14.779202 7.8996391 0.21229941 1 2351997440 0 15 0 0
14.779201 7.667973 0.21093041 1 2351997440 0 15 0 0
14.779202 7.4392276 0.20961064 1 2351997440 0 15 0 0
14.779202 7.2132907 0.20834005 1 2351997440 0 15 0 0
14.779202 6.9900455 0.20711249 1 2351997440 0 15 0 0
14.779201 6.7693725 0.20593637 1 2351997440 0 15 0 0
14.779202 6.5511694 0.20479941 1 2351997440 0 15 0 0
14.779201 6.3353238 0.20370978 1 2351997440 0 15 0 0
14.779202 6.121748 0.20265341 1 2351997440 0 15 0 0
14.779202 5.9103227 0.20164621 1 2351997440 0 15 0 0
14.779202 5.7009645 0.20067662 1 2351997440 0 15 0 0
14.779202 5.4935803 0.19974619 1 2351997440 0 15 0 0
14.779202 5.2880816 0.1988529 1 2351997440 0 15 0 0
14.779202 5.0843768 0.19799906 1 2351997440 0 15 0 0
14.779202 4.8823881 0.19717902 1 2351997440 0 15 0 0
14.779201 4.6820307 0.19640219 1 2363997696 0 15 0 0
14.779202 4.4832239 0.19565451 1 2363997696 0 15 0 0
14.779199 4.2858891 0.19494176 1 2363997696 0 15 0 0
14.779202 4.0899591 0.19426554 1 2363997696 0 15 0 0
14.779202 3.8953524 0.19362223 1 2363997696 0 15 0 0
14.779202 3.7020023 0.19301307 1 2363997696 0 15 0 0
14.779201 3.509831 0.19243568 1 2363997696 0 15 0 0
14.779201 3.3187802 0.19189095 1 2363997696 0 15 0 0
14.779202 3.1287808 0.19137734 1 2363997696 0 15 0 0
14.779202 2.939765 0.19089574 1 2363997696 0 15 0 0
14.779201 2.7516689 0.19044626 1 2363997696 0 15 0 0
14.779202 2.5644355 0.19002509 1 2363997696 0 15 0 0
14.779201 2.3779933 0.18963599 1 2363997696 0 15 0 0
14.779201 2.1922848 0.18927681 1 2363997696 0 15 0 0
14.779201 2.0072613 0.1889475 1 2363997696 0 15 0 0
14.779202 1.8228436 0.18864632 1 2363997696 0 15 0 0
14.779201 1.6389834 0.18837529 1 2363997696 0 15 0 0
14.779202 1.4556283 0.18813485 1 2363997696 0 15 0 0
14.779202 1.2727121 0.18792152 1 2363997696 0 15 0 0
14.779202 1.0901788 0.18773657 1 2363997696 0 15 0 0
14.779202 0.90798062 0.18758094 1 2363997696 0 15 0 0
14.779202 0.72605556 0.18745369 1 2363997696 0 15 0 0
14.779201 0.54435027 0.1873554 1 2363997696 0 15 0 0
14.779202 0.36280882 0.18728399 1 2363997696 0 15 0 0
14.779202 0.18137421 0.18724251 1 2363997696 0 15 0 0
14.779201 -2.4414062e-06 0.18722755 1 2363997696 0 15 0 0
14.779202 -0.18138152 0.18724221 1 2363997696 0 15 0 0
14.779201 -0.36280638 0.18728399 1 2363997696 0 15 0 0
14.779202 -0.54434597 0.1873554 1 2363997696 0 15 0 0
14.779201 -0.72605103 0.18745399 1 2363997696 0 15 0 0
14.779202 -0.90797848 0.18758094 1 2363997696 0 15 0 0
14.779202 -1.0901788 0.18773657 1 2363997696 0 15 0 0
14.779202 -1.2727051 0.18792123 1 2363997696 0 15 0 0
14.779201 -1.4556216 0.18813485 1 2363997696 0 15 0 0
3.3335185 -0.36968029 0.042489111 1 2363997696 0 15 0 0
3.3257992 -0.41019842 0.04245168 1 2363997696 0 15 0 0
3.3180904 -0.45065096 0.042420685 1 2363997696 0 15 0 0
3.3103905 -0.49105051 0.042396069 1 2363997696 0 15 0 0
3.3026965 -0.53140885 0.04237783 1 2363997696 0 15 0 0
3.2950063 -0.57173842 0.042366207 1 2363997696 0 15 0 0
3.2873178 -0.61205125 0.042360604 1 2363997696 0 15 0 0
3.2796285 -0.652358 0.042361438 1 2363997696 0 15 0 0
3.2719362 -0.69267362 0.04236865 1 2363997696 0 15 0 0
3.2642381 -0.73300892 0.04238236 1 2363997696 0 15 0 0
3.2565329 -0.77337551 0.042402446 1 2363997696 0 15 0 0
3.248817 -0.81378609 0.042428732 1 2363997696 0 15 0 0
3.2410891 -0.85425252 0.042461574 1 2363997696 0 15 0 0
3.2333465 -0.89478743 0.042500794 1 2363997696 0 15 0 0
3.2255864 -0.93540299 0.04254657 1 2363997696 0 15 0 0
3.2178075 -0.97611129 0.042598724 1 2363997696 0 15 0 0
3.2100062 -1.0169256 0.042657495 1 2363997696 0 15 0 0
3.2021811 -1.0578583 0.042722702 1 2363997696 0 15 0 0
3.1943293 -1.0989219 0.042794704 1 2363997696 0 15 0 0
3.1864476 -1.1401298 0.042873383 1 2363997696 0 15 0 0
3.1785345 -1.1814951 0.042958856 1 2363997696 0 15 0 0
3.1705873 -1.2230297 0.043050945 1 2363997696 0 15 0 0
3.1626027 -1.2647504 0.043149889 1 2363997696 0 15 0 0
14.779201 -6.1217432 0.20265478 1 2363997696 0 15 0 0
14.779201 -6.3353271 0.2037046 1 2363997696 0 15 0 0
14.779202 -6.5511713 0.20479745 1 2363997696 0 15 0 0
14.779201 -6.769372 0.20593393 1 2363997696 0 15 0 0
14.779202 -6.9900389 0.20711344 1 2375997952 0 15 0 0
14.779201 -7.2132874 0.20833868 1 2375997952 0 15 0 0
14.779201 -7.4392271 0.20960945 1 2375997952 0 15 0 0
14.779202 -7.6679711 0.21092749 1 2375997952 0 15 0 0
14.779201 -7.8996477 0.21229589 1 2375997952 0 15 0 0
14.779202 -8.134387 0.21371406 1 2375997952 0 15 0 0
14.779202 -8.3723192 0.21518409 1 2375997952 0 15 0 0
14.779202 -8.6135702 0.21670663 1 2375997952 0 15 0 0
14.779201 -8.8583069 0.21828377 1 2375997952 0 15 0 0
14.779199 -9.1066723 0.21991861 1 2375997952 0 15 0 0
14.779202 -9.3588228 0.22161078 1 2375997952 0 15 0 0
14.779201 -9.6149216 0.22336251 1 2375997952 0 15 0 0
14.779202 -9.8751421 0.225178 1 2375997952 0 15 0 0
14.779201 -10.13967 0.22705632 1 2375997952 0 15 0 0
14.779202 -10.408687 0.22900182 1 2375997952 0 15 0 0
14.779201 -10.682396 0.23101634 1 2375997952 0 15 0 0
14.779193 -10.960999 0.23310125 1 2375997952 0 15 0 0
14.406285 -10.960999 0.22932351 1 2375997952 0 15 0 0
10.606206 -8.2771664 0.17043692 1 2375997952 0 15 0 0
10.339241 -8.2749691 0.16776663 1 2375997952 0 15 0 0
10.554016 -8.6614599 0.1729632 1 2375997952 0 15 0 0
10.554015 -8.8804178 0.17473578 1 2375997952 0 15 0 0
10.554016 -9.1039524 0.17657191 1 2375997952 0 15 0 0
10.554016 -9.3322725 0.17847544 1 2375997952 0 15 0 0
10.554016 -9.5655994 0.18044657 1 2375997952 0 15 0 0
10.554016 -9.8041782 0.18248987 1 2375997952 0 15 0 0
10.554016 -10.048259 0.1846084 1 2375997952 0 15 0 0
10.554016 -10.29811 0.18680519 1 2375997952 0 15 0 0
10.554016 -10.554016 0.18908209 1 2375997952 0 15 0 0
10.554016 -10.816282 0.19144613 1 2375997952 0 15 0 0
10.435739 -10.960999 0.19172722 1 2375997952 0 15 0 0
10.182245 -10.960999 0.18952781 1 2375997952 0 15 0 0
9.9344692 -10.960999 0.18740529 1 2375997952 0 15 0 0
9.6921406 -10.960999 0.18535745 1 2375997952 0 15 0 0
9.45502 -10.961 0.18338144 1 2375997952 0 15 0 0
9.2228708 -10.961 0.18147379 1 2375997952 0 15 0 0
8.9954615 -10.960999 0.17963266 1 2375997952 0 15 0 0
8.7725897 -10.960999 0.17785484 1 2375997952 0 15 0 0
8.5540209 -10.960999 0.17611259 1 2375997952 0 15 0 0
8.3396645 -10.960999 0.17448586 1 2375997952 0 15 0 0
8.1292315 -10.960999 0.17287928 1 2375997952 0 15 0 0
7.9226046 -10.960999 0.17133278 1 2375997952 0 15 0 0
7.7196078 -10.960999 0.16983926 1 2375997952 0 15 0 0
5.627686 -8.2027054 0.12602013 1 2375997952 0 15 0 0
5.4802723 -8.2018108 0.12496358 1 2375997952 0 15 0 0
5.335299 -8.2009478 0.12394387 1 2375997952 0 15 0 0
5.4720149 -8.6412582 0.12957388 1 2375997952 0 15 0 0
5.4720149 -8.8805237 0.13214439 1 2375997952 0 15 0 0
5.4720154 -9.1295128 0.13484001 1 2375997952 0 15 0 0
5.4720149 -9.3888979 0.13766867 1 2375997952 0 15 0 0
5.4720149 -9.6594553 0.14064097 1 2375997952 0 15 0 0
5.4720149 -9.9419909 0.14376563 1 2375997952 0 15 0 0
5.4720149 -10.237417 0.14705586 1 2375997952 0 15 0 0
5.4720149 -10.546724 0.15052253 1 2375997952 0 15 0 0
5.4720154 -10.871028 0.1541813 1 2375997952 0 15 0 0
5.3497372 -10.961 0.15451425 1 2375997952 0 15 0 0
5.184164 -10.961 0.15360588 1 2375997952 0 15 0 0
5.0205054 -10.961 0.15273076 1 2375997952 0 15 0 0
4.858674 -10.960999 0.15188837 1 2375997952 0 15 0 0
4.6985955 -10.960999 0.15107799 1 2375997952 0 15 0 0
4.5401907 -10.960999 0.15029883 1 2375997952 0 15 0 0
4.3833895 -10.961 0.14954978 1 2387998208 0 15 0 0
4.228128 -10.961 0.14883065 1 2387998208 0 15 0 0
4.0743194 -10.961 0.14814067 1 2387998208 0 15 0 0
3.9219084 -10.961 0.147479 1 2387998208 0 15 0 0
3.7708349 -10.960999 0.14684516 1 2387998208 0 15 0 0
3.6210253 -10.961 0.1462391 1 2387998208 0 15 0 0
3.4724278 -10.960999 0.14565939 1 2387998208 0 15 0 0
3.3249822 -10.961 0.14510626 1 2387998208 0 15 0 0
3.1786304 -10.961 0.14457875 1 2387998208 0 15 0 0
3.0333142 -10.961 0.14407676 1 2387998208 0 15 0 0
2.8889861 -10.961 0.14360023 1 2387998208 0 15 0 0
2.7455862 -10.961 0.14314795 1 2387998208 0 15 0 0
2.6030645 -10.961 0.1427201 1 2387998208 0 15 0 0
2.4613709 -10.961 0.14231575 1 2387998208 0 15 0 0
2.320457 -10.961 0.14193553 1 2387998208 0 15 0 0
2.180279 -10.960999 0.14157844 1 2387998208 0 15 0 0
2.0407803 -10.961 0.14124429 1 2387998208 0 15 0 0
1.9019138 -10.961 0.14093286 1 2387998208 0 15 0 0
1.7636415 -10.961 0.14064401 1 2387998208 0 15 0 0
1.6259098 -10.961 0.14037728 1 2387998208 0 15 0 0
1.4886807 -10.961 0.14013284 1 2387998208 0 15 0 0
1.3519094 -10.961 0.13991022 1 2387998208 0 15 0 0
1.2155507 -10.961 0.13970923 1 2387998208 0 15 0 0
1.0795628 -10.960999 0.13952965 1 2387998208 0 15 0 0
0.94390225 -10.961 0.13937205 1 2387998208 0 15 0 0
0.60619354 -8.217989 0.10439128 1 2387998208 0 15 0 0
0.50487804 -8.2179165 0.10430396 1 2387998208 0 15 0 0
0.40371558 -8.2178583 0.10423243 1 2387998208 0 15 0 0
0.30267635 -8.2178125 0.104177 1 2387998208 0 15 0 0
0.20173638 -8.2177792 0.10413706 1 2387998208 0 15 0 0
0.13452271 -10.961 0.13886863 1 2387998208 0 15 0 0
1.527369e-07 -10.961 0.13885796 1 2387998208 0 15 0 0
-0.13451628 -10.961 0.13886851 1 2387998208 0 15 0 0
-0.26907548 -10.961 0.13889992 1 2387998208 0 15 0 0
-0.40371627 -10.961 0.13895208 1 2387998208 0 15 0 0
-0.53847963 -10.961 0.13902551 1 2387998208 0 15 0 0
-0.67340726 -10.961 0.13911963 1 2387998208 0 15 0 0
-0.80853498 -10.961 0.13923532 1 2387998208 0 15 0 0
-0.94390744 -10.961 0.13937205 1 2387998208 0 15 0 0
-1.0795655 -10.961 0.13952982 1 2387998208 0 15 0 0
-1.2155517 -10.961 0.13970941 1 2387998208 0 15 0 0
-1.3519136 -10.961 0.13991004 1 2387998208 0 15 0 0
-1.4886799 -10.961 0.14013284 1 2387998208 0 15 0 0
-1.6259096 -10.961 0.14037728 1 2387998208 0 15 0 0
-1.7636391 -10.961 0.14064384 1 2387998208 0 15 0 0
-1.9019122 -10.961 0.14093268 1 2387998208 0 15 0 0
-2.0407784 -10.961 0.14124429 1 2387998208 0 15 0 0
-2.1802785 -10.961 0.14157844 1 2387998208 0 15 0 0
-2.3204615 -10.961 0.14193553 1 2387998208 0 15 0 0
-2.4613762 -10.961 0.14231575 1 2387998208 0 15 0 0
-2.60307 -10.961 0.14271998 1 2387998208 0 15 0 0
-2.745589 -10.961 0.14314783 1 2387998208 0 15 0 0
-2.8889899 -10.961 0.14360023 1 2387998208 0 15 0 0
-3.0333185 -10.961 0.14407694 1 2387998208 0 15 0 0
-3.1786349 -10.961 0.14457893 1 2387998208 0 15 0 0
-3.3249867 -10.961 0.14510643 1 2387998208 0 15 0 0
-3.4724331 -10.961002 0.14565957 1 2387998208 0 15 0 0
-3.6210284 -10.961 0.14623922 1 2387998208 0 15 0 0
-3.770838 -10.961 0.14684546 1 2387998208 0 15 0 0
-3.9219136 -10.961 0.14747918 1 2387998208 0 15 0 0
-4.0743208 -10.961 0.14814049 1 2387998208 0 15 0 0
-4.2281303 -10.961002 0.14883095 1 2399998464 0 15 0 0
-4.3834019 -10.961 0.14955008 1 2399998464 0 15 0 0
-4.5401902 -10.961 0.15029883 1 2399998464 0 15 0 0
-4.6699829 -10.894255 0.15015692 1 2399998464 0 15 0 0
-4.4270973 -9.987381 0.13839686 1 2399998464 0 15 0 0
-4.5748439 -9.9880209 0.13917351 1 2399998464 0 15 0 0
-4.6699834 -9.8738604 0.13837105 1 2399998464 0 15 0 0
-4.6699834 -9.5682669 0.13488042 1 2399998464 0 15 0 0
-4.5006304 -8.9412222 0.12681127 1 2399998464 0 15 0 0
-4.6393638 -8.9418879 0.12761909 1 2399998464 0 15 0 0
-4.6699834 -8.7369289 0.12550181 1 2399998464 0 15 0 0
-4.5297842 -8.2300787 0.11901069 1 2399998464 0 15 0 0
-4.6626697 -8.2307644 0.11983895 1 2399998464 0 15 0 0
-4.7974448 -8.2314749 0.12069738 1 2399998464 0 15 0 0
-6.5697713 -10.961 0.16189051 1 2399998464 0 15 0 0
-6.7539716 -10.961002 0.16310221 1 2399998464 0 15 0 0
-6.9409785 -10.961002 0.16435754 1 2399998464 0 15 0 0
-7.1309166 -10.961002 0.1656574 1 2399998464 0 15 0 0
-7.3239121 -10.961002 0.16700292 1 2399998464 0 15 0 0
-7.5200949 -10.961002 0.16839713 1 2399998464 0 15 0 0
-7.7196126 -10.961002 0.16983938 1 2399998464 0 15 0 0
-7.9226084 -10.961002 0.17133278 1 2399998464 0 15 0 0
-8.0425787 -10.844153 0.17103642 1 2399998464 0 15 0 0
-8.0425806 -10.570536 0.16826457 1 2399998464 0 15 0 0
-8.0425797 -10.305609 0.16560614 1 2399998464 0 15 0 0
-8.0425806 -10.048877 0.16305369 1 2399998464 0 15 0 0
-8.0425797 -9.7999029 0.160604 1 2399998464 0 15 0 0
-8.0425806 -9.5582647 0.15824926 1 2399998464 0 15 0 0
-8.0425806 -9.3235712 0.15598577 1 2399998464 0 15 0 0
-8.0425806 -9.0954866 0.1538105 1 2399998464 0 15 0 0
-8.0425806 -8.8736258 0.15171546 1 2399998464 0 15 0 0
-8.0425806 -8.6576996 0.1497007 1 2399998464 0 15 0 0
-8.0425787 -8.4473972 0.14776039 1 2399998464 0 15 0 0
-8.0425806 -8.242445 0.14589059 1 2399998464 0 15 0 0
-8.0425797 -8.0425863 0.14408976 1 2399998464 0 15 0 0
-8.0425806 -7.8475723 0.1423533 1 2399998464 0 15 0 0
-8.0425806 -7.6571789 0.14067972 1 2399998464 0 15 0 0
-8.0425806 -7.4711776 0.13906533 1 2399998464 0 15 0 0
-8.0425797 -7.289371 0.13750708 1 2399998464 0 15 0 0
-8.0425806 -7.1115685 0.13600564 1 2399998464 0 15 0 0
-8.0425806 -6.9375782 0.13455546 1 2399998464 0 15 0 0
-8.0425806 -6.7672362 0.13315529 1 2399998464 0 15 0 0
-8.0425806 -6.6003776 0.13180459 1 2399998464 0 15 0 0
-8.0425806 -6.4368458 0.13050085 1 2399998464 0 15 0 0
-8.0425806 -6.2764921 0.12924141 1 2399998464 0 15 0 0
-8.0425806 -6.1191821 0.128025 1 2399998464 0 15 0 0
-8.0425806 -5.9647837 0.12684941 1 2399998464 0 15 0 0
-8.0425806 -5.8131704 0.12571448 1 2399998464 0 15 0 0
-8.0425806 -5.6642213 0.12461889 1 2399998464 0 15 0 0
-8.0425806 -5.5178275 0.12356055 1 2399998464 0 15 0 0
-8.0425806 -5.3738775 0.12253791 1 2399998464 0 15 0 0
-8.0425806 -5.2322702 0.12155068 1 2399998464 0 15 0 0
-8.0425806 -5.092905 0.12059671 1 2399998464 0 15 0 0
-8.0425806 -4.9556875 0.11967504 1 2399998464 0 15 0 0
-8.0425806 -4.8205338 0.11878669 1 2399998464 0 15 0 0
-8.0425806 -4.6873498 0.11792761 1 2399998464 0 15 0 0
-8.0425806 -4.5560608 0.11709905 1 2399998464 0 15 0 0
-8.0425806 -4.4265924 0.11629921 1 2399998464 0 15 0 0
-8.0425806 -4.2988529 0.11552835 1 2399998464 0 15 0 0
-8.0425806 -4.1727796 0.1147837 1 2399998464 0 15 0 0
-8.0425806 -4.0482984 0.11406624 1 2399998464 0 15 0 0
-8.0425806 -3.9253466 0.11337352 1 2411998720 0 15 0 0
-8.0425806 -3.8038609 0.11270791 1 2411998720 0 15 0 0
-8.0425806 -3.6837728 0.1120652 1 2411998720 0 15 0 0
-8.0425806 -3.5650334 0.11144692 1 2411998720 0 15 0 0
-8.0425806 -3.4475729 0.11085212 1 2411998720 0 15 0 0
-8.0425806 -3.3313468 0.11028081 1 2411998720 0 15 0 0
-8.0425806 -3.2162957 0.1097312 1 2411998720 0 15 0 0
-8.0425806 -3.102366 0.10920358 1 2411998720 0 15 0 0
-8.0425806 -2.9895113 0.1086973 1 2411998720 0 15 0 0
-8.0425816 -2.8776822 0.10821205 1 2411998720 0 15 0 0
-8.0425816 -2.7668297 0.10774755 1 2411998720 0 15 0 0
-8.0425816 -2.6569083 0.10730141 1 2411998720 0 15 0 0
-8.0425806 -2.5478776 0.10687661 1 2411998720 0 15 0 0
-8.0425806 -2.4396892 0.1064713 1 2411998720 0 15 0 0
-8.0425806 -2.3323021 0.10608435 1 2411998720 0 15 0 0
-8.0425816 -2.2256799 0.10571635 1 2411998720 0 15 0 0
-8.0425816 -2.1197791 0.10536629 1 2411998720 0 15 0 0
-8.0425806 -2.0145602 0.10503423 1 2411998720 0 15 0 0
-8.0425806 -1.9099859 0.10472023 1 2411998720 0 15 0 0
-8.0425806 -1.8060186 0.10442328 1 2411998720 0 15 0 0
-8.0425816 -1.7026242 0.10414433 1 2411998720 0 15 0 0
-8.0425806 -1.5997643 0.10388255 1 2411998720 0 15 0 0
-8.0425806 -1.4974078 0.10363775 1 2411998720 0 15 0 0
-8.0425816 -1.3955237 0.10340858 1 2411998720 0 15 0 0
-8.0425806 -1.2940658 0.1031971 1 2411998720 0 15 0 0
-8.0425816 -1.1930075 0.10300148 1 2411998720 0 15 0 0
-8.0425816 -1.0923151 0.10282207 1 2411998720 0 15 0 0
-8.0425816 -0.99196011 0.10265845 1 2411998720 0 15 0 0
-8.0425816 -0.89190763 0.10251075 1 2411998720 0 15 0 0
-8.0425806 -0.79212612 0.1023792 1 2411998720 0 15 0 0
-8.0425816 -0.69258726 0.10226357 1 2411998720 0 15 0 0
-8.0425816 -0.59325743 0.10216314 1 2411998720 0 15 0 0
-8.0425816 -0.49410796 0.10207832 1 2411998720 0 15 0 0
-8.0425806 -0.39510801 0.10200936 1 2411998720 0 15 0 0
-8.0425816 -0.2962262 0.10195565 1 2411998720 0 15 0 0
-8.0425806 -0.19743469 0.10191691 1 2411998720 0 15 0 0
-8.0425816 -0.098702699 0.10189432 1 2411998720 0 15 0 0
-8.0425816 1.2207031e-06 -0.10188681 1 2315996672 0 16 0 0
-8.0425816 0.098700866 -0.10189414 1 2315996672 0 16 0 0
-8.0425816 0.19743408 -0.10191762 1 2315996672 0 16 0 0
-8.0425816 0.29622498 -0.10195547 1 2315996672 0 16 0 0
-8.0425816 0.3951062 -0.10200983 1 2315996672 0 16 0 0
-8.0425816 0.49410704 -0.1020788 1 2315996672 0 16 0 0
-8.0425816 0.59325683 -0.10216361 1 2315996672 0 16 0 0
-8.0425816 0.69258696 -0.10226369 1 2315996672 0 16 0 0
-8.0425806 0.79212338 -0.10237968 1 2315996672 0 16 0 0
-8.0425816 0.89190644 -0.10251212 1 2315996672 0 16 0 0
-8.0425816 0.99195832 -0.10265923 1 2315996672 0 16 0 0
-8.0425806 1.0923132 -0.10282159 1 2315996672 0 16 0 0
-8.0425816 1.1930057 -0.10300165 1 2315996672 0 16 0 0
-8.0425816 1.2940621 -0.10319692 1 2315996672 0 16 0 0
-8.0425816 1.3955221 -0.10340965 1 2315996672 0 16 0 0
-8.0425816 1.4974109 -0.10363764 1 2315996672 0 16 0 0
-8.0425816 1.5997698 -0.10388356 1 2315996672 0 16 0 0
-8.0425816 1.7026278 -0.10414511 1 2315996672 0 16 0 0
-8.0425816 1.8060232 -0.10442436 1 2315996672 0 16 0 0
-8.0425816 1.909988 -0.10472101 1 2315996672 0 16 0 0
-8.0425816 2.0145626 -0.10503441 1 2315996672 0 16 0 0
-8.0425816 2.1197813 -0.10536581 1 2315996672 0 16 0 0
-8.0425816 2.2256806 -0.10571617 1 2315996672 0 16 0 0
-8.0425816 2.3323057 -0.10608482 1 2315996672 0 16 0 0
-8.0425816 2.4396906 -0.10647148 1 2315996672 0 16 0 0
-8.0425806 2.5478754 -0.10687643 1 2315996672 0 16 0 0
-8.0425816 2.6569109 -0.10730219 1 2315996672 0 16 0 0
-8.0425816 2.7668309 -0.10774678 1 2315996672 0 16 0 0
-8.0425816 2.8776824 -0.10821158 1 2315996672 0 16 0 0
-8.0425816 2.9895096 -0.10869682 1 2315996672 0 16 0 0
