# .PCD v0.7 - Point Cloud Data file format
VERSION 0.7
FIELDS x y z intensity t reflectivity ring noise range
SIZE 4 4 4 4 4 2 2 2 4
TYPE F F F F U U U U U
COUNT 1 1 1 1 1 1 1 1 1
WIDTH 134
HEIGHT 1
VIEWPOINT 0 0 0 1 0 0 0
POINTS 134
DATA ascii
4.0540957 1.2297972 0.053669691 1 2811145728 0 15 0 0
4.0670371 1.1794195 0.053645611 1 2811145728 0 15 0 0
4.079968 1.1290797 0.053629279 1 2811145728 0 15 0 0
4.0928903 1.0787619 0.053621113 1 2811145728 0 15 0 0
4.067553 1.2885962 -0.054053485 1 2811145728 0 16 0 0
4.0805798 1.237831 -0.054020703 1 2811145728 0 16 0 0
4.0935941 1.1871209 -0.053995907 1 2811145728 0 16 0 0
4.1066008 1.1364499 -0.053979337 1 2811145728 0 16 0 0
4.1196036 1.0858026 -0.053970993 1 2811145728 0 16 0 0
4.132606 1.0351642 -0.053970933 1 2811145728 0 16 0 0
4.1456122 0.98451859 -0.05397886 1 2811145728 0 16 0 0
4.1586266 0.93385082 -0.053995073 1 2811145728 0 16 0 0
4.1716528 0.88314533 -0.054019392 1 2811145728 0 16 0 0
4.0681033 1.3995187 -0.16357231 1 2811145728 0 17 0 0
4.0812268 1.3482541 -0.16342229 1 2811145728 0 17 0 0
4.0943336 1.2970802 -0.16329759 1 2811145728 0 17 0 0
4.1074295 1.245976 -0.16319788 1 2811145728 0 17 0 0
4.1205173 1.1949284 -0.16312265 1 2811145728 0 17 0 0
4.1336007 1.1439219 -0.16307271 1 2811145728 0 17 0 0
4.1466846 1.0929406 -0.16304731 1 2811145728 0 17 0 0
4.1597729 1.0419693 -0.16304719 1 2811145728 0 17 0 0
4.1728692 0.99099159 -0.16307133 1 2811145728 0 17 0 0
4.1859775 0.93999249 -0.16312039 1 2811145728 0 17 0 0
4.1991019 0.88895637 -0.16319442 1 2811145728 0 17 0 0
4.2122464 0.83786732 -0.1632936 1 2811145728 0 17 0 0
4.2254148 0.78670996 -0.1634174 1 2811145728 0 17 0 0
4.2386117 0.73546815 -0.16356629 1 2811145728 0 17 0 0
4.0819607 1.4605479 -0.27496493 1 2811145728 0 18 0 0
4.0951629 1.4088277 -0.27466905 1 2811145728 0 18 0 0
4.1083488 1.3572143 -0.27441609 1 2811145728 0 18 0 0
4.1215219 1.3056934 -0.27420497 1 2811145728 0 18 0 0
4.1346879 1.2542446 -0.27403605 1 2811145728 0 18 0 0
4.14785 1.2028551 -0.27390945 1 2811145728 0 18 0 0
4.1610117 1.1515077 -0.27382457 1 2811145728 0 18 0 0
4.1741781 1.1001872 -0.2737819 1 2811145728 0 18 0 0
4.1873531 1.0488776 -0.27378118 1 2811145728 0 18 0 0
4.2005401 0.997563 -0.27382243 1 2811145728 0 18 0 0
4.2137432 0.94622773 -0.2739054 1 2811145728 0 18 0 0
4.2269678 0.89485562 -0.27403057 1 2811145728 0 18 0 0
4.2402163 0.84343129 -0.27419758 1 2811145728 0 18 0 0
4.2534943 0.79193795 -0.27440739 1 2811145728 0 18 0 0
4.2668047 0.74036008 -0.27465928 1 2811145728 0 18 0 0
4.2801523 0.6886813 -0.27495372 1 2811145728 0 18 0 0
4.293541 0.63688564 -0.27529073 1 2811145728 0 18 0 0
4.3069754 0.58495843 -0.27567112 1 2811145728 0 18 0 0
4.0961356 1.5225756 -0.3885206 1 2811145728 0 19 0 0
4.1094131 1.4703707 -0.38803911 1 2811145728 0 19 0 0
4.122674 1.4182924 -0.3876189 1 2811145728 0 19 0 0
4.1359229 1.3663232 -0.38725877 1 2811145728 0 19 0 0
4.1491632 1.3144499 -0.38695884 1 2811145728 0 19 0 0
4.1623998 1.262651 -0.38671887 1 2811145728 0 19 0 0
4.1756372 1.2109129 -0.38653934 1 2811145728 0 19 0 0
4.1888785 1.1592193 -0.38641894 1 2811145728 0 19 0 0
4.2021289 1.107554 -0.38635826 1 2811145728 0 19 0 0
4.2153916 1.0559008 -0.38635719 1 2811145728 0 19 0 0
4.2286716 1.0042437 -0.38641548 1 2811145728 0 19 0 0
4.241972 0.95256668 -0.38653362 1 2811145728 0 19 0 0
4.2552977 0.90085304 -0.38671136 1 2811145728 0 19 0 0
4.2686524 0.84908736 -0.38694894 1 2811145728 0 19 0 0
4.2820411 0.79725295 -0.38724637 1 2811145728 0 19 0 0
4.2954679 0.74533349 -0.38760412 1 2811145728 0 19 0 0
4.3089361 0.69331264 -0.38802254 1 2811145728 0 19 0 0
4.3224506 0.64117414 -0.38850176 1 2811145728 0 19 0 0
4.3360162 0.58890235 -0.38904202 1 2811145728 0 19 0 0
4.349637 0.53647733 -0.38964427 1 2811145728 0 19 0 0
4.3633175 0.48388347 -0.3903085 1 2811145728 0 19 0 0
4.3770623 0.43110371 -0.39103508 1 2823145984 0 19 0 0
4.3908768 0.37812001 -0.3918252 1 2823145984 0 19 0 0
4.1240306 1.5329446 -0.50379419 1 2811145728 0 20 0 0
4.1373634 1.480372 -0.50316584 1 2811145728 0 20 0 0
4.1506839 1.4279283 -0.50261664 1 2811145728 0 20 0 0
4.1639967 1.3755975 -0.50214684 1 2811145728 0 20 0 0
4.1773047 1.323365 -0.50175548 1 2811145728 0 20 0 0
4.1906137 1.2712095 -0.50144219 1 2811145728 0 20 0 0
4.203927 1.219117 -0.50120747 1 2811145728 0 20 0 0
4.2172494 1.1670706 -0.50105035 1 2811145728 0 20 0 0
4.2305851 1.1150541 -0.50097096 1 2811145728 0 20 0 0
4.2439375 1.0630512 -0.50096941 1 2811145728 0 20 0 0
4.2573113 1.0110455 -0.50104594 1 2811145728 0 20 0 0
4.2707109 0.9590202 -0.50119996 1 2811145728 0 20 0 0
4.2841401 0.90695924 -0.50143206 1 2811145728 0 20 0 0
4.2976041 0.85484618 -0.50174248 1 2811145728 0 20 0 0
4.3111053 0.80266446 -0.50213099 1 2811145728 0 20 0 0
4.3246503 0.75039732 -0.50259805 1 2811145728 0 20 0 0
4.3382421 0.69802827 -0.50314403 1 2811145728 0 20 0 0
4.3518853 0.64554012 -0.50376976 1 2811145728 0 20 0 0
4.3655844 0.59291834 -0.504475 1 2811145728 0 20 0 0
4.379344 0.54014152 -0.50526094 1 2811145728 0 20 0 0
4.3931694 0.48719409 -0.50612795 1 2811145728 0 20 0 0
4.4070644 0.43405861 -0.50707698 1 2823145984 0 20 0 0
4.4210348 0.38071716 -0.50810838 1 2823145984 0 20 0 0
4.1926208 1.3850536 -0.61928773 1 2811145728 0 21 0 0
4.2059979 1.3324549 -0.61880136 1 2811145728 0 21 0 0
4.2193799 1.2799356 -0.61841297 1 2811145728 0 21 0 0
4.2327714 1.2274818 -0.61812127 1 2811145728 0 21 0 0
4.2461762 1.1750757 -0.61792636 1 2811145728 0 21 0 0
4.2595987 1.1227013 -0.61782801 1 2811145728 0 21 0 0
4.2730422 1.0703416 -0.6178261 1 2811145728 0 21 0 0
4.2865124 1.0179802 -0.61792099 1 2811145728 0 21 0 0
4.3000131 0.96560013 -0.61811221 1 2811145728 0 21 0 0
4.3135481 0.91318482 -0.61839998 1 2811145728 0 21 0 0
4.3271222 0.86071777 -0.61878526 1 2811145728 0 21 0 0
4.3407397 0.80818188 -0.61926758 1 2811145728 0 21 0 0
4.3544054 0.75556022 -0.61984742 1 2811145728 0 21 0 0
4.3681235 0.70283598 -0.6205256 1 2811145728 0 21 0 0
4.3818984 0.64999187 -0.62130249 1 2811145728 0 21 0 0
4.3957343 0.59701329 -0.62217891 1 2811145728 0 21 0 0
4.4096365 0.5438776 -0.62315476 1 2811145728 0 21 0 0
4.4236102 0.49056965 -0.62423182 1 2811145728 0 21 0 0
4.4376593 0.43707159 -0.6254102 1 2823145984 0 21 0 0
4.275713 1.1832498 -0.73726726 1 2811145728 0 22 0 0
4.2892237 1.1305095 -0.73714936 1 2811145728 0 22 0 0
4.3027611 1.077786 -0.73714674 1 2811145728 0 22 0 0
4.3163295 1.0250612 -0.7372607 1 2811145728 0 22 0 0
4.3299332 0.97231907 -0.73749065 1 2811145728 0 22 0 0
4.3435769 0.91954201 -0.73783672 1 2811145728 0 22 0 0
4.357264 0.86671329 -0.73829949 1 2811145728 0 22 0 0
4.3710003 0.81381583 -0.73887908 1 2811145728 0 22 0 0
4.3847899 0.76083237 -0.7395761 1 2811145728 0 22 0 0
4.3986373 0.70774567 -0.74039102 1 2811145728 0 22 0 0
4.4125466 0.65453857 -0.74132371 1 2811145728 0 22 0 0
4.4265227 0.60119498 -0.7423768 1 2811145728 0 22 0 0
4.4405718 0.54769313 -0.74354982 1 2811145728 0 22 0 0
4.3605313 0.97919017 -0.8595736 1 2811145728 0 23 0 0
4.3742852 0.92604327 -0.85997987 1 2811145728 0 23 0 0
4.3880897 0.87284511 -0.86052275 1 2811145728 0 23 0 0
4.401947 0.81957793 -0.86120284 1 2811145728 0 23 0 0
4.415864 0.7662245 -0.86202121 1 2811145728 0 23 0 0
4.4298434 0.71276706 -0.86297715 1 2811145728 0 23 0 0
4.4438915 0.65918797 -0.86407328 1 2811145728 0 23 0 0
4.4580121 0.60547149 -0.86530876 1 2811145728 0 23 0 0
4.4336452 0.82547939 -0.98649585 1 2811145728 0 24 0 0
4.4476924 0.77174675 -0.98743951 1 2811145728 0 24 0 0
4.4618087 0.71790993 -0.98854303 1 2811145728 0 24 0 0
