# .PCD v0.7 - Point Cloud Data file format
VERSION 0.7
FIELDS x y z intensity t reflectivity ring noise range
SIZE 4 4 4 4 4 2 2 2 4
TYPE F F F F U U U U U
COUNT 1 1 1 1 1 1 1 1 1
WIDTH 228
HEIGHT 1
VIEWPOINT 0 0 0 1 0 0 0
POINTS 228
DATA ascii
3.1307805 -0.86640364 0.45560783 1 2363997696 0 10 0 0
3.1737344 -0.75371212 0.37351891 1 2363997696 0 11 0 0
3.1661651 -0.79308289 0.37374517 1 2363997696 0 11 0 0
3.1585715 -0.83250362 0.37402683 1 2363997696 0 11 0 0
3.1509519 -0.87198573 0.37436363 1 2363997696 0 11 0 0
3.1433039 -0.91154134 0.37475583 1 2363997696 0 11 0 0
3.1356249 -0.95118159 0.37520379 1 2363997696 0 11 0 0
3.2093058 -0.67941475 0.29165402 1 2363997696 0 12 0 0
3.2017355 -0.71897328 0.29174593 1 2363997696 0 12 0 0
3.1941485 -0.7585603 0.29188094 1 2363997696 0 12 0 0
3.186543 -0.79818738 0.292059 1 2363997696 0 12 0 0
3.178916 -0.83786571 0.29228047 1 2363997696 0 12 0 0
3.1712658 -0.87760764 0.29254532 1 2363997696 0 12 0 0
3.1635897 -0.91742432 0.29285368 1 2363997696 0 12 0 0
3.1558855 -0.9573276 0.29320583 1 2363997696 0 12 0 0
3.1481509 -0.99733013 0.29360244 1 2363997696 0 12 0 0
3.1403837 -1.0374434 0.29404327 1 2363997696 0 12 0 0
3.252749 -0.56440622 0.20938301 1 2363997696 0 13 0 0
3.2451644 -0.60420293 0.20935637 1 2363997696 0 13 0 0
3.2375731 -0.64399266 0.20936072 1 2363997696 0 13 0 0
3.2299721 -0.68378979 0.20939589 1 2363997696 0 13 0 0
3.2223594 -0.72360462 0.20946252 1 2363997696 0 13 0 0
3.2147336 -0.76344877 0.20956004 1 2363997696 0 13 0 0
3.2070913 -0.80333424 0.20968854 1 2363997696 0 13 0 0
3.1994307 -0.84327286 0.20984864 1 2363997696 0 13 0 0
3.1917498 -0.88327622 0.21003991 1 2363997696 0 13 0 0
3.184046 -0.92335671 0.21026289 1 2363997696 0 13 0 0
3.1763167 -0.96352547 0.21051753 1 2363997696 0 13 0 0
3.16856 -1.0037953 0.21080416 1 2363997696 0 13 0 0
3.1607733 -1.0441788 0.21112281 1 2363997696 0 13 0 0
3.1529541 -1.0846878 0.21147364 1 2363997696 0 13 0 0
3.2890315 -0.48788208 0.12642181 1 2363997696 0 14 0 0
3.2813964 -0.5279817 0.12636787 1 2363997696 0 14 0 0
3.2737615 -0.56805229 0.12633294 1 2363997696 0 14 0 0
3.2661254 -0.60810548 0.12631691 1 2363997696 0 14 0 0
3.2584853 -0.64815229 0.12631953 1 2363997696 0 14 0 0
3.2508388 -0.68820739 0.12634093 1 2363997696 0 14 0 0
3.2431839 -0.72828084 0.12638116 1 2363997696 0 14 0 0
3.2355185 -0.76838481 0.12644035 1 2363997696 0 14 0 0
3.2278395 -0.80853146 0.12651849 1 2363997696 0 14 0 0
3.2201455 -0.84873265 0.1266157 1 2363997696 0 14 0 0
3.2124336 -0.88900024 0.12673181 1 2363997696 0 14 0 0
3.2047014 -0.92934668 0.12686729 1 2363997696 0 14 0 0
3.1969473 -0.96978354 0.12702203 1 2363997696 0 14 0 0
3.1891682 -1.0103242 0.12719595 1 2363997696 0 14 0 0
3.1813622 -1.0509808 0.12738943 1 2363997696 0 14 0 0
3.1735265 -1.0917653 0.1276027 1 2363997696 0 14 0 0
3.1656585 -1.1326915 0.12783575 1 2363997696 0 14 0 0
3.1577559 -1.1737715 0.12808871 1 2363997696 0 14 0 0
3.3335185 -0.36968029 0.042489111 1 2363997696 0 15 0 0
3.3257992 -0.41019842 0.04245168 1 2363997696 0 15 0 0
3.3180904 -0.45065096 0.042420685 1 2363997696 0 15 0 0
3.3103905 -0.49105051 0.042396069 1 2363997696 0 15 0 0
3.3026965 -0.53140885 0.04237783 1 2363997696 0 15 0 0
3.2950063 -0.57173842 0.042366207 1 2363997696 0 15 0 0
3.2873178 -0.61205125 0.042360604 1 2363997696 0 15 0 0
3.2796285 -0.652358 0.042361438 1 2363997696 0 15 0 0
3.2719362 -0.69267362 0.04236865 1 2363997696 0 15 0 0
3.2642381 -0.73300892 0.04238236 1 2363997696 0 15 0 0
3.2565329 -0.77337551 0.042402446 1 2363997696 0 15 0 0
3.248817 -0.81378609 0.042428732 1 2363997696 0 15 0 0
3.2410891 -0.85425252 0.042461574 1 2363997696 0 15 0 0
3.2333465 -0.89478743 0.042500794 1 2363997696 0 15 0 0
3.2255864 -0.93540299 0.04254657 1 2363997696 0 15 0 0
3.2178075 -0.97611129 0.042598724 1 2363997696 0 15 0 0
3.2100062 -1.0169256 0.042657495 1 2363997696 0 15 0 0
3.2021811 -1.0578583 0.042722702 1 2363997696 0 15 0 0
3.1943293 -1.0989219 0.042794704 1 2363997696 0 15 0 0
3.1864476 -1.1401298 0.042873383 1 2363997696 0 15 0 0
3.1785345 -1.1814951 0.042958856 1 2363997696 0 15 0 0
3.1705873 -1.2230297 0.043050945 1 2363997696 0 15 0 0
3.1626027 -1.2647504 0.043149889 1 2363997696 0 15 0 0
3.3709729 -0.29029053 -0.042862952 1 2363997696 0 16 0 0
3.3631477 -0.33124104 -0.04281199 1 2363997696 0 16 0 0
3.3553419 -0.37210041 -0.042767465 1 2363997696 0 16 0 0
3.3475528 -0.41288143 -0.042729557 1 2363997696 0 16 0 0
3.3397777 -0.45359641 -0.042698145 1 2363997696 0 16 0 0
3.3320148 -0.49425811 -0.042673111 1 2363997696 0 16 0 0
3.3242612 -0.53487855 -0.042654812 1 2363997696 0 16 0 0
3.3165143 -0.57547063 -0.042642653 1 2363997696 0 16 0 0
3.3087728 -0.61604607 -0.042637169 1 2363997696 0 16 0 0
3.3010337 -0.65661579 -0.042638242 1 2363997696 0 16 0 0
3.2932949 -0.69719517 -0.042645514 1 2363997696 0 16 0 0
3.2855537 -0.73779541 -0.042659283 1 2363997696 0 16 0 0
3.2778082 -0.7784279 -0.042679667 1 2363997696 0 16 0 0
3.2700551 -0.81910598 -0.04270637 1 2363997696 0 16 0 0
3.2622933 -0.85984135 -0.042739511 1 2363997696 0 16 0 0
3.2545195 -0.90064681 -0.042779148 1 2363997696 0 16 0 0
3.246732 -0.94153517 -0.04282546 1 2363997696 0 16 0 0
3.2389278 -0.98251814 -0.04287833 1 2363997696 0 16 0 0
3.2311046 -1.0236094 -0.042937875 1 2363997696 0 16 0 0
3.2232602 -1.0648221 -0.043004096 1 2363997696 0 16 0 0
3.2153924 -1.106168 -0.043076932 1 2363997696 0 16 0 0
3.2074978 -1.1476619 -0.043156803 1 2363997696 0 16 0 0
3.1995745 -1.1893159 -0.04324317 1 2363997696 0 16 0 0
3.1916199 -1.231143 -0.043336689 1 2363997696 0 16 0 0
3.1836312 -1.2731597 -0.043437183 1 2363997696 0 16 0 0
3.1756058 -1.3153782 -0.043544531 1 2363997696 0 16 0 0
3.4171231 -0.16787204 -0.1300807 1 2363997696 0 17 0 0
3.4091363 -0.20944454 -0.12986481 1 2363997696 0 17 0 0
3.4011798 -0.25088564 -0.12966931 1 2363997696 0 17 0 0
3.3932509 -0.29220915 -0.12949395 1 2363997696 0 17 0 0
3.3853476 -0.33342758 -0.12933868 1 2363997696 0 17 0 0
3.3774667 -0.3745541 -0.12920332 1 2363997696 0 17 0 0
3.3696065 -0.41560161 -0.12908828 1 2363997696 0 17 0 0
3.3617642 -0.45658264 -0.12899268 1 2363997696 0 17 0 0
3.3539369 -0.4975099 -0.1289171 1 2363997696 0 17 0 0
3.346123 -0.5383963 -0.12886095 1 2363997696 0 17 0 0
3.3383193 -0.57925415 -0.12882447 1 2363997696 0 17 0 0
3.330524 -0.62009561 -0.12880731 1 2363997696 0 17 0 0
3.3227348 -0.66093224 -0.12881011 1 2363997696 0 17 0 0
3.3149486 -0.70177948 -0.1288327 1 2363997696 0 17 0 0
3.3071632 -0.74264795 -0.12887466 1 2363997696 0 17 0 0
3.299377 -0.78355032 -0.12893623 1 2363997696 0 17 0 0
3.2915871 -0.82449937 -0.12901741 1 2363997696 0 17 0 0
3.2837908 -0.86550748 -0.12911832 1 2363997696 0 17 0 0
3.275986 -0.90658742 -0.12923926 1 2363997696 0 17 0 0
3.2681701 -0.94775218 -0.12938035 1 2363997696 0 17 0 0
3.2603412 -0.98901397 -0.12954092 1 2363997696 0 17 0 0
3.252496 -1.0303864 -0.12972188 1 2363997696 0 17 0 0
3.2446327 -1.0718825 -0.12992316 1 2363997696 0 17 0 0
3.2367489 -1.1135153 -0.13014472 1 2363997696 0 17 0 0
3.2288418 -1.1552988 -0.13038701 1 2363997696 0 17 0 0
3.2209086 -1.197246 -0.13065034 1 2363997696 0 17 0 0
3.2129476 -1.23937 -0.13093442 1 2363997696 0 17 0 0
3.2049551 -1.2816873 -0.13123983 1 2363997696 0 17 0 0
3.1969287 -1.3242108 -0.13156694 1 2363997696 0 17 0 0
3.4562747 -0.084845945 -0.21927464 1 2363997696 0 18 0 0
3.4481196 -0.12700114 -0.21883988 1 2363997696 0 18 0 0
3.4400041 -0.16899596 -0.21843994 1 2363997696 0 18 0 0
3.4319258 -0.21084446 -0.21807492 1 2363997696 0 18 0 0
3.4238818 -0.25256035 -0.21774429 1 2363997696 0 18 0 0
3.4158695 -0.29415682 -0.21744794 1 2363997696 0 18 0 0
3.407886 -0.33564746 -0.21718574 1 2363997696 0 18 0 0
3.3999295 -0.37704507 -0.21695691 1 2363997696 0 18 0 0
3.3919966 -0.41836306 -0.21676213 1 2363997696 0 18 0 0
3.3840854 -0.45961425 -0.21660072 1 2363997696 0 18 0 0
3.3761928 -0.50081128 -0.21647269 1 2363997696 0 18 0 0
3.3683174 -0.54196751 -0.21637779 1 2363997696 0 18 0 0
3.3604558 -0.58309507 -0.21631622 1 2363997696 0 18 0 0
3.3526058 -0.62420696 -0.21628767 1 2363997696 0 18 0 0
3.3447652 -0.6653145 -0.21629226 1 2363997696 0 18 0 0
3.3369315 -0.70643318 -0.21633011 1 2363997696 0 18 0 0
3.3291018 -0.74757445 -0.21640104 1 2363997696 0 18 0 0
3.3212743 -0.78875059 -0.21650511 1 2363997696 0 18 0 0
3.3134465 -0.82997483 -0.21664268 1 2363997696 0 18 0 0
3.3056154 -0.87125999 -0.21681333 1 2363997696 0 18 0 0
3.2977796 -0.91261846 -0.21701783 1 2363997696 0 18 0 0
3.2899356 -0.95406401 -0.21725553 1 2363997696 0 18 0 0
3.2820816 -0.99560875 -0.21752751 1 2363997696 0 18 0 0
3.2742147 -1.0372666 -0.2178334 1 2363997696 0 18 0 0
3.2663329 -1.0790509 -0.21817344 1 2363997696 0 18 0 0
3.2584333 -1.120975 -0.21854818 1 2363997696 0 18 0 0
3.2505136 -1.1630532 -0.21895802 1 2363997696 0 18 0 0
3.2425711 -1.2052985 -0.21940291 1 2363997696 0 18 0 0
3.4632692 -0.17013897 -0.30828083 1 2363997696 0 19 0 0
3.4550972 -0.21226819 -0.30776203 1 2363997696 0 19 0 0
3.4469638 -0.25426298 -0.30729234 1 2363997696 0 19 0 0
3.4388659 -0.29613712 -0.30687153 1 2363997696 0 19 0 0
3.4308007 -0.33790427 -0.30649877 1 2363997696 0 19 0 0
3.4227664 -0.37957776 -0.30617404 1 2363997696 0 19 0 0
3.4147594 -0.42117044 -0.30589724 1 2363997696 0 19 0 0
3.4067781 -0.46269616 -0.30566788 1 2363997696 0 19 0 0
3.3988194 -0.50416756 -0.30548608 1 2363997696 0 19 0 0
3.3908813 -0.54559785 -0.30535114 1 2363997696 0 19 0 0
3.3829603 -0.58699995 -0.30526364 1 2363997696 0 19 0 0
3.3750548 -0.62838674 -0.30522335 1 2363997696 0 19 0 0
3.3671625 -0.66976959 -0.3052299 1 2363997696 0 19 0 0
3.3592803 -0.71116447 -0.30528355 1 2363997696 0 19 0 0
3.3514056 -0.75258279 -0.30538416 1 2363997696 0 19 0 0
3.3435364 -0.79403764 -0.3055321 1 2363997696 0 19 0 0
3.3356698 -0.83554161 -0.30572712 1 2363997696 0 19 0 0
3.3278039 -0.87710816 -0.30596995 1 2363997696 0 19 0 0
3.319936 -0.91875029 -0.30626011 1 2363997696 0 19 0 0
3.3120642 -0.96048093 -0.30659819 1 2363997696 0 19 0 0
3.3041852 -1.0023136 -0.30698431 1 2363997696 0 19 0 0
3.2962966 -1.0442624 -0.30741894 1 2363997696 0 19 0 0
3.2883961 -1.08634 -0.30790234 1 2363997696 0 19 0 0
3.4786904 -0.21371752 -0.39908195 1 2363997696 0 20 0 0
3.4704649 -0.25599658 -0.39846885 1 2363997696 0 20 0 0
3.4622796 -0.29815346 -0.39791882 1 2363997696 0 20 0 0
3.4541311 -0.34020209 -0.39743245 1 2363997696 0 20 0 0
3.446017 -0.38215628 -0.39700854 1 2363997696 0 20 0 0
3.4379351 -0.42402896 -0.3966471 1 2363997696 0 20 0 0
3.429882 -0.4658342 -0.396348 1 2363997696 0 20 0 0
3.4218557 -0.50758487 -0.39611042 1 2363997696 0 20 0 0
3.4138534 -0.54929435 -0.3959347 1 2363997696 0 20 0 0
3.4058721 -0.59097576 -0.39582026 1 2363997696 0 20 0 0
3.3979101 -0.63264209 -0.39576757 1 2363997696 0 20 0 0
3.3899646 -0.67430526 -0.39577603 1 2363997696 0 20 0 0
3.3820333 -0.71598113 -0.39584613 1 2363997696 0 20 0 0
3.3741124 -0.75768179 -0.39597774 1 2363997696 0 20 0 0
3.3662012 -0.79942 -0.39617062 1 2363997696 0 20 0 0
3.3582959 -0.84120917 -0.39642549 1 2363997696 0 20 0 0
3.3503947 -0.88306242 -0.39674199 1 2363997696 0 20 0 0
3.3424954 -0.92499322 -0.39712107 1 2363997696 0 20 0 0
3.3345947 -0.96701449 -0.3975625 1 2363997696 0 20 0 0
3.3266907 -1.0091406 -0.39806664 1 2363997696 0 20 0 0
3.4861534 -0.3002094 -0.4907558 1 2363997696 0 21 0 0
3.4779196 -0.34254509 -0.49015176 1 2363997696 0 21 0 0
3.4697244 -0.38478529 -0.48962533 1 2363997696 0 21 0 0
3.4615653 -0.42694354 -0.48917651 1 2363997696 0 21 0 0
3.4534385 -0.46903345 -0.48880482 1 2363997696 0 21 0 0
3.445343 -0.51106876 -0.48850989 1 2363997696 0 21 0 0
3.4372749 -0.5530628 -0.4882915 1 2363997696 0 21 0 0
3.4292326 -0.59502882 -0.48814952 1 2363997696 0 21 0 0
3.4212129 -0.63698077 -0.48808396 1 2363997696 0 21 0 0
3.4132135 -0.67892969 -0.48809469 1 2363997696 0 21 0 0
3.4052312 -0.72089231 -0.48818171 1 2363997696 0 21 0 0
3.3972642 -0.76288068 -0.48834515 1 2363997696 0 21 0 0
3.3893099 -0.80490798 -0.48858464 1 2363997696 0 21 0 0
3.3813655 -0.84698761 -0.48890114 1 2363997696 0 21 0 0
3.3734286 -0.88913351 -0.48929453 1 2363997696 0 21 0 0
3.4939327 -0.38746983 -0.58420014 1 2363997696 0 22 0 0
3.4856942 -0.42991942 -0.5836606 1 2363997696 0 22 0 0
3.4774928 -0.47230038 -0.58321404 1 2363997696 0 22 0 0
3.469326 -0.51462632 -0.58285975 1 2363997696 0 22 0 0
3.4611914 -0.55691099 -0.58259737 1 2363997696 0 22 0 0
3.4530859 -0.59916782 -0.58242679 1 2363997696 0 22 0 0
3.4450068 -0.64141071 -0.58234811 1 2363997696 0 22 0 0
3.4369524 -0.68365157 -0.58236086 1 2363997696 0 22 0 0
3.4289191 -0.72590715 -0.58246529 1 2363997696 0 22 0 0
3.4209044 -0.76818955 -0.58266163 1 2363997696 0 22 0 0
3.5020919 -0.4756414 -0.67976296 1 2363997696 0 23 0 0
3.4938524 -0.51826459 -0.67934704 1 2363997696 0 23 0 0
3.4856491 -0.56084627 -0.67903912 1 2363997696 0 23 0 0
3.4774792 -0.60340047 -0.67883897 1 2363997696 0 23 0 0
3.4693398 -0.64594114 -0.67874634 1 2363997696 0 23 0 0
